ply
format ascii 1.0
comment pointcloud saved from Realsense Viewer
element vertex 1876
property float32 x
property float32 y
property float32 z
end_header
0.43465 2.98600 0.87615 
0.55502 2.96300 0.86940 
0.68600 3.29500 0.96682 
1.10824 4.83800 1.41957 
1.37490 5.79100 1.69920 
1.56556 6.37000 1.86909 
2.21883 6.82500 2.00260 
2.37520 6.94900 2.03898 
2.46224 6.94900 2.03898 
2.56706 7.07800 2.07683 
2.59661 7.07800 2.07683 
2.68527 7.07800 2.07683 
2.73177 6.82500 2.00260 
2.39068 5.62100 1.64932 
2.39053 5.30800 1.55748 
2.52738 5.46000 1.60208 
2.33139 4.77800 1.40196 
2.32230 4.71900 1.38465 
2.26938 4.49700 1.31951 
3.00337 5.53900 1.62526 
3.11719 5.70500 1.67396 
3.23344 5.38300 1.57948 
3.36569 5.30800 1.55748 
3.44755 5.16500 1.51552 
3.49068 5.16500 1.51552 
3.46532 5.09600 1.49527 
3.48660 5.09600 1.49527 
3.43774 4.96400 1.45654 
3.20821 4.49700 1.31951 
2.99820 4.15400 1.21887 
2.86521 3.10700 0.91166 
2.86029 3.03300 0.88994 
-1.44970 1.59900 0.46250 
-1.43279 1.63300 0.47234 
-1.40863 1.66900 0.48275 
-1.41308 1.69100 0.48911 
-1.39652 1.71400 0.49577 
-1.37986 1.72900 0.50010 
-1.37899 1.73700 0.50242 
-1.37077 1.74500 0.50473 
-1.34473 1.77800 0.51428 
-1.33586 1.78600 0.51659 
-1.33639 1.83800 0.53163 
-1.33450 1.84600 0.53395 
-1.33326 1.85500 0.53655 
-1.34059 1.92100 0.55564 
-1.33279 2.11200 0.61089 
-1.32530 2.17200 0.62824 
-1.31439 2.18400 0.63171 
-1.31099 2.20900 0.63894 
-1.27390 2.49800 0.72253 
-1.08316 2.56500 0.74191 
-1.06912 2.63600 0.76245 
-1.03948 2.67300 0.77315 
-1.02165 2.87400 0.83129 
-0.97475 3.10700 0.89868 
-0.93830 3.15900 0.91373 
-0.89615 3.29500 0.95306 
-0.65740 2.96300 0.85703 
-0.62565 2.87400 0.83129 
-0.54107 2.69200 0.77865 
-0.48829 2.71100 0.78414 
-0.48984 3.15900 0.91373 
-0.42948 3.41300 0.98719 
-0.38321 3.38200 0.97823 
-0.24954 3.29500 0.95306 
-0.01453 3.05800 0.88451 
0.02358 3.03300 0.87728 
0.06208 3.05800 0.88451 
0.15518 3.13300 0.90620 
0.29659 3.10700 0.89868 
0.38428 3.08200 0.89145 
1.10824 4.83800 1.39937 
1.23807 5.30800 1.53531 
1.78473 6.59000 1.90613 
1.89479 6.59000 1.90613 
1.92230 6.59000 1.90613 
1.97733 6.59000 1.90613 
2.30432 6.82500 1.97410 
2.37520 6.94900 2.00997 
2.52970 6.06700 1.75485 
2.47628 5.88000 1.70076 
2.43619 5.46000 1.57928 
2.41186 5.02900 1.45461 
2.33139 4.77800 1.38201 
2.28543 4.60500 1.33197 
2.85595 5.30800 1.53531 
3.18836 5.79100 1.67502 
3.35540 5.70500 1.65014 
3.37922 5.70500 1.65014 
3.37088 5.46000 1.57928 
3.39368 5.46000 1.57928 
3.51680 5.23600 1.51449 
2.57618 2.94000 0.85038 
2.82629 3.10700 0.89868 
2.86521 3.10700 0.89868 
2.87818 3.10700 0.89868 
2.86789 3.08200 0.89145 
2.81276 2.91800 0.84402 
2.89034 2.87400 0.83129 
2.92355 2.89500 0.83736 
-1.44168 1.62000 0.46181 
-1.43492 1.62000 0.46181 
-1.42524 1.64000 0.46751 
-1.37899 1.73700 0.49517 
-1.35510 1.75300 0.49973 
-1.34185 1.79400 0.51141 
-1.33766 1.88300 0.53679 
-1.34188 1.97000 0.56159 
-1.33689 2.01200 0.57356 
-1.33255 2.04400 0.58268 
-1.31737 2.15900 0.61547 
-1.31099 2.20900 0.62972 
-1.36492 2.41900 0.68958 
-1.34691 2.49800 0.71210 
-1.34196 2.54800 0.72636 
-1.15917 2.49800 0.71210 
-1.14278 2.53100 0.72151 
-1.10051 2.53100 0.72151 
-1.03948 2.67300 0.76199 
-1.02350 2.75000 0.78394 
-1.02237 2.81000 0.80105 
-1.02574 2.85200 0.81302 
-1.02752 3.03300 0.86462 
-1.01485 3.03300 0.86462 
-1.00219 3.03300 0.86462 
-0.99768 3.05800 0.87174 
-0.98772 3.10700 0.88571 
-0.80669 3.26700 0.93132 
-0.70954 3.08200 0.87859 
-0.65740 2.96300 0.84466 
-0.62565 2.87400 0.81929 
-0.47793 3.35300 0.95584 
-0.46794 3.38200 0.96411 
-0.40098 3.41300 0.97294 
-0.35497 3.38200 0.96411 
-0.33793 3.35300 0.95584 
-0.32673 3.38200 0.96411 
0.11497 3.10700 0.88571 
0.34112 3.15900 0.90054 
0.35431 3.15900 0.90054 
0.39715 3.08200 0.87859 
0.50161 2.94000 0.83811 
0.55502 2.96300 0.84466 
2.30432 6.82500 1.94560 
2.59661 7.07800 2.01772 
2.68374 6.70500 1.91139 
2.60285 6.37000 1.81590 
2.52970 6.06700 1.72952 
2.45022 5.70500 1.62632 
2.44831 5.53900 1.57900 
2.49456 5.53900 1.57900 
2.22408 4.44400 1.26685 
2.21690 4.39300 1.25231 
3.26192 5.88000 1.67621 
3.33789 5.97200 1.70244 
3.44165 6.06700 1.72952 
3.41269 5.97200 1.70244 
3.43377 5.88000 1.67621 
3.47450 5.70500 1.62632 
3.47028 5.62100 1.60238 
3.51722 5.62100 1.60238 
3.52083 5.30800 1.51315 
3.49068 5.16500 1.47239 
3.34883 4.77800 1.36206 
2.50816 2.91800 0.83183 
2.57159 2.96300 0.84466 
2.61648 2.98600 0.85122 
2.68689 3.00900 0.85777 
2.80355 3.08200 0.87859 
2.81596 2.98600 0.85122 
2.80267 2.89500 0.82528 
2.88729 2.89500 0.82528 
-1.48417 1.59300 0.44746 
-1.47751 1.59300 0.44746 
-1.44263 1.60600 0.45112 
-1.44219 1.61300 0.45308 
-1.41426 1.68400 0.47303 
-1.40602 1.69100 0.47499 
-1.39652 1.71400 0.48145 
-1.37077 1.74500 0.49016 
-1.36242 1.75300 0.49241 
-1.33257 1.92100 0.53960 
-1.34043 1.98000 0.55617 
-1.30527 2.18400 0.61347 
-1.30387 2.19700 0.61712 
-1.38241 2.45000 0.68819 
-1.25107 2.51500 0.70645 
-1.14278 2.53100 0.71094 
-1.05811 2.63600 0.74044 
-1.02832 2.67300 0.75083 
-1.03365 2.87400 0.80729 
-0.94366 3.13300 0.88004 
-0.86993 3.35300 0.94184 
-0.79305 3.26700 0.91768 
-0.51493 2.67300 0.75083 
-0.49532 2.75000 0.77246 
-0.46200 3.44300 0.96712 
-0.43325 3.44300 0.96712 
-0.40098 3.41300 0.95869 
-0.26561 3.32400 0.93369 
-0.25173 3.32400 0.93369 
-0.19285 3.26700 0.91768 
-0.00176 3.05800 0.85898 
0.06208 3.05800 0.85898 
0.10118 3.08200 0.86572 
0.14092 3.10700 0.87274 
0.22986 3.08200 0.86572 
0.29659 3.10700 0.87274 
0.35140 3.13300 0.88004 
0.52616 2.94000 0.82583 
0.56739 2.96300 0.83229 
0.90716 4.11000 1.15448 
0.99943 4.44400 1.24830 
1.25556 5.38300 1.51206 
1.51384 6.26600 1.76009 
2.30432 6.82500 1.91711 
2.37520 6.94900 1.95194 
2.53750 7.07800 1.98817 
2.60732 6.94900 1.95194 
2.69436 6.94900 1.95194 
2.67478 6.82500 1.91711 
2.70327 6.82500 1.91711 
2.47628 5.88000 1.65166 
2.53669 5.38300 1.51206 
2.33139 4.77800 1.34211 
2.28543 4.60500 1.29352 
2.96053 5.46000 1.53368 
3.53198 5.88000 1.65166 
3.52688 5.79100 1.62666 
3.56416 5.62100 1.57891 
3.41701 4.96400 1.39436 
3.34883 4.77800 1.34211 
2.57743 3.05800 0.85898 
2.54869 3.00900 0.84521 
2.62407 3.00900 0.84521 
2.68299 3.03300 0.85195 
2.80355 3.08200 0.86572 
2.82929 3.08200 0.86572 
2.79059 2.89500 0.81319 
2.83034 2.87400 0.80729 
2.86311 2.89500 0.81319 
-1.43593 1.60600 0.44441 
-1.43545 1.61300 0.44635 
-1.42665 1.62600 0.44994 
-1.40966 1.66200 0.45991 
-1.41426 1.68400 0.46599 
-1.39652 1.71400 0.47430 
-1.38708 1.72900 0.47845 
-1.38624 1.73700 0.48066 
-1.34473 1.77800 0.49201 
-1.33527 1.90200 0.52632 
-1.33507 1.96000 0.54237 
-1.29810 2.17200 0.60103 
-1.30943 2.22200 0.61487 
-1.33132 2.54800 0.70508 
-1.29073 2.53100 0.70038 
-1.25107 2.51500 0.69595 
-1.16960 2.49800 0.69124 
-1.15335 2.53100 0.70038 
-1.08709 2.60000 0.71947 
-1.05426 2.65400 0.73441 
-1.02350 2.75000 0.76098 
-1.02674 2.79000 0.77205 
-1.03729 2.91800 0.80747 
-1.02322 3.05800 0.84621 
-0.95118 3.29500 0.91179 
-0.94568 3.32400 0.91981 
-0.93180 3.32400 0.91981 
-0.91981 3.38200 0.93586 
-0.82077 3.32400 0.91981 
-0.71529 3.10700 0.85977 
-0.60895 2.85200 0.78920 
-0.49726 2.89500 0.80110 
-0.49717 3.29500 0.91179 
-0.49618 3.38200 0.93586 
-0.26793 3.35300 0.92784 
-0.19450 3.29500 0.91179 
-0.18075 3.29500 0.91179 
-0.15063 3.23900 0.89629 
0.02378 3.05800 0.84621 
0.03655 3.05800 0.84621 
0.21699 3.08200 0.85285 
0.25767 3.10700 0.85977 
0.27064 3.10700 0.85977 
0.28362 3.10700 0.85977 
0.30956 3.10700 0.85977 
0.32254 3.10700 0.85977 
0.47706 2.94000 0.81355 
0.53843 2.94000 0.81355 
0.55502 2.96300 0.81992 
0.60612 3.03300 0.83929 
1.01135 4.49700 1.24441 
1.12244 4.90000 1.35592 
1.83976 6.59000 1.82358 
2.24732 6.82500 1.88861 
2.49126 6.94900 1.92292 
2.56035 6.26600 1.73392 
2.57843 5.62100 1.55544 
2.32230 4.71900 1.30584 
3.41632 6.06700 1.67886 
3.49724 6.16500 1.70597 
3.54872 6.16500 1.70597 
3.58724 5.97200 1.65257 
3.55842 5.53900 1.53275 
3.58155 5.53900 1.53275 
3.52083 5.30800 1.46883 
2.80355 3.08200 0.85285 
2.82929 3.08200 0.85285 
2.77850 2.89500 0.80110 
2.89804 2.91800 0.80747 
-1.46421 1.59300 0.43416 
-1.45756 1.59300 0.43416 
-1.45091 1.59300 0.43416 
-1.43593 1.60600 0.43770 
-1.38865 1.72200 0.46932 
-1.36242 1.75300 0.47777 
-1.35269 1.76900 0.48213 
-1.33850 1.82000 0.49603 
-1.33326 1.85500 0.50557 
-1.33194 1.86400 0.50802 
-1.33640 1.95000 0.53146 
-1.33125 1.99100 0.54263 
-1.30768 2.10000 0.57234 
-1.33116 2.27500 0.62004 
-1.36649 2.40400 0.65519 
-1.36937 2.48200 0.67645 
-1.16960 2.49800 0.68081 
-1.09387 2.56500 0.69907 
-1.09034 2.58200 0.70371 
-1.07956 2.58200 0.70371 
-1.02832 2.67300 0.72851 
-1.02030 2.71100 0.73887 
-1.04451 3.00900 0.82008 
-1.02322 3.05800 0.83344 
-0.99264 3.08200 0.83998 
-0.95674 3.13300 0.85388 
-0.95674 3.26700 0.89040 
-0.94310 3.26700 0.89040 
-0.89157 3.38200 0.92174 
-0.51417 2.79000 0.76040 
-0.51093 3.29500 0.89803 
-0.47638 3.44300 0.93837 
-0.43728 3.47500 0.94709 
-0.16699 3.29500 0.89803 
-0.09492 3.18500 0.86805 
-0.00177 3.08200 0.83998 
0.03683 3.08200 0.83998 
0.10118 3.08200 0.83998 
0.25767 3.10700 0.84679 
0.39084 3.03300 0.82662 
0.50161 2.94000 0.80128 
0.51388 2.94000 0.80128 
1.41787 5.97200 1.62763 
1.86727 6.59000 1.79606 
1.89479 6.59000 1.79606 
1.94982 6.59000 1.79606 
2.57625 6.37000 1.73610 
2.56035 6.26600 1.70776 
2.42272 5.09600 1.38888 
2.28543 4.60500 1.25506 
2.28816 4.49700 1.22563 
2.54247 4.83800 1.31857 
2.68484 5.02900 1.37062 
3.57447 6.16500 1.68023 
3.65169 6.16500 1.68023 
3.70317 6.16500 1.68023 
3.47308 5.23600 1.42704 
3.49494 5.23600 1.42704 
3.39342 4.90000 1.33546 
3.41388 4.90000 1.33546 
3.39088 4.83800 1.31857 
2.79996 3.00900 0.82008 
-1.43593 1.60600 0.43100 
-1.43344 1.62600 0.43637 
-1.41757 1.64700 0.44200 
-1.39712 1.70600 0.45784 
-1.38146 1.72200 0.46213 
-1.35393 1.76100 0.47260 
-1.34473 1.77800 0.47716 
-1.34105 1.80300 0.48387 
-1.32733 1.90200 0.51044 
-1.32563 1.91100 0.51285 
-1.32665 2.02200 0.54264 
-1.30273 2.13500 0.57297 
-1.32979 2.28900 0.61429 
-1.36322 2.43400 0.65321 
-1.36195 2.45000 0.65750 
-1.36055 2.46600 0.66180 
-1.32243 2.53100 0.67924 
-1.29073 2.53100 0.67924 
-1.20610 2.46600 0.66180 
-1.18284 2.48200 0.66609 
-1.17247 2.48200 0.66609 
-1.15656 2.51500 0.67495 
-1.12918 2.54800 0.68380 
-1.08709 2.60000 0.69776 
-1.07275 2.61800 0.70259 
-1.04711 2.63600 0.70742 
-1.01716 2.67300 0.71735 
-1.03001 2.83100 0.75975 
-0.99768 3.05800 0.82067 
-0.99264 3.08200 0.82711 
-0.69124 3.05800 0.82067 
-0.64002 2.94000 0.78900 
-0.61813 2.89500 0.77693 
-0.53747 2.79000 0.74875 
-0.52173 2.83100 0.75975 
-0.51684 3.00900 0.80752 
-0.52047 3.18500 0.85475 
-0.51993 3.35300 0.89984 
-0.30387 3.44300 0.92399 
-0.18393 3.35300 0.89984 
-0.09573 3.21200 0.86200 
-0.08162 3.18500 0.85475 
-0.00179 3.10700 0.83382 
0.03683 3.08200 0.82711 
0.06208 3.05800 0.82067 
0.10118 3.08200 0.82711 
0.11404 3.08200 0.82711 
0.16552 3.08200 0.82711 
0.21699 3.08200 0.82711 
0.27064 3.10700 0.83382 
0.44023 2.94000 0.78900 
0.47349 2.91800 0.78310 
0.55502 2.96300 0.79518 
1.70389 6.70500 1.79941 
1.75988 6.70500 1.79941 
2.05988 6.59000 1.76855 
2.17982 6.70500 1.79941 
2.30432 6.82500 1.83161 
2.49126 6.94900 1.86489 
2.53229 6.82500 1.83161 
2.57176 6.70500 1.79941 
2.49009 5.97200 1.60270 
2.51503 5.97200 1.60270 
2.52538 5.88000 1.57801 
2.51769 5.53900 1.48649 
2.52738 5.46000 1.46529 
2.33139 4.77800 1.28226 
2.46023 4.71900 1.26643 
3.14102 5.70500 1.53104 
3.41632 6.06700 1.62819 
3.63303 6.26600 1.68160 
3.67743 6.16500 1.65449 
3.70317 6.16500 1.65449 
3.61742 5.70500 1.53104 
3.34883 4.77800 1.28226 
3.12561 3.82200 1.02570 
2.99197 3.64000 0.97686 
2.77387 3.32400 0.89206 
2.71646 3.23900 0.86925 
2.65372 3.13300 0.84080 
2.69656 3.10700 0.83382 
2.79697 3.03300 0.81396 
2.76953 2.96300 0.79518 
2.81276 2.91800 0.78310 
2.89534 2.94000 0.78900 
2.95511 2.96300 0.79518 
2.97985 2.96300 0.79518 
-1.44426 1.59300 0.42086 
-1.44263 1.60600 0.42429 
-1.43593 1.60600 0.42429 
-1.43344 1.62600 0.42958 
-1.42598 1.63300 0.43143 
-1.39712 1.70600 0.45071 
-1.37174 1.73700 0.45890 
-1.37077 1.74500 0.46102 
-1.35393 1.76100 0.46524 
-1.34332 1.78600 0.47185 
-1.34610 1.82000 0.48083 
-1.34512 1.82900 0.48321 
-1.32563 1.91100 0.50487 
-1.32689 1.96000 0.51782 
-1.30976 2.02200 0.53420 
-1.30840 2.03300 0.53710 
-1.30943 2.22200 0.58704 
-1.32773 2.30200 0.60817 
-1.30130 2.53100 0.66867 
-1.17782 2.45000 0.64727 
-1.09034 2.58200 0.68215 
-1.06538 2.60000 0.68690 
-1.02030 2.71100 0.71623 
-1.04875 3.05800 0.80790 
-0.87628 3.32400 0.87818 
-0.84112 3.29500 0.87052 
-0.76629 3.21200 0.84859 
-0.73436 3.13300 0.82772 
-0.52131 2.96300 0.78280 
-0.42277 3.47500 0.91807 
-0.40826 3.47500 0.91807 
-0.36799 3.50600 0.92626 
-0.30669 3.47500 0.91807 
-0.26317 3.47500 0.91807 
-0.23199 3.44300 0.90962 
-0.21762 3.44300 0.90962 
-0.14193 3.35300 0.88584 
-0.11101 3.26700 0.86312 
-0.00179 3.10700 0.82085 
0.06208 3.05800 0.80790 
0.07485 3.05800 0.80790 
0.11404 3.08200 0.81424 
0.16552 3.08200 0.81424 
0.28362 3.10700 0.82085 
0.33551 3.10700 0.82085 
0.36145 3.10700 0.82085 
0.37817 3.03300 0.80130 
0.42218 2.98600 0.78888 
0.46130 2.91800 0.77092 
0.92702 4.20000 1.10961 
1.98385 6.70500 1.77141 
2.00485 6.59000 1.74103 
2.03237 6.59000 1.74103 
2.50380 6.82500 1.80312 
2.52538 5.88000 1.55346 
2.54993 5.88000 1.55346 
2.43396 5.16500 1.36456 
2.37046 4.90000 1.29455 
2.31322 4.66100 1.23140 
2.72061 5.09600 1.34633 
3.09477 5.62100 1.48503 
3.21254 5.79100 1.52994 
3.68535 6.26600 1.65543 
3.72891 6.16500 1.62875 
3.68698 5.97200 1.57776 
3.65473 5.88000 1.55346 
3.67929 5.88000 1.55346 
3.47308 5.23600 1.38332 
3.44755 5.16500 1.36456 
3.40225 4.24700 1.12203 
3.02074 3.67500 0.97091 
2.78737 3.10700 0.82085 
2.77484 3.00900 0.79496 
2.82494 2.91800 0.77092 
2.85851 2.94000 0.77673 
2.94273 2.96300 0.78280 
-1.47112 1.57900 0.41057 
-1.41660 1.66200 0.43215 
-1.38146 1.72200 0.44775 
-1.34700 1.81100 0.47089 
-1.34406 1.83800 0.47791 
-1.33972 1.86400 0.48467 
-1.32733 1.90200 0.49455 
-1.32826 1.95000 0.50703 
-1.32293 1.99100 0.51769 
-1.31168 2.01200 0.52316 
-1.30427 2.12300 0.55202 
-1.29810 2.17200 0.56476 
-1.31411 2.26200 0.58816 
-1.31812 2.30200 0.59856 
-1.32500 2.33100 0.60610 
-1.33106 2.35900 0.61338 
-1.33126 2.45000 0.63704 
-1.32458 2.51500 0.65394 
-1.21640 2.46600 0.64120 
-1.16491 2.46600 0.64120 
-1.14874 2.49800 0.64952 
-1.09034 2.58200 0.67137 
-1.08709 2.60000 0.67605 
-1.06538 2.60000 0.67605 
-1.03365 2.87400 0.74729 
-1.03599 3.05800 0.79513 
-0.99768 3.05800 0.79513 
-0.92830 3.08200 0.80137 
-0.91750 3.13300 0.81464 
-0.77314 3.18500 0.82816 
-0.75364 3.15900 0.82140 
-0.66760 3.00900 0.78239 
-0.52940 3.00900 0.78239 
-0.52526 3.05800 0.79513 
-0.51993 3.35300 0.87184 
-0.49075 3.44300 0.89524 
-0.46200 3.44300 0.89524 
-0.43325 3.44300 0.89524 
-0.39375 3.47500 0.90356 
-0.28015 3.50600 0.91162 
-0.23624 3.50600 0.91162 
-0.12682 3.32400 0.86430 
-0.01476 3.10700 0.80787 
-0.00179 3.10700 0.80787 
0.30956 3.10700 0.80787 
0.43694 2.91800 0.75873 
0.47706 2.94000 0.76445 
0.72347 3.47500 0.90356 
1.18315 5.16500 1.34299 
1.90536 6.82500 1.77462 
2.05988 6.59000 1.71352 
2.08740 6.59000 1.71352 
2.11491 6.59000 1.71352 
2.29180 6.70500 1.74342 
2.31979 6.70500 1.74342 
2.37579 6.70500 1.74342 
2.40378 6.70500 1.74342 
2.44510 6.59000 1.71352 
2.46986 6.37000 1.65631 
2.49009 5.97200 1.55283 
2.53996 5.97200 1.55283 
2.50802 5.62100 1.46156 
2.41239 5.16500 1.34299 
2.35996 4.96400 1.29073 
2.47104 4.77800 1.24236 
2.69933 5.09600 1.32505 
2.87811 5.30800 1.38017 
3.63303 6.26600 1.62927 
3.65919 6.26600 1.62927 
3.73768 6.26600 1.62927 
3.58763 5.62100 1.46156 
3.52563 5.38300 1.39968 
3.37777 5.02900 1.30763 
3.37556 4.96400 1.29073 
3.41701 4.96400 1.29073 
3.40225 4.24700 1.10430 
3.34509 4.15400 1.08011 
2.80416 3.18500 0.82816 
2.82083 3.15900 0.82140 
2.81070 3.13300 0.81464 
2.79697 3.03300 0.78863 
2.80057 2.91800 0.75873 
2.87079 2.94000 0.76445 
2.89534 2.94000 0.76445 
-1.46453 1.57900 0.40397 
-1.44168 1.62000 0.41446 
-1.36349 1.74500 0.44644 
-1.35510 1.75300 0.44849 
-1.35269 1.76900 0.45258 
-1.34531 1.76900 0.45258 
-1.34700 1.81100 0.46333 
-1.34512 1.82900 0.46794 
-1.34406 1.83800 0.47024 
-1.34220 1.84600 0.47228 
-1.31870 1.96000 0.50145 
-1.30328 2.01200 0.51475 
-1.29991 2.03300 0.52013 
-1.30466 2.26200 0.57872 
-1.31630 2.40400 0.61504 
-1.15736 2.45000 0.62681 
-1.14138 2.48200 0.63500 
-1.04511 2.94000 0.75218 
-1.04451 3.00900 0.76983 
-0.94661 3.05800 0.78237 
-0.92107 3.05800 0.78237 
-0.85294 3.18500 0.81486 
-0.72240 3.08200 0.78851 
-0.54197 3.00900 0.76983 
-0.52941 3.15900 0.80821 
-0.47223 3.41300 0.87319 
-0.38262 3.50600 0.89698 
-0.30034 3.57200 0.91387 
-0.05503 3.18500 0.81486 
0.01110 3.08200 0.78851 
0.12691 3.08200 0.78851 
0.17839 3.08200 0.78851 
0.20412 3.08200 0.78851 
0.27064 3.10700 0.79490 
0.29659 3.10700 0.79490 
0.40340 2.94000 0.75218 
0.42475 2.91800 0.74655 
0.53439 2.98600 0.76394 
0.58079 3.03300 0.77597 
0.87116 4.02300 1.02925 
1.33066 5.70500 1.45958 
1.93386 6.82500 1.74612 
2.36255 6.59000 1.68600 
2.42954 6.26600 1.60311 
2.46515 5.97200 1.52789 
2.40183 5.23600 1.33959 
2.39087 5.02900 1.28663 
2.38086 4.83800 1.23777 
3.74563 6.06700 1.55220 
3.70384 5.88000 1.50435 
3.67195 5.79100 1.48158 
3.44076 5.02900 1.28663 
3.48090 4.66100 1.19248 
3.47753 4.60500 1.17815 
3.47400 4.55000 1.16408 
3.45231 4.49700 1.15052 
3.42197 4.29400 1.09859 
3.17312 3.90000 0.99778 
2.85973 3.29500 0.84300 
2.86040 3.15900 0.80821 
2.78190 2.96300 0.75806 
2.82494 2.91800 0.74655 
2.89534 2.94000 0.75218 
2.90762 2.94000 0.75218 
-1.45116 1.58600 0.39914 
-1.43279 1.63300 0.41097 
-1.43209 1.64000 0.41273 
-1.42446 1.65500 0.41651 
-1.41560 1.66900 0.42003 
-1.36449 1.73700 0.43715 
-1.34531 1.76900 0.44520 
-1.35078 1.78600 0.44948 
-1.34934 1.79400 0.45149 
-1.33361 1.91100 0.48094 
-1.31870 1.96000 0.49327 
-1.29615 2.18400 0.54964 
-1.29469 2.19700 0.55291 
-1.29522 2.26200 0.56927 
-1.31337 2.34500 0.59016 
-1.31136 2.35900 0.59368 
-1.30357 2.51500 0.63294 
-1.24261 2.49800 0.62866 
-1.14713 2.45000 0.61658 
-1.13831 2.49800 0.62866 
-1.12506 2.51500 0.63294 
-1.09387 2.56500 0.64553 
-1.03210 2.65400 0.66792 
-1.03765 2.85200 0.71775 
-1.04511 2.94000 0.73990 
-0.95153 3.03300 0.76331 
-0.93887 3.03300 0.76331 
-0.83205 3.10700 0.78193 
-0.76718 3.10700 0.78193 
-0.59092 2.94000 0.73990 
-0.58317 2.96300 0.74569 
-0.54225 3.08200 0.77564 
-0.50155 3.32400 0.83654 
-0.43325 3.44300 0.86649 
-0.36000 3.57200 0.89895 
-0.27051 3.57200 0.89895 
-0.09736 3.26700 0.82220 
-0.08301 3.23900 0.81515 
0.07485 3.05800 0.76960 
0.12691 3.08200 0.77564 
0.17839 3.08200 0.77564 
0.19126 3.08200 0.77564 
0.24273 3.08200 0.77564 
0.26847 3.08200 0.77564 
0.29659 3.10700 0.78193 
0.31994 3.08200 0.77564 
0.36852 3.05800 0.76960 
0.38182 2.96300 0.74569 
0.42140 2.89500 0.72858 
0.44235 2.87400 0.72329 
0.54686 2.98600 0.75148 
0.64189 3.21200 0.80835 
0.80360 3.78400 0.95231 
1.53897 6.37000 1.60312 
1.79491 6.94900 1.74883 
1.96900 6.94900 1.74883 
2.04785 6.82500 1.71763 
2.33504 6.59000 1.65849 
2.44186 6.16500 1.55153 
2.50083 5.88000 1.47980 
2.48716 5.79100 1.45740 
2.49321 4.90000 1.23317 
2.56723 4.96400 1.24928 
3.16484 5.70500 1.43576 
3.36282 5.97200 1.50296 
3.74563 6.06700 1.52686 
3.65804 5.62100 1.41462 
3.46532 5.09600 1.28250 
3.46176 5.02900 1.26563 
3.47168 4.83800 1.21757 
3.46728 4.44400 1.11841 
3.25640 4.02300 1.01246 
3.20566 3.94000 0.99157 
2.91439 3.47500 0.87454 
2.85714 3.32400 0.83654 
2.84405 3.18500 0.80156 
2.80726 3.05800 0.76960 
2.82002 3.05800 0.76960 
2.79103 2.98600 0.75148 
2.84931 2.91800 0.73436 
3.01545 2.98600 0.75148 
-1.44970 1.59900 0.39574 
-1.44844 1.62000 0.40094 
-1.43820 1.64700 0.40762 
-1.43048 1.66200 0.41133 
-1.40754 1.67600 0.41480 
-1.39139 1.69900 0.42049 
-1.38287 1.70600 0.42222 
-1.37575 1.70600 0.42222 
-1.36449 1.73700 0.42989 
-1.33527 1.90200 0.47073 
-1.33257 1.92100 0.47543 
-1.32269 1.93000 0.47766 
-1.31870 1.96000 0.48508 
-1.31462 1.99100 0.49276 
-1.29751 2.11200 0.52270 
-1.29381 2.13500 0.52839 
-1.29254 2.20900 0.54671 
-1.28720 2.24800 0.55636 
-1.31936 2.46600 0.61031 
-1.31562 2.49800 0.61823 
-1.28016 2.53100 0.62640 
-1.15996 2.43400 0.60239 
-1.11108 2.53100 0.62640 
-1.06538 2.60000 0.64348 
-1.02745 2.73000 0.67565 
-1.03599 3.05800 0.75683 
-0.96420 3.03300 0.75064 
-0.95153 3.03300 0.75064 
-0.86862 3.00900 0.74470 
-0.74814 3.08200 0.76277 
-0.69273 3.00900 0.74470 
-0.61263 2.98600 0.73901 
-0.57162 3.03300 0.75064 
-0.54225 3.08200 0.76277 
-0.49717 3.29500 0.81548 
-0.47793 3.35300 0.82984 
-0.46794 3.38200 0.83702 
-0.20696 3.50600 0.86771 
-0.01476 3.10700 0.76896 
0.03655 3.05800 0.75683 
0.06208 3.05800 0.75683 
0.21699 3.08200 0.76277 
0.22986 3.08200 0.76277 
0.25560 3.08200 0.76277 
0.35855 3.08200 0.76277 
0.41257 2.91800 0.72218 
0.51790 2.96300 0.73332 
0.54686 2.98600 0.73901 
0.60794 3.10700 0.76896 
0.64729 3.23900 0.80163 
0.89952 4.15400 1.02808 
1.11638 4.96400 1.22855 
1.96900 6.94900 1.71982 
2.02702 6.94900 1.71982 
2.10484 6.82500 1.68913 
2.13334 6.82500 1.68913 
2.28001 6.59000 1.63097 
2.34945 6.47800 1.60325 
2.51908 6.16500 1.52579 
2.53996 5.97200 1.47802 
2.51685 5.02900 1.24464 
2.55885 5.02900 1.24464 
2.63550 5.09600 1.26122 
3.44165 6.06700 1.50153 
3.63303 6.26600 1.55078 
3.65919 6.26600 1.55078 
3.71151 6.26600 1.55078 
3.73768 6.26600 1.55078 
3.75294 5.88000 1.45525 
3.68151 5.62100 1.39115 
3.47919 4.96400 1.22855 
3.47526 4.90000 1.21271 
3.44858 4.77800 1.18252 
3.41985 4.60500 1.13970 
3.43908 4.60500 1.13970 
3.25640 4.02300 0.99566 
3.20566 3.94000 0.97512 
3.12561 3.82200 0.94591 
2.90192 3.44300 0.85211 
2.83817 3.23900 0.80163 
2.84134 3.21200 0.79494 
2.82002 3.05800 0.75683 
2.79996 3.00900 0.74470 
2.76402 2.91800 0.72218 
2.96748 2.96300 0.73332 
-1.45116 1.58600 0.38590 
-1.44970 1.59900 0.38906 
-1.44934 1.60600 0.39077 
-1.44892 1.61300 0.39247 
-1.44702 1.62600 0.39563 
-1.41560 1.66900 0.40609 
-1.40723 1.68400 0.40974 
-1.35510 1.75300 0.42653 
-1.34658 1.76100 0.42848 
-1.33361 1.91100 0.46498 
-1.32012 1.95000 0.47447 
-1.31870 1.96000 0.47690 
-1.30631 1.99100 0.48444 
-1.29288 2.02200 0.49199 
-1.29014 2.10000 0.51096 
-1.28746 2.31600 0.56352 
-1.29166 2.35900 0.57398 
-1.29811 2.38900 0.58128 
-1.31562 2.49800 0.60780 
-1.30130 2.53100 0.61583 
-1.20610 2.46600 0.60002 
-1.13690 2.45000 0.59612 
-1.04711 2.63600 0.64138 
-1.03948 2.67300 0.65038 
-1.03410 2.81000 0.68372 
-1.04875 3.05800 0.74406 
-0.98169 3.00900 0.73214 
-0.84297 2.96300 0.72095 
-0.74299 3.00900 0.73214 
-0.56356 3.05800 0.74406 
-0.54665 3.10700 0.75598 
-0.52047 3.18500 0.77496 
-0.46794 3.38200 0.82290 
-0.40450 3.44300 0.83774 
-0.35335 3.50600 0.85307 
-0.32712 3.53900 0.86110 
-0.21964 3.47500 0.84552 
-0.15872 3.41300 0.83044 
-0.14193 3.35300 0.81584 
-0.11196 3.29500 0.80173 
-0.04105 3.13300 0.76231 
-0.00176 3.05800 0.74406 
0.06158 3.03300 0.73798 
0.21699 3.08200 0.74990 
0.30956 3.10700 0.75598 
0.31994 3.08200 0.74990 
0.40340 2.94000 0.71535 
0.43896 2.85200 0.69394 
0.48933 2.94000 0.71535 
0.90948 4.20000 1.02193 
1.26882 5.53900 1.34773 
1.82392 6.94900 1.69081 
1.93998 6.94900 1.69081 
2.08505 6.94900 1.69081 
2.13334 6.82500 1.66063 
2.16183 6.82500 1.66063 
2.34945 6.47800 1.57620 
2.56035 6.26600 1.52462 
2.58651 6.26600 1.52462 
2.61268 6.26600 1.52462 
2.35889 5.09600 1.23994 
2.72976 5.23600 1.27400 
2.91494 5.46000 1.32851 
2.93773 5.46000 1.32851 
3.36282 5.97200 1.45309 
3.54872 6.16500 1.50005 
3.65919 6.26600 1.52462 
3.70317 6.16500 1.50005 
3.72891 6.16500 1.50005 
3.75465 6.16500 1.50005 
3.79630 6.06700 1.47620 
3.78672 5.97200 1.45309 
3.80204 5.88000 1.43070 
3.64445 5.46000 1.32851 
3.61553 5.38300 1.30977 
3.36217 4.60500 1.12047 
3.42749 4.39300 1.06889 
3.40662 4.34300 1.05672 
3.38611 4.29400 1.04480 
3.34706 4.20000 1.02193 
3.17312 3.90000 0.94893 
3.12561 3.82200 0.92995 
2.91439 3.47500 0.84552 
2.87875 3.38200 0.82290 
2.87349 3.29500 0.80173 
2.86271 3.26700 0.79491 
2.84216 3.08200 0.74990 
-1.46453 1.57900 0.37760 
-1.45091 1.59300 0.38095 
-1.35723 1.73700 0.41539 
-1.35762 1.84600 0.44145 
-1.35338 1.88300 0.45030 
-1.33527 1.90200 0.45485 
-1.32012 1.95000 0.46632 
-1.31462 1.99100 0.47613 
-1.29288 2.02200 0.48354 
-1.26843 2.24800 0.53759 
-1.30432 2.41900 0.57848 
-1.19580 2.46600 0.58972 
-1.16759 2.45000 0.58589 
-1.15736 2.45000 0.58589 
-1.04722 2.58200 0.61746 
-1.05089 2.61800 0.62607 
-1.04711 2.63600 0.63038 
-1.03948 2.67300 0.63922 
-1.04183 2.83100 0.67701 
-1.04948 2.91800 0.69781 
-0.98169 3.00900 0.71957 
-0.92957 2.96300 0.70857 
-0.89109 2.91800 0.69781 
-0.87198 2.89500 0.69231 
-0.83571 2.89500 0.69231 
-0.68017 3.00900 0.71957 
-0.66026 3.03300 0.72531 
-0.60479 3.00900 0.71957 
-0.32120 3.47500 0.83101 
-0.18722 3.41300 0.81619 
-0.09653 3.23900 0.77458 
-0.02773 3.10700 0.74301 
-0.01453 3.05800 0.73129 
0.04931 3.05800 0.73129 
0.12691 3.08200 0.73703 
0.13978 3.08200 0.73703 
0.15265 3.08200 0.73703 
0.40340 2.94000 0.70307 
0.41568 2.94000 0.70307 
0.42140 2.89500 0.69231 
0.43896 2.85200 0.68203 
0.56363 3.00900 0.71957 
0.70243 3.44300 0.82336 
1.48768 6.26600 1.49846 
1.76589 6.94900 1.66179 
1.99801 6.94900 1.66179 
2.17982 6.70500 1.60344 
2.20781 6.70500 1.60344 
2.40354 6.47800 1.54916 
2.56490 5.97200 1.42815 
2.47709 5.16500 1.23516 
2.54179 5.16500 1.23516 
2.56335 5.16500 1.23516 
3.11719 5.70500 1.36430 
3.26192 5.88000 1.40615 
3.65919 6.26600 1.49846 
3.70317 6.16500 1.47430 
3.78672 5.97200 1.42815 
3.66049 5.38300 1.28730 
3.45480 4.90000 1.17179 
3.47526 4.90000 1.17179 
3.40868 4.77800 1.14262 
3.34294 4.60500 1.10124 
3.36001 4.55000 1.08809 
3.39800 4.55000 1.08809 
3.34905 4.24700 1.01563 
3.31040 4.15400 0.99339 
2.86816 3.21200 0.76812 
2.83279 3.05800 0.73129 
2.92241 2.91800 0.69781 
2.93459 2.91800 0.69781 
-1.44892 1.61300 0.37900 
-1.44844 1.62000 0.38064 
-1.40754 1.67600 0.39380 
-1.39139 1.69900 0.39921 
-1.38287 1.70600 0.40085 
-1.35078 1.78600 0.41965 
-1.35611 1.80300 0.42364 
-1.36039 1.82900 0.42975 
-1.34059 1.92100 0.45137 
-1.33257 1.92100 0.45137 
-1.32955 1.94000 0.45583 
-1.28293 2.03300 0.47768 
-1.28131 2.15900 0.50729 
-1.25800 2.19700 0.51622 
-1.26109 2.23500 0.52515 
-1.33300 2.53100 0.59470 
-1.31878 2.56500 0.60269 
-1.20356 2.48200 0.58318 
-1.14432 2.46600 0.57942 
-1.10051 2.53100 0.59470 
-1.07245 2.56500 0.60269 
-1.04183 2.83100 0.66519 
-1.05329 2.89500 0.68022 
-1.04900 2.98600 0.70161 
-0.86565 2.87400 0.67529 
-0.73163 2.96300 0.69620 
-0.66760 3.00900 0.70701 
-0.66026 3.03300 0.71265 
-0.58910 3.05800 0.71852 
-0.49806 3.21200 0.75471 
-0.46966 3.29500 0.77421 
-0.43970 3.38200 0.79465 
-0.38673 3.41300 0.80194 
-0.25847 3.41300 0.80194 
-0.18552 3.38200 0.79465 
-0.12465 3.26700 0.76763 
-0.06721 3.13300 0.73615 
0.01092 3.03300 0.71265 
0.02358 3.03300 0.71265 
0.11404 3.08200 0.72416 
0.15265 3.08200 0.72416 
0.28133 3.08200 0.72416 
0.29659 3.10700 0.73004 
0.30956 3.10700 0.73004 
0.39725 2.98600 0.70161 
0.40656 2.96300 0.69620 
0.41568 2.94000 0.69080 
0.47349 2.91800 0.68563 
0.51004 2.91800 0.68563 
0.52222 2.91800 0.68563 
0.71529 3.50600 0.82379 
1.76589 6.94900 1.63278 
1.88195 6.94900 1.63278 
2.23013 6.94900 1.63278 
2.31979 6.70500 1.57544 
2.34779 6.70500 1.57544 
2.36255 6.59000 1.54842 
2.45764 6.47800 1.52211 
2.51174 6.47800 1.52211 
2.63771 6.59000 1.54842 
2.43619 5.46000 1.28291 
2.37997 5.23600 1.23028 
2.39083 5.16500 1.21360 
2.69402 5.38300 1.26482 
2.82375 5.46000 1.28291 
2.84654 5.46000 1.28291 
2.86934 5.46000 1.28291 
3.11719 5.70500 1.34048 
3.18836 5.79100 1.36069 
3.57447 6.16500 1.44856 
3.90910 6.16500 1.44856 
3.89762 6.06700 1.42554 
3.87569 5.88000 1.38160 
3.57694 5.16500 1.21360 
3.43128 4.83800 1.13676 
3.40868 4.77800 1.12267 
2.92889 3.47500 0.81650 
2.90514 3.41300 0.80194 
2.90699 3.38200 0.79465 
2.86522 3.23900 0.76105 
2.88157 3.21200 0.75471 
2.86521 3.10700 0.73004 
2.78190 2.96300 0.69620 
2.77295 2.85200 0.67012 
2.80868 2.85200 0.67012 
2.96899 2.94000 0.69080 
-1.46453 1.57900 0.36442 
-1.44934 1.60600 0.37065 
-1.44844 1.62000 0.37388 
-1.45195 1.64700 0.38011 
-1.43742 1.66200 0.38357 
-1.40020 1.68400 0.38865 
-1.35456 1.81100 0.41796 
-1.36039 1.82900 0.42211 
-1.35649 1.85500 0.42812 
-1.36256 1.87400 0.43250 
-1.34321 1.90200 0.43896 
-1.29288 2.02200 0.46666 
-1.29142 2.03300 0.46920 
-1.28650 2.06600 0.47681 
-1.28654 2.12300 0.48997 
-1.28490 2.13500 0.49274 
-1.28316 2.14700 0.49551 
-1.30432 2.41900 0.55828 
-1.33132 2.54800 0.58805 
-1.13221 2.53100 0.58413 
-1.12918 2.54800 0.58805 
-1.10051 2.53100 0.58413 
-1.08994 2.53100 0.58413 
-1.03498 2.75000 0.63467 
-1.05329 2.89500 0.66814 
-1.04948 2.91800 0.67345 
-0.99426 3.00900 0.69445 
-0.95432 2.96300 0.68383 
-0.88965 2.87400 0.66329 
-0.83464 2.81000 0.64852 
-0.79944 2.81000 0.64852 
-0.66760 3.00900 0.69445 
-0.64760 3.03300 0.69999 
-0.60961 3.03300 0.69999 
-0.60187 3.05800 0.70576 
-0.58910 3.05800 0.70576 
-0.54225 3.08200 0.71130 
-0.52070 3.10700 0.71706 
-0.51198 3.13300 0.72307 
-0.47520 3.23900 0.74753 
-0.18234 3.32400 0.76715 
-0.15323 3.29500 0.76045 
-0.13710 3.23900 0.74753 
-0.01441 3.03300 0.69999 
0.10118 3.08200 0.71130 
0.13978 3.08200 0.71130 
0.19126 3.08200 0.71130 
0.36852 3.05800 0.70576 
0.57620 3.00900 0.69445 
0.61811 3.15900 0.72907 
0.66428 3.32400 0.76715 
1.06784 4.83800 1.11656 
1.88733 7.07800 1.63353 
1.94644 7.07800 1.63353 
2.16367 7.21100 1.66423 
2.19378 7.21100 1.66423 
2.30432 6.82500 1.57514 
2.33281 6.82500 1.57514 
2.39007 6.59000 1.52091 
2.52765 6.59000 1.52091 
2.68374 6.70500 1.54745 
2.72812 6.47800 1.49506 
2.58983 5.97200 1.37828 
2.39053 5.30800 1.22503 
2.41239 5.16500 1.19203 
2.48928 5.23600 1.20842 
2.64231 5.23600 1.20842 
2.70790 5.23600 1.20842 
2.76730 5.30800 1.22503 
3.07130 5.62100 1.29727 
3.14102 5.70500 1.31666 
3.41632 6.06700 1.40020 
3.89465 6.26600 1.44613 
3.92296 6.06700 1.40020 
3.69005 5.46000 1.26011 
3.43128 4.83800 1.11656 
3.32201 4.55000 1.05010 
3.37720 4.49700 1.03786 
3.39306 4.44400 1.02563 
3.27691 4.20000 0.96932 
3.25817 4.11000 0.94855 
3.18915 3.98100 0.91878 
2.90579 3.23900 0.74753 
2.89498 3.21200 0.74130 
2.81253 3.00900 0.69445 
2.78190 2.96300 0.68383 
2.77295 2.85200 0.65821 
2.80868 2.85200 0.65821 
2.87520 2.89500 0.66814 
2.94678 2.91800 0.67345 
-1.45778 1.58600 0.35941 
-1.44892 1.61300 0.36553 
-1.42354 1.66200 0.37663 
-1.42257 1.66900 0.37822 
-1.39317 1.68400 0.38162 
-1.38429 1.69900 0.38502 
-1.38287 1.70600 0.38660 
-1.36039 1.82900 0.41448 
-1.33765 1.94000 0.43963 
-1.33216 1.98000 0.44870 
-1.28650 2.06600 0.46819 
-1.28338 2.08900 0.47340 
-1.28869 2.11200 0.47861 
-1.28490 2.13500 0.48382 
-1.25800 2.19700 0.49787 
-1.25565 2.20900 0.50059 
-1.28996 2.37400 0.53798 
-1.29940 2.54800 0.57741 
-1.29736 2.56500 0.58127 
-1.10051 2.53100 0.57356 
-1.07598 2.54800 0.57741 
-1.04251 2.77000 0.62772 
-1.04583 2.81000 0.63679 
-1.05284 3.03300 0.68732 
-1.04875 3.05800 0.69299 
-1.03599 3.05800 0.69299 
-0.86452 2.83100 0.64155 
-0.80540 2.79000 0.63226 
-0.79375 2.79000 0.63226 
-0.62227 3.03300 0.68732 
-0.59694 3.03300 0.68732 
-0.58910 3.05800 0.69299 
-0.53802 3.05800 0.69299 
-0.42839 3.29500 0.74670 
-0.40440 3.32400 0.75327 
-0.26105 3.26700 0.74035 
-0.23177 3.23900 0.73401 
-0.10645 3.13300 0.70998 
-0.03974 3.03300 0.68732 
-0.00172 2.98600 0.67667 
0.06158 3.03300 0.68732 
0.15265 3.08200 0.69843 
0.28133 3.08200 0.69843 
0.34848 3.10700 0.70409 
0.50235 2.87400 0.65129 
0.72202 3.53900 0.80199 
1.61990 6.70500 1.51945 
1.88733 7.07800 1.60398 
2.10345 7.21100 1.63412 
2.25399 7.21100 1.63412 
2.44680 6.82500 1.54665 
2.78876 6.82500 1.54665 
2.70923 6.37000 1.44354 
2.41239 5.16500 1.17047 
2.57673 5.23600 1.18656 
2.75162 5.23600 1.18656 
2.79535 5.23600 1.18656 
3.63303 6.26600 1.41997 
3.76384 6.26600 1.41997 
3.93633 5.97200 1.35334 
3.86539 5.79100 1.31233 
3.30449 4.60500 1.04356 
3.28402 4.55000 1.03110 
3.30209 4.49700 1.01909 
3.20632 4.06600 0.92142 
3.06428 3.74700 0.84913 
3.02074 3.67500 0.83281 
2.95791 3.47500 0.78749 
2.90839 3.21200 0.72789 
2.77258 2.94000 0.66625 
2.76402 2.91800 0.66126 
2.74634 2.87400 0.65129 
2.72889 2.83100 0.64155 
-1.46440 1.58600 0.35279 
-1.44970 1.59900 0.35568 
-1.43048 1.66200 0.36969 
-1.40754 1.67600 0.37281 
-1.37427 1.72200 0.38304 
-1.35820 1.72900 0.38460 
-1.35723 1.73700 0.38638 
-1.35269 1.76900 0.39350 
-1.35611 1.80300 0.40106 
-1.35529 1.86400 0.41463 
-1.34454 1.95000 0.43376 
-1.33640 1.95000 0.43376 
-1.32849 2.01200 0.44755 
-1.30132 2.02200 0.44977 
-1.28468 2.07700 0.46201 
-1.25904 2.24800 0.50004 
-1.26467 2.27500 0.50605 
-1.30432 2.41900 0.53808 
-1.32605 2.49800 0.55565 
-1.32068 2.54800 0.56678 
-1.30130 2.53100 0.56299 
-1.26959 2.53100 0.56299 
-1.21132 2.49800 0.55565 
-1.20089 2.49800 0.55565 
-1.14138 2.48200 0.55209 
-1.04366 2.60000 0.57834 
-1.04294 2.71100 0.60303 
-1.05765 2.87400 0.63929 
-1.05708 3.00900 0.66932 
-1.03599 3.05800 0.68022 
-0.99426 3.00900 0.66932 
-0.83464 2.81000 0.62505 
-0.79963 2.77000 0.61616 
-0.74565 2.87400 0.63929 
-0.60961 3.03300 0.67466 
-0.58910 3.05800 0.68022 
-0.55079 3.05800 0.68022 
-0.50773 3.10700 0.69112 
-0.43463 3.23900 0.72048 
-0.40758 3.23900 0.72048 
-0.38053 3.23900 0.72048 
-0.31291 3.23900 0.72048 
-0.28348 3.21200 0.71448 
-0.11854 3.10700 0.69112 
-0.10557 3.10700 0.69112 
-0.03942 3.00900 0.66932 
-0.01418 2.98600 0.66420 
-0.00172 2.98600 0.66420 
0.04891 3.03300 0.67466 
0.15265 3.08200 0.68556 
0.16552 3.08200 0.68556 
0.21699 3.08200 0.68556 
0.22986 3.08200 0.68556 
0.33281 3.08200 0.68556 
0.34568 3.08200 0.68556 
0.35855 3.08200 0.68556 
0.46130 2.91800 0.64908 
0.50235 2.87400 0.63929 
0.57620 3.00900 0.66932 
0.97380 4.49700 1.00031 
1.09565 4.96400 1.10419 
2.07334 7.21100 1.60401 
2.23606 7.35000 1.63493 
2.58929 6.82500 1.51815 
2.72337 6.94900 1.54573 
2.75239 6.94900 1.54573 
2.83943 6.94900 1.54573 
2.53552 5.79100 1.28815 
2.45552 5.16500 1.14890 
2.63550 5.09600 1.13355 
3.07130 5.62100 1.25033 
3.26192 5.88000 1.30794 
3.74652 6.37000 1.41694 
3.93484 6.16500 1.37134 
3.96058 6.16500 1.37134 
3.43434 4.90000 1.08995 
3.34688 4.71900 1.04969 
3.30449 4.60500 1.02433 
3.13986 3.94000 0.87641 
2.96591 3.57200 0.79455 
2.95328 3.53900 0.78721 
2.96806 3.53900 0.78721 
2.94340 3.47500 0.77298 
2.95791 3.47500 0.77298 
2.90363 3.26700 0.72671 
2.93284 3.23900 0.72048 
2.93522 3.21200 0.71448 
2.86789 3.08200 0.68556 
2.77258 2.94000 0.65397 
2.74634 2.87400 0.63929 
-1.47102 1.58600 0.34617 
-1.44934 1.60600 0.35053 
-1.44892 1.61300 0.35206 
-1.40754 1.67600 0.36581 
-1.39139 1.69900 0.37083 
-1.36708 1.72200 0.37585 
-1.36542 1.72900 0.37738 
-1.35393 1.76100 0.38436 
-1.35985 1.89200 0.41296 
-1.34575 1.94000 0.42343 
-1.34454 1.95000 0.42561 
-1.32958 2.00100 0.43675 
-1.30328 2.01200 0.43915 
-1.28468 2.07700 0.45333 
-1.28137 2.10000 0.45835 
-1.25427 2.15900 0.47123 
-1.25275 2.17200 0.47407 
-1.25565 2.20900 0.48215 
-1.31756 2.48200 0.54173 
-1.15046 2.54800 0.55614 
-1.03599 3.05800 0.66745 
-0.75814 2.83100 0.61791 
-0.74565 2.87400 0.62729 
-0.73822 2.94000 0.64170 
-0.71786 3.00900 0.65676 
-0.55079 3.05800 0.66745 
-0.52096 3.03300 0.66199 
-0.48581 3.13300 0.68382 
-0.37419 3.18500 0.69517 
-0.33429 3.18500 0.69517 
-0.29440 3.18500 0.69517 
-0.23924 3.15900 0.68950 
-0.17043 3.10700 0.67815 
-0.11667 3.05800 0.66745 
-0.07773 3.03300 0.66199 
-0.05159 2.98600 0.65174 
-0.03912 2.98600 0.65174 
0.07424 3.03300 0.66199 
0.11404 3.08200 0.67269 
0.26847 3.08200 0.67269 
0.31994 3.08200 0.67269 
0.34568 3.08200 0.67269 
0.38428 3.08200 0.67269 
0.47349 2.91800 0.63689 
0.50235 2.87400 0.62729 
1.48577 6.37000 1.39034 
1.85778 7.07800 1.54487 
1.94644 7.07800 1.54487 
2.71482 7.07800 1.54487 
2.79595 7.21100 1.57390 
2.89214 7.07800 1.54487 
2.45552 5.16500 1.12733 
2.89630 5.38300 1.17492 
2.96053 5.46000 1.19172 
3.47150 6.16500 1.34560 
3.86849 6.26600 1.36764 
3.94698 6.26600 1.36764 
3.90910 6.16500 1.34560 
3.84121 5.79100 1.26397 
3.77539 5.62100 1.22686 
3.69005 5.46000 1.19172 
3.66049 5.38300 1.17492 
3.58239 5.23600 1.14283 
3.28526 4.60500 1.00511 
3.26502 4.55000 0.99310 
3.18899 4.15400 0.90667 
3.00540 3.67500 0.80212 
2.94789 3.41300 0.74494 
2.90363 3.26700 0.71307 
2.94637 3.23900 0.70696 
2.93522 3.21200 0.70106 
2.87818 3.10700 0.67815 
2.80350 2.98600 0.65174 
2.75432 2.89500 0.63187 
2.75834 2.87400 0.62729 
2.93459 2.91800 0.63689 
-1.44844 1.62000 0.34682 
-1.43894 1.64000 0.35111 
-1.43820 1.64700 0.35260 
-1.43828 1.65500 0.35432 
-1.38220 1.71400 0.36695 
-1.36449 1.73700 0.37187 
-1.35456 1.81100 0.38771 
-1.35941 1.83800 0.39349 
-1.36124 1.88300 0.40313 
-1.33689 2.01200 0.43075 
-1.30132 2.02200 0.43289 
-1.29142 2.03300 0.43524 
-1.28987 2.04400 0.43760 
-1.28468 2.07700 0.44466 
-1.27260 2.10000 0.44959 
-1.26707 2.13500 0.45708 
-1.25427 2.15900 0.46222 
-1.25800 2.19700 0.47035 
-1.31407 2.51500 0.53843 
-1.25107 2.51500 0.53843 
-1.09726 2.54800 0.54550 
-1.04687 2.69200 0.57633 
-1.04294 2.71100 0.58039 
-1.06146 2.85200 0.61058 
-1.07393 2.98600 0.63927 
-1.03599 3.05800 0.65468 
-0.99426 3.00900 0.64419 
-0.82870 2.79000 0.59731 
-0.81119 2.77000 0.59303 
-0.79963 2.77000 0.59303 
-0.76424 2.81000 0.60159 
-0.75765 2.87400 0.61529 
-0.75110 2.89500 0.61979 
-0.73822 2.94000 0.62942 
-0.73731 2.98600 0.63927 
-0.70529 3.00900 0.64419 
-0.69273 3.00900 0.64419 
-0.66026 3.03300 0.64933 
-0.50830 3.03300 0.64933 
-0.39752 3.15900 0.67631 
-0.37113 3.15900 0.67631 
-0.29200 3.15900 0.67631 
-0.20935 3.10700 0.66517 
-0.19480 3.08200 0.65982 
-0.12838 3.03300 0.64933 
-0.08968 3.00900 0.64419 
-0.01408 2.96300 0.63434 
-0.00170 2.96300 0.63434 
0.06109 3.00900 0.64419 
0.10039 3.05800 0.65468 
0.15265 3.08200 0.65982 
0.22986 3.08200 0.65982 
0.29420 3.08200 0.65982 
0.33281 3.08200 0.65982 
0.38428 3.08200 0.65982 
0.41002 3.08200 0.65982 
0.45604 2.96300 0.63434 
0.49035 2.87400 0.61529 
0.50235 2.87400 0.61529 
0.57179 2.98600 0.63927 
0.71529 3.50600 0.75060 
2.11331 7.35000 1.57355 
2.20537 7.35000 1.57355 
2.60433 7.35000 1.57355 
2.75777 7.35000 1.57355 
2.97260 7.35000 1.57355 
2.37997 5.23600 1.12097 
2.39083 5.16500 1.10577 
2.63550 5.09600 1.09100 
2.83379 5.30800 1.13638 
3.69332 6.37000 1.36375 
3.75192 5.62100 1.20339 
3.41388 4.90000 1.04904 
3.39088 4.83800 1.03576 
3.26241 4.39300 0.94049 
3.13841 4.06600 0.87048 
3.10604 3.98100 0.85229 
3.09051 3.94000 0.84351 
3.09170 3.90000 0.83495 
2.93067 3.44300 0.73711 
2.88999 3.26700 0.69943 
2.90363 3.26700 0.69943 
2.94637 3.23900 0.69343 
2.92384 3.18500 0.68187 
2.77620 2.91800 0.62471 
2.82685 2.89500 0.61979 
2.85102 2.89500 0.61979 
-1.45637 1.59900 0.33565 
-1.44702 1.62600 0.34132 
-1.43048 1.66200 0.34888 
-1.40020 1.68400 0.35349 
-1.38146 1.72200 0.36147 
-1.37077 1.74500 0.36630 
-1.35611 1.80300 0.37847 
-1.35762 1.84600 0.38750 
-1.34861 1.92100 0.40324 
-1.34529 2.01200 0.42235 
-1.32849 2.01200 0.42235 
-1.29288 2.02200 0.42444 
-1.28293 2.03300 0.42675 
-1.30519 2.49800 0.52436 
-1.19856 2.51500 0.52793 
-1.18806 2.51500 0.52793 
-1.11854 2.54800 0.53486 
-1.09387 2.56500 0.53843 
-1.05089 2.61800 0.54955 
-1.06146 2.85200 0.59867 
-1.07384 2.91800 0.61253 
-1.06964 3.00900 0.63163 
-1.06152 3.05800 0.64191 
-1.01485 3.03300 0.63667 
-0.84637 2.81000 0.58986 
-0.79944 2.81000 0.58986 
-0.78758 2.85200 0.59867 
-0.78165 2.87400 0.60329 
-0.76277 2.94000 0.61715 
-0.68017 3.00900 0.63163 
-0.60961 3.03300 0.63667 
-0.46142 3.05800 0.64191 
-0.44865 3.05800 0.64191 
-0.42643 3.08200 0.64695 
-0.39424 3.13300 0.65766 
-0.35500 3.13300 0.65766 
-0.27422 3.10700 0.65220 
-0.12737 3.00900 0.63163 
-0.02645 2.96300 0.62197 
-0.00170 2.96300 0.62197 
0.03569 2.98600 0.62680 
0.13978 3.08200 0.64695 
0.25560 3.08200 0.64695 
0.29420 3.08200 0.64695 
0.35855 3.08200 0.64695 
0.45056 3.00900 0.63163 
0.47706 2.94000 0.61715 
0.70896 3.47500 0.72945 
0.87283 4.11000 0.86274 
1.67885 6.94900 1.45869 
1.85778 7.07800 1.48577 
2.14400 7.35000 1.54286 
2.17468 7.35000 1.54286 
2.34245 7.49400 1.57309 
2.40503 7.49400 1.57309 
2.59277 7.49400 1.57309 
2.93192 7.64400 1.60458 
2.36926 5.16500 1.08420 
2.54567 5.30800 1.11422 
2.57166 5.09600 1.06972 
3.11719 5.70500 1.19756 
3.23737 5.88000 1.23429 
3.55454 6.26600 1.31532 
3.78299 6.47800 1.35982 
3.82163 6.06700 1.27355 
3.81166 5.97200 1.25360 
3.53866 5.23600 1.09911 
3.48660 5.09600 1.06972 
3.41701 4.96400 1.04201 
3.41388 4.90000 1.02858 
3.32718 4.71900 0.99058 
3.26241 4.39300 0.92215 
3.20719 4.24700 0.89150 
3.12143 4.06600 0.85351 
2.94897 3.60600 0.75695 
2.93524 3.38200 0.70993 
2.93522 3.21200 0.67424 
2.80665 2.96300 0.62197 
2.80941 2.94000 0.61715 
2.83396 2.94000 0.61715 
2.93036 2.96300 0.62197 
3.00298 2.98600 0.62680 
-1.47086 1.59300 0.32774 
-1.44302 1.59900 0.32897 
-1.44219 1.61300 0.33186 
-1.43209 1.64000 0.33741 
-1.43132 1.64700 0.33885 
-1.42354 1.66200 0.34194 
-1.41660 1.66200 0.34194 
-1.40054 1.67600 0.34482 
-1.38708 1.72900 0.35572 
-1.37174 1.73700 0.35737 
-1.35958 1.77800 0.36580 
-1.35611 1.80300 0.37095 
-1.34957 1.91100 0.39317 
-1.33689 2.01200 0.41394 
-1.25800 2.19700 0.45201 
-1.26843 2.24800 0.46250 
-1.30626 2.40400 0.49459 
-1.24729 2.46600 0.50735 
-1.20356 2.48200 0.51064 
-1.19046 2.49800 0.51393 
-1.15335 2.53100 0.52072 
-1.10790 2.54800 0.52422 
-1.06965 2.87400 0.59129 
-1.07429 3.05800 0.62915 
-1.01485 3.03300 0.62400 
-0.93463 2.94000 0.60487 
-0.64760 3.03300 0.62400 
-0.49171 3.00900 0.61907 
-0.35205 3.10700 0.63923 
-0.19170 3.03300 0.62400 
-0.17904 3.03300 0.62400 
-0.16637 3.03300 0.62400 
-0.13993 3.00900 0.61907 
-0.12737 3.00900 0.61907 
-0.11392 2.98600 0.61433 
-0.06405 2.98600 0.61433 
0.06109 3.00900 0.61907 
0.08690 3.03300 0.62400 
0.22986 3.08200 0.63408 
0.29420 3.08200 0.63408 
0.32254 3.10700 0.63923 
0.41335 3.10700 0.63923 
0.44513 3.05800 0.62915 
0.45415 3.03300 0.62400 
0.47205 2.98600 0.61433 
0.64729 3.23900 0.66639 
1.22792 5.46000 1.12333 
1.51096 6.47800 1.33277 
1.67885 6.94900 1.42967 
1.79867 7.07800 1.45621 
1.92280 7.21100 1.48358 
1.95291 7.21100 1.48358 
1.98302 7.21100 1.48358 
2.31116 7.49400 1.54180 
2.67659 7.64400 1.57266 
2.78051 7.49400 1.54180 
2.93192 7.64400 1.57266 
2.87425 6.82500 1.40416 
2.52168 5.70500 1.17374 
2.45899 5.46000 1.12333 
2.43486 5.30800 1.09206 
2.47918 5.30800 1.09206 
2.55916 5.38300 1.10749 
3.04783 5.62100 1.15645 
3.23737 5.88000 1.20974 
3.64013 6.37000 1.31055 
3.84233 6.26600 1.28916 
3.75294 5.88000 1.20974 
3.46911 5.16500 1.06264 
3.35048 4.83800 0.99536 
3.28332 4.49700 0.92520 
3.24341 4.34300 0.89352 
3.12089 4.11000 0.84558 
3.08842 4.02300 0.82768 
2.90192 3.44300 0.70836 
2.94863 3.21200 0.66083 
2.82843 2.98600 0.61433 
3.06291 3.03300 0.62400 
-1.49082 1.59300 0.32109 
-1.42446 1.65500 0.33359 
-1.42354 1.66200 0.33500 
-1.39896 1.69100 0.34084 
-1.39652 1.71400 0.34548 
-1.37899 1.73700 0.35011 
-1.37806 1.74500 0.35173 
-1.36747 1.76900 0.35656 
-1.35268 1.95000 0.39305 
-1.35144 1.96000 0.39506 
-1.34529 2.01200 0.40554 
-1.32009 2.01200 0.40554 
-1.31168 2.01200 0.40554 
-1.28443 2.02200 0.40756 
-1.28293 2.03300 0.40978 
-1.27601 2.07700 0.41865 
-1.25800 2.19700 0.44283 
-1.27968 2.30200 0.46400 
-1.30432 2.41900 0.48758 
-1.28847 2.46600 0.49705 
-1.22669 2.46600 0.49705 
-1.21640 2.46600 0.49705 
-1.18806 2.51500 0.50693 
-1.16706 2.51500 0.50693 
-1.14278 2.53100 0.51015 
-1.10790 2.54800 0.51358 
-1.06538 2.60000 0.52406 
-1.06169 2.79000 0.56236 
-1.06985 3.08200 0.62122 
-0.85989 2.89500 0.58352 
-0.72955 3.05800 0.61638 
-0.55895 3.03300 0.61134 
-0.37204 3.05800 0.61638 
-0.36209 3.08200 0.62122 
-0.33635 3.08200 0.62122 
-0.31061 3.08200 0.62122 
-0.28266 3.05800 0.61638 
-0.26989 3.05800 0.61638 
-0.12737 3.00900 0.60650 
-0.01408 2.96300 0.59723 
0.02304 2.96300 0.59723 
0.06109 3.00900 0.60650 
0.07365 3.00900 0.60650 
0.09957 3.03300 0.61134 
0.17839 3.08200 0.62122 
0.32254 3.10700 0.62625 
0.36145 3.10700 0.62625 
0.42989 3.13300 0.63150 
0.43929 3.10700 0.62625 
0.56298 2.94000 0.59259 
0.59835 3.05800 0.61638 
0.95128 4.39300 0.88546 
1.67885 6.94900 1.40066 
1.79867 7.07800 1.42666 
1.82823 7.07800 1.42666 
2.08262 7.35000 1.48149 
2.17468 7.35000 1.48149 
2.38934 7.64400 1.54075 
2.42125 7.64400 1.54075 
2.54892 7.64400 1.54075 
2.71793 7.49400 1.51051 
2.80280 6.59000 1.32830 
2.50458 5.46000 1.10053 
2.57297 5.46000 1.10053 
2.59859 5.23600 1.05538 
2.64961 5.16500 1.04107 
2.82888 5.38300 1.08501 
3.44576 6.16500 1.24263 
3.78299 6.47800 1.30572 
3.79971 6.37000 1.28395 
3.61110 5.62100 1.13298 
3.30893 4.77800 0.96307 
3.26318 4.44400 0.89574 
2.99795 3.82200 0.77037 
2.98605 3.74700 0.75526 
2.93391 3.60600 0.72683 
2.87317 3.44300 0.69398 
2.86239 3.41300 0.68793 
2.89287 3.38200 0.68168 
2.92407 3.35300 0.67584 
2.95603 3.29500 0.66415 
2.92635 3.15900 0.63674 
3.13764 3.10700 0.62625 
-1.44302 1.59900 0.31562 
-1.44263 1.60600 0.31700 
-1.43209 1.64000 0.32371 
-1.40863 1.66900 0.32944 
-1.38534 1.74500 0.34444 
-1.36974 1.75300 0.34602 
-1.36863 1.76100 0.34760 
-1.36747 1.76900 0.34918 
-1.36700 1.77800 0.35095 
-1.35941 1.83800 0.36280 
-1.35762 1.84600 0.36438 
-1.35529 1.86400 0.36793 
-1.35115 1.90200 0.37543 
-1.32009 2.01200 0.39714 
-1.31168 2.01200 0.39714 
-1.25995 2.12300 0.41905 
-1.25275 2.17200 0.42872 
-1.24126 2.43400 0.48044 
-1.22896 2.45000 0.48360 
-1.11854 2.54800 0.50294 
-1.10790 2.54800 0.50294 
-1.09387 2.56500 0.50630 
-1.08640 2.98600 0.58940 
-1.07429 3.05800 0.60361 
-0.82490 3.03300 0.59868 
-0.79962 3.08200 0.60835 
-0.72955 3.05800 0.60361 
-0.66571 3.05800 0.60361 
-0.60961 3.03300 0.59868 
-0.54197 3.00900 0.59394 
-0.47182 2.96300 0.58486 
-0.44708 2.96300 0.58486 
-0.35633 3.03300 0.59868 
-0.31834 3.03300 0.59868 
-0.25502 3.03300 0.59868 
-0.18873 2.98600 0.58940 
-0.17762 3.00900 0.59394 
-0.08899 2.98600 0.58940 
-0.01408 2.96300 0.58486 
0.04815 2.98600 0.58940 
0.11316 3.05800 0.60361 
0.15265 3.08200 0.60835 
0.16552 3.08200 0.60835 
0.21699 3.08200 0.60835 
0.29659 3.10700 0.61328 
0.32254 3.10700 0.61328 
0.52635 2.87400 0.56729 
0.59835 3.05800 0.60361 
1.36800 5.97200 1.17880 
1.80236 7.21100 1.42336 
1.89269 7.21100 1.42336 
1.99055 7.35000 1.45080 
2.11331 7.35000 1.45080 
2.51700 7.64400 1.50883 
2.80425 7.64400 1.50883 
2.93192 7.64400 1.50883 
2.64079 5.70500 1.12610 
2.73607 5.70500 1.12610 
2.89214 5.46000 1.07774 
3.02436 5.62100 1.10951 
3.34032 6.06700 1.19755 
3.72030 6.06700 1.19755 
3.42935 5.23600 1.03352 
3.40441 5.16500 1.01951 
3.38021 5.09600 1.00589 
3.30893 4.77800 0.94312 
3.30209 4.49700 0.88765 
3.26241 4.39300 0.86712 
3.20682 4.29400 0.84758 
3.05483 4.02300 0.79409 
2.96814 3.78400 0.74691 
2.98394 3.78400 0.74691 
2.87664 3.41300 0.67368 
3.02369 3.32400 0.65612 
2.96204 3.21200 0.63401 
2.95044 3.18500 0.62868 
2.89663 3.05800 0.60361 
2.90940 3.05800 0.60361 
-1.47102 1.58600 0.30643 
-1.46440 1.58600 0.30643 
-1.43344 1.62600 0.31416 
-1.43209 1.64000 0.31687 
-1.43137 1.65500 0.31977 
-1.40602 1.69100 0.32672 
-1.39896 1.69100 0.32672 
-1.39584 1.72200 0.33271 
-1.37806 1.74500 0.33715 
-1.35762 1.84600 0.35667 
-1.35649 1.85500 0.35841 
-1.34869 1.98000 0.38256 
-1.34629 2.00100 0.38662 
-1.32849 2.01200 0.38874 
-1.26925 2.06600 0.39918 
-1.26594 2.08900 0.40362 
-1.25507 2.10000 0.40574 
-1.24730 2.14700 0.41483 
-1.28201 2.28900 0.44226 
-1.29422 2.41900 0.46738 
-1.25143 2.43400 0.47028 
-1.23110 2.43400 0.47028 
-1.21078 2.43400 0.47028 
-1.13556 2.51500 0.48593 
-1.12165 2.53100 0.48902 
-1.09034 2.58200 0.49887 
-1.06182 2.61800 0.50583 
-1.06181 2.67300 0.51646 
-1.05699 3.08200 0.59548 
-0.91185 2.98600 0.57693 
-0.89246 2.96300 0.57249 
-0.86862 3.00900 0.58137 
-0.85723 3.05800 0.59084 
-0.76718 3.10700 0.60031 
-0.62227 3.03300 0.58601 
-0.59222 3.00900 0.58137 
-0.55453 3.00900 0.58137 
-0.49271 2.94000 0.56804 
-0.43134 2.94000 0.56804 
-0.39120 3.00900 0.58137 
-0.31582 3.00900 0.58137 
-0.26557 3.00900 0.58137 
-0.13993 3.00900 0.58137 
-0.12639 2.98600 0.57693 
-0.10146 2.98600 0.57693 
