ply
format ascii 1.0
comment pointcloud saved from Realsense Viewer
element vertex 1803
property float32 x
property float32 y
property float32 z
end_header
2.23629 8.13200 -0.43209 
2.30420 8.13200 -0.43209 
2.29744 7.35000 -0.39054 
2.53019 7.49400 -0.39819 
3.01352 8.30900 -0.44149 
2.99175 7.80000 -0.41445 
3.28701 7.96300 -0.42311 
3.06692 7.21100 -0.38315 
2.80926 6.47800 -0.34420 
3.18766 6.70500 -0.35626 
4.23826 8.68600 -0.46152 
4.58752 9.32200 -0.49532 
4.74208 9.55500 -0.50770 
4.90459 9.80000 -0.52071 
4.60509 8.49300 -0.45127 
4.13877 7.35000 -0.39054 
3.84840 6.59000 -0.35015 
3.33766 5.09600 -0.27077 
3.22928 4.83800 -0.25706 
3.18912 4.60500 -0.24468 
3.18903 4.55000 -0.24176 
3.20803 4.55000 -0.24176 
3.15521 4.11000 -0.21838 
3.02854 3.86100 -0.20515 
2.96348 3.38200 -0.17970 
3.01914 3.41300 -0.18135 
3.03339 3.41300 -0.18135 
3.04764 3.41300 -0.18135 
3.05007 3.35300 -0.17816 
2.90047 3.00900 -0.15988 
-1.46973 1.59900 -0.09164 
-1.44970 1.59900 -0.09164 
-1.44934 1.60600 -0.09204 
-1.44219 1.61300 -0.09244 
-1.43344 1.62600 -0.09319 
-1.43651 1.66900 -0.09565 
-1.42561 1.70600 -0.09777 
-1.41798 1.71400 -0.09823 
-1.41022 1.72200 -0.09869 
-1.39430 1.72900 -0.09909 
-1.38708 1.72900 -0.09909 
-1.35958 1.77800 -0.10190 
-1.36969 1.81100 -0.10379 
-1.37565 1.89200 -0.10843 
-1.36704 1.90200 -0.10900 
-1.34687 1.93000 -0.11061 
-1.34454 1.95000 -0.11175 
-1.34325 1.96000 -0.11233 
-1.33216 1.98000 -0.11347 
-1.31548 2.04400 -0.11714 
-1.29381 2.13500 -0.12236 
-1.28490 2.13500 -0.12236 
-1.26109 2.23500 -0.12809 
-1.25381 2.41900 -0.13863 
-1.22669 2.46600 -0.14133 
-1.19026 2.56500 -0.14700 
-1.18737 2.58200 -0.14797 
-1.18457 2.67300 -0.15319 
-1.16653 2.79000 -0.15989 
-1.15365 2.87400 -0.16471 
-1.13627 2.98600 -0.17113 
-1.11989 3.00900 -0.17244 
-1.11260 3.05800 -0.17525 
-1.09559 3.08200 -0.17663 
-1.03125 3.08200 -0.17663 
-0.94400 3.00900 -0.17244 
-0.79948 2.85200 -0.16345 
-0.75880 2.79000 -0.15989 
-0.69051 2.75000 -0.15760 
-0.67637 3.10700 -0.17806 
-0.67450 3.15900 -0.18104 
-0.65101 3.23900 -0.18563 
-0.62396 3.23900 -0.18563 
-0.61044 3.23900 -0.18563 
-0.60208 3.26700 -0.18723 
-0.59348 3.29500 -0.18884 
-0.57972 3.29500 -0.18884 
-0.56596 3.29500 -0.18884 
-0.55221 3.29500 -0.18884 
-0.54319 3.32400 -0.19050 
-0.52931 3.32400 -0.19050 
-0.47379 3.32400 -0.19050 
-0.41463 3.29500 -0.18884 
-0.35054 3.21200 -0.18408 
-0.25712 3.05800 -0.17525 
-0.24236 3.03300 -0.17382 
-0.22969 3.03300 -0.17382 
-0.12639 2.98600 -0.17113 
-0.10068 2.96300 -0.16981 
-0.01408 2.96300 -0.16981 
-0.00170 2.96300 -0.16981 
0.01067 2.96300 -0.16981 
0.04706 2.91800 -0.16723 
0.09579 2.91800 -0.16723 
0.18244 2.94000 -0.16849 
0.30520 2.94000 -0.16849 
0.57378 3.13300 -0.17955 
0.61196 3.26700 -0.18723 
0.65356 3.41300 -0.19560 
1.34307 5.97200 -0.34225 
1.99861 8.13200 -0.46604 
2.22918 8.49300 -0.48673 
2.29359 7.64400 -0.43807 
2.64467 7.64400 -0.43807 
3.01352 8.30900 -0.47618 
2.98778 7.96300 -0.45636 
3.12077 7.96300 -0.45636 
3.07974 6.47800 -0.37125 
4.14409 8.49300 -0.48673 
4.51626 9.10000 -0.52152 
4.53417 8.49300 -0.48673 
4.40935 8.13200 -0.46604 
3.82088 6.59000 -0.37767 
3.29818 5.23600 -0.30007 
3.15006 4.66100 -0.26712 
3.13310 4.49700 -0.25772 
3.17066 4.49700 -0.25772 
2.91439 3.47500 -0.19915 
3.06189 3.41300 -0.19560 
3.06407 3.35300 -0.19216 
3.02482 3.29500 -0.18884 
3.01276 3.26700 -0.18723 
2.93007 3.10700 -0.17806 
2.89077 2.98600 -0.17113 
3.15058 3.15900 -0.18104 
3.47695 3.44300 -0.19732 
-1.49643 1.59900 -0.09831 
-1.47640 1.59900 -0.09831 
-1.43132 1.64700 -0.10127 
-1.43553 1.67600 -0.10305 
-1.41741 1.72200 -0.10588 
-1.37174 1.73700 -0.10680 
-1.37077 1.74500 -0.10729 
-1.36242 1.75300 -0.10778 
-1.36008 1.76900 -0.10877 
-1.36889 1.82000 -0.11190 
-1.33366 1.97000 -0.12113 
-1.32009 2.01200 -0.12371 
-1.27230 2.15900 -0.13275 
-1.27089 2.17200 -0.13355 
-1.26487 2.20900 -0.13582 
-1.26023 2.37400 -0.14597 
-1.20906 2.51500 -0.15463 
-1.18724 2.65400 -0.16318 
-1.15365 2.87400 -0.17671 
-1.08272 3.08200 -0.18950 
-0.99768 3.05800 -0.18802 
-0.77598 2.81000 -0.17277 
-0.71969 2.73000 -0.16785 
-0.66940 2.71100 -0.16669 
-0.60535 3.21200 -0.19749 
-0.46966 3.29500 -0.20259 
-0.34759 3.18500 -0.19583 
-0.25712 3.05800 -0.18802 
-0.21531 3.00900 -0.18501 
-0.08830 2.96300 -0.18218 
-0.06307 2.94000 -0.18077 
0.03514 2.94000 -0.18077 
0.07142 2.91800 -0.17941 
0.13234 2.91800 -0.17941 
0.20699 2.94000 -0.18077 
0.25810 2.96300 -0.18218 
0.28284 2.96300 -0.18218 
0.36658 2.94000 -0.18077 
0.37602 2.91800 -0.17941 
0.43694 2.91800 -0.17941 
0.48567 2.91800 -0.17941 
0.52192 2.98600 -0.18359 
0.76380 3.82200 -0.23500 
1.11845 5.16500 -0.31757 
1.34307 5.97200 -0.36719 
1.77923 7.49400 -0.46077 
2.17104 8.68600 -0.53406 
2.31610 8.68600 -0.53406 
2.38864 8.68600 -0.53406 
2.40649 8.49300 -0.52219 
2.12410 6.37000 -0.39166 
3.01723 8.13200 -0.49999 
3.02432 7.80000 -0.47958 
3.15402 7.96300 -0.48960 
2.63103 6.06700 -0.37303 
4.43593 8.30900 -0.51088 
4.37539 8.13200 -0.49999 
4.35096 7.96300 -0.48960 
4.06050 7.21100 -0.44337 
3.50270 5.79100 -0.35606 
3.15006 4.66100 -0.28658 
3.11433 4.49700 -0.27650 
3.11473 4.44400 -0.27324 
3.32371 4.60500 -0.28314 
3.41985 4.60500 -0.28314 
3.33578 4.39300 -0.27010 
3.18899 4.15400 -0.25541 
2.97286 3.71100 -0.22817 
2.96158 3.64000 -0.22381 
3.10465 3.41300 -0.20985 
3.05144 3.32400 -0.20438 
3.03858 3.29500 -0.20259 
3.05234 3.29500 -0.20259 
2.96768 3.13300 -0.19263 
2.90047 3.00900 -0.18501 
2.89077 2.98600 -0.18359 
2.90324 2.98600 -0.18359 
3.47695 3.44300 -0.21169 
-1.45091 1.59300 -0.10460 
-1.44302 1.59900 -0.10499 
-1.43132 1.64700 -0.10814 
-1.43137 1.65500 -0.10867 
-1.40874 1.72900 -0.11353 
-1.39350 1.73700 -0.11405 
-1.37198 1.85500 -0.12180 
-1.34861 1.92100 -0.12613 
-1.32293 1.99100 -0.13073 
-1.29934 2.15900 -0.14176 
-1.27635 2.19700 -0.14426 
-1.26843 2.24800 -0.14760 
-1.27633 2.33100 -0.15305 
-1.27196 2.35900 -0.15489 
-1.26611 2.40400 -0.15785 
-1.23465 2.48200 -0.16297 
-1.22429 2.48200 -0.16297 
-1.20365 2.54800 -0.16730 
-1.19301 2.54800 -0.16730 
-1.19019 2.63600 -0.17308 
-1.18724 2.65400 -0.17426 
-1.16003 2.83100 -0.18588 
-1.15673 2.85200 -0.18726 
-1.14694 2.91800 -0.19160 
-1.13476 2.91800 -0.19160 
-1.13989 2.96300 -0.19455 
-1.12380 2.98600 -0.19606 
-1.11989 3.00900 -0.19757 
-1.08706 3.05800 -0.20079 
-1.01045 3.05800 -0.20079 
-0.99768 3.05800 -0.20079 
-0.94400 3.00900 -0.19757 
-0.77598 2.81000 -0.18451 
-0.75337 2.77000 -0.18188 
-0.73644 2.75000 -0.18057 
-0.66641 2.65400 -0.17426 
-0.64886 2.67300 -0.17551 
-0.63066 2.79000 -0.18319 
-0.63265 2.96300 -0.19455 
-0.62227 3.03300 -0.19915 
-0.53387 3.26700 -0.21451 
-0.47931 3.26700 -0.21451 
-0.42111 3.23900 -0.21267 
-0.37419 3.18500 -0.20913 
-0.30016 3.10700 -0.20401 
-0.07593 2.96300 -0.19455 
0.01051 2.91800 -0.19160 
0.05877 2.89500 -0.19009 
0.20699 2.94000 -0.19304 
0.28284 2.96300 -0.19455 
0.34203 2.94000 -0.19304 
0.46130 2.91800 -0.19160 
0.91459 4.39300 -0.28845 
1.11845 5.16500 -0.33914 
2.05187 8.49300 -0.55765 
2.46117 8.68600 -0.57032 
2.44195 8.49300 -0.55765 
1.87853 5.70500 -0.37459 
2.82153 7.96300 -0.52285 
3.05427 7.96300 -0.52285 
3.22096 8.13200 -0.53395 
3.32576 8.30900 -0.54557 
3.36045 8.30900 -0.54557 
3.32282 8.13200 -0.53395 
2.78931 5.97200 -0.39212 
3.33268 6.94900 -0.45627 
4.45587 8.68600 -0.57032 
4.37539 8.13200 -0.53395 
3.18879 5.02900 -0.33021 
3.20929 4.90000 -0.32174 
3.16928 4.77800 -0.31372 
3.16955 4.71900 -0.30985 
3.13144 4.60500 -0.30237 
3.40306 4.66100 -0.30604 
3.48090 4.66100 -0.30604 
3.08942 3.98100 -0.26139 
3.07405 3.94000 -0.25870 
2.99974 3.78400 -0.24846 
2.95936 3.67500 -0.24130 
2.94638 3.64000 -0.23900 
2.94340 3.47500 -0.22817 
2.94505 3.44300 -0.22607 
3.10301 3.47500 -0.22817 
3.11756 3.44300 -0.22607 
3.13315 3.41300 -0.22410 
3.09207 3.35300 -0.22016 
2.98076 3.13300 -0.20571 
2.92361 3.03300 -0.19915 
2.90324 2.98600 -0.19606 
3.08575 3.10700 -0.20401 
3.12465 3.13300 -0.20571 
-1.45091 1.59300 -0.11125 
-1.42872 1.61300 -0.11265 
-1.42686 1.69900 -0.11865 
-1.39350 1.73700 -0.12130 
-1.38534 1.74500 -0.12186 
-1.36008 1.76900 -0.12354 
-1.36708 1.83800 -0.12836 
-1.35910 1.90200 -0.13283 
-1.34687 1.93000 -0.13478 
-1.32122 2.00100 -0.13974 
-1.31689 2.03300 -0.14198 
-1.32101 2.06600 -0.14428 
-1.31937 2.07700 -0.14505 
-1.31313 2.12300 -0.14826 
-1.31164 2.13500 -0.14910 
-1.30836 2.15900 -0.15078 
-1.29934 2.15900 -0.15078 
-1.28903 2.17200 -0.15168 
-1.27409 2.20900 -0.15427 
-1.27245 2.28900 -0.15985 
-1.22429 2.48200 -0.17333 
-1.22175 2.49800 -0.17445 
-1.20906 2.51500 -0.17564 
-1.20619 2.53100 -0.17675 
-1.20365 2.54800 -0.17794 
-1.19026 2.56500 -0.17913 
-1.18479 2.60000 -0.18157 
-1.17564 2.73000 -0.19065 
-1.11989 3.00900 -0.21014 
-1.03599 3.05800 -0.21356 
-0.96420 3.03300 -0.21181 
-0.82965 2.87400 -0.20071 
-0.73109 2.73000 -0.19065 
-0.69350 2.67300 -0.18667 
-0.67290 2.63600 -0.18409 
-0.63551 2.61800 -0.18283 
-0.60895 2.85200 -0.19917 
-0.56898 3.15900 -0.22061 
-0.56037 3.18500 -0.22243 
-0.35795 3.15900 -0.22061 
-0.19018 3.00900 -0.21014 
-0.11392 2.98600 -0.20853 
-0.08830 2.96300 -0.20692 
0.02269 2.91800 -0.20378 
0.05877 2.89500 -0.20217 
0.07086 2.89500 -0.20217 
0.11921 2.89500 -0.20217 
0.23155 2.94000 -0.20532 
0.24382 2.94000 -0.20532 
0.30520 2.94000 -0.20532 
0.35430 2.94000 -0.20532 
0.38820 2.91800 -0.20378 
0.65931 3.44300 -0.24044 
0.71223 3.64000 -0.25420 
0.77159 3.86100 -0.26964 
1.14941 5.30800 -0.37069 
1.78293 7.64400 -0.53382 
1.97273 8.30900 -0.58026 
2.63995 10.05800 -0.70241 
2.60246 9.32200 -0.65101 
2.30783 7.80000 -0.54472 
2.00485 6.59000 -0.46022 
1.90130 6.16500 -0.43054 
2.40421 6.94900 -0.48529 
3.04479 8.49300 -0.59311 
3.18700 8.13200 -0.56790 
3.50579 8.49300 -0.59311 
2.90771 6.70500 -0.46825 
2.72501 6.16500 -0.43054 
2.63224 5.79100 -0.40442 
3.05270 6.47800 -0.45239 
3.77338 7.80000 -0.54472 
4.05431 8.30900 -0.58026 
4.21501 8.49300 -0.59311 
4.34707 8.68600 -0.60659 
4.63720 8.68600 -0.60659 
4.47725 8.13200 -0.56790 
3.18876 5.16500 -0.36070 
3.16837 4.90000 -0.34219 
3.18883 4.90000 -0.34219 
3.14985 4.71900 -0.32955 
3.15006 4.66100 -0.32550 
3.32371 4.60500 -0.32159 
3.40306 4.66100 -0.32550 
3.52838 4.77800 -0.33367 
3.52422 4.71900 -0.32955 
2.99974 3.78400 -0.26426 
2.96591 3.57200 -0.24945 
2.94038 3.50600 -0.24484 
2.95502 3.50600 -0.24484 
2.93364 3.41300 -0.23835 
3.16104 3.47500 -0.24268 
3.14631 3.44300 -0.24044 
3.13293 3.38200 -0.23618 
2.88306 2.94000 -0.20532 
2.95311 2.98600 -0.20853 
3.08575 3.10700 -0.21698 
-1.46421 1.59300 -0.11790 
-1.43634 1.59900 -0.11834 
-1.42815 1.62000 -0.11990 
-1.42460 1.72200 -0.12745 
-1.39992 1.74500 -0.12915 
-1.37806 1.74500 -0.12915 
-1.36803 1.82900 -0.13537 
-1.35115 1.90200 -0.14077 
-1.34861 1.92100 -0.14218 
-1.31820 2.02200 -0.14965 
-1.32056 2.13500 -0.15801 
-1.28159 2.22200 -0.16445 
-1.27976 2.23500 -0.16541 
-1.28181 2.35900 -0.17459 
-1.28005 2.37400 -0.17570 
-1.24729 2.46600 -0.18251 
-1.21956 2.51500 -0.18614 
-1.20097 2.56500 -0.18984 
-1.19019 2.63600 -0.19509 
-1.18457 2.67300 -0.19783 
-1.17051 2.69200 -0.19924 
-1.16653 2.79000 -0.20649 
-1.15673 2.85200 -0.21108 
-1.15365 2.87400 -0.21271 
-1.12380 2.98600 -0.22100 
-1.11989 3.00900 -0.22270 
-1.10350 3.03300 -0.22448 
-1.04875 3.05800 -0.22633 
-1.03599 3.05800 -0.22633 
-0.81139 2.85200 -0.21108 
-0.65737 2.61800 -0.19376 
-0.64644 2.61800 -0.19376 
-0.60422 2.67300 -0.19783 
-0.59430 2.73000 -0.20205 
-0.58965 2.87400 -0.21271 
-0.59092 2.94000 -0.21759 
-0.57966 3.00900 -0.22270 
-0.51622 3.15900 -0.23380 
-0.43709 3.15900 -0.23380 
-0.41070 3.15900 -0.23380 
-0.26989 3.05800 -0.22633 
-0.21531 3.00900 -0.22270 
-0.15133 2.98600 -0.22100 
0.09504 2.89500 -0.21426 
0.13130 2.89500 -0.21426 
0.15671 2.91800 -0.21596 
0.23155 2.94000 -0.21759 
0.28065 2.94000 -0.21759 
0.33947 2.91800 -0.21596 
0.35165 2.91800 -0.21596 
0.54728 3.05800 -0.22633 
0.71223 3.64000 -0.26940 
0.84749 4.15400 -0.30744 
1.16565 5.38300 -0.39840 
2.86620 10.92000 -0.80820 
1.65759 5.16500 -0.38227 
2.01632 5.97200 -0.44199 
2.17729 6.37000 -0.47145 
3.25756 8.49300 -0.62857 
3.75635 9.10000 -0.67350 
3.70595 8.88800 -0.65781 
2.86882 6.37000 -0.47145 
2.89541 6.37000 -0.47145 
3.18772 6.82500 -0.50512 
3.49431 7.35000 -0.54398 
4.34707 8.68600 -0.64286 
4.74424 9.10000 -0.67350 
4.78215 8.88800 -0.65781 
4.81927 8.88800 -0.65781 
4.74600 8.68600 -0.64286 
4.13877 7.35000 -0.54398 
3.56831 6.06700 -0.44902 
3.50743 5.88000 -0.43518 
3.16744 5.09600 -0.37716 
3.18871 5.09600 -0.37716 
3.13060 4.66100 -0.34497 
3.09555 4.49700 -0.33283 
3.13329 4.44400 -0.32890 
3.52838 4.77800 -0.35362 
3.50451 4.71900 -0.34926 
3.27854 4.29400 -0.31780 
3.22430 4.20000 -0.31085 
3.02854 3.86100 -0.28576 
2.97041 3.74700 -0.27732 
2.94402 3.67500 -0.27199 
2.93608 3.57200 -0.26437 
2.96806 3.53900 -0.26192 
3.13203 3.47500 -0.25719 
3.14705 3.38200 -0.25031 
3.08096 3.26700 -0.24179 
2.96047 3.05800 -0.22633 
-1.47751 1.59300 -0.12455 
-1.42954 1.66900 -0.13049 
-1.42720 1.69100 -0.13221 
-1.39263 1.74500 -0.13644 
-1.37706 1.75300 -0.13706 
-1.36364 1.80300 -0.14097 
-1.35474 1.87400 -0.14652 
-1.35195 1.89200 -0.14793 
-1.31515 2.11200 -0.16513 
-1.29254 2.20900 -0.17271 
-1.28159 2.22200 -0.17373 
-1.25758 2.46600 -0.19281 
-1.23218 2.49800 -0.19531 
-1.18479 2.60000 -0.20328 
-1.17564 2.73000 -0.21345 
-1.14694 2.91800 -0.22815 
-1.13104 2.94000 -0.22987 
-1.12380 2.98600 -0.23346 
-1.11133 2.98600 -0.23346 
-1.07817 3.03300 -0.23714 
-1.01045 3.05800 -0.23909 
-0.74180 2.77000 -0.21658 
-0.63551 2.61800 -0.20469 
-0.45965 3.13300 -0.24496 
-0.42989 3.10700 -0.24293 
-0.39097 3.10700 -0.24293 
-0.37800 3.10700 -0.24293 
-0.32611 3.10700 -0.24293 
-0.28488 3.08200 -0.24097 
-0.26989 3.05800 -0.23909 
-0.12639 2.98600 -0.23346 
-0.06405 2.98600 -0.23346 
-0.03882 2.96300 -0.23167 
0.02269 2.91800 -0.22815 
0.03487 2.91800 -0.22815 
0.04669 2.89500 -0.22635 
0.05877 2.89500 -0.22635 
0.07086 2.89500 -0.22635 
0.10712 2.89500 -0.22635 
0.16889 2.91800 -0.22815 
0.18108 2.91800 -0.22815 
0.21927 2.94000 -0.22987 
0.28065 2.94000 -0.22987 
0.32728 2.91800 -0.22815 
0.33947 2.91800 -0.22815 
0.38514 2.89500 -0.22635 
0.47349 2.91800 -0.22815 
0.50553 2.96300 -0.23167 
0.57854 3.15900 -0.24699 
0.61721 3.29500 -0.25762 
0.77159 3.86100 -0.30188 
0.84749 4.15400 -0.32479 
1.18233 5.46000 -0.42690 
1.29783 5.88000 -0.45974 
2.47197 10.05800 -0.78640 
2.07634 6.82500 -0.53362 
1.83795 5.88000 -0.45974 
2.44884 7.07800 -0.55340 
3.26240 9.10000 -0.71150 
3.26062 8.88800 -0.69492 
3.29532 8.68600 -0.67913 
3.30779 7.21100 -0.56380 
3.50019 7.49400 -0.58593 
4.63025 9.10000 -0.71150 
4.93782 9.32200 -0.72885 
4.97674 9.32200 -0.72885 
5.05459 9.32200 -0.72885 
4.60940 8.30900 -0.64965 
3.37340 5.53900 -0.43307 
3.30087 5.38300 -0.42088 
3.14848 4.83800 -0.37827 
3.09733 4.39300 -0.34347 
3.45831 4.60500 -0.36005 
2.94187 3.71100 -0.29015 
2.94402 3.67500 -0.28733 
2.93118 3.64000 -0.28460 
2.96591 3.57200 -0.27928 
2.94038 3.50600 -0.27412 
2.95502 3.50600 -0.27412 
3.14654 3.47500 -0.27170 
3.17506 3.44300 -0.26920 
3.13407 3.35300 -0.26216 
3.08096 3.26700 -0.25543 
3.03187 3.15900 -0.24699 
2.96047 3.05800 -0.23909 
3.04985 3.05800 -0.23909 
-1.43634 1.59900 -0.13170 
-1.38437 1.75300 -0.14438 
-1.37706 1.75300 -0.14438 
-1.37599 1.76100 -0.14504 
-1.36129 1.82000 -0.14990 
-1.35338 1.88300 -0.15509 
-1.35115 1.90200 -0.15665 
-1.33366 1.97000 -0.16225 
-1.33125 1.99100 -0.16398 
-1.31820 2.02200 -0.16654 
-1.31515 2.11200 -0.17395 
-1.29810 2.17200 -0.17889 
-1.28577 2.26200 -0.18630 
-1.28400 2.34500 -0.19314 
-1.26819 2.38900 -0.19676 
-1.24729 2.46600 -0.20310 
-1.22175 2.49800 -0.20574 
-1.17341 2.67300 -0.22015 
-1.17277 2.75000 -0.22649 
-1.16973 2.77000 -0.22814 
-1.16003 2.83100 -0.23317 
-1.15673 2.85200 -0.23490 
-1.04875 3.05800 -0.25186 
-1.01045 3.05800 -0.25186 
-0.98491 3.05800 -0.25186 
-0.93144 3.00900 -0.24783 
-0.66002 2.67300 -0.22015 
-0.60149 2.71100 -0.22328 
-0.58083 2.83100 -0.23317 
-0.56978 2.89500 -0.23844 
-0.56637 2.94000 -0.24214 
-0.55842 2.96300 -0.24404 
-0.51651 3.08200 -0.25384 
-0.47791 3.08200 -0.25384 
-0.38481 3.05800 -0.25186 
-0.31061 3.08200 -0.25384 
-0.29775 3.08200 -0.25384 
-0.22969 3.03300 -0.24980 
-0.20275 3.00900 -0.24783 
-0.12737 3.00900 -0.24783 
-0.03912 2.98600 -0.24593 
0.05877 2.89500 -0.23844 
0.15789 2.94000 -0.24214 
0.44558 2.89500 -0.23844 
0.50161 2.94000 -0.24214 
0.71908 3.67500 -0.30268 
0.77938 3.90000 -0.32121 
0.94728 4.55000 -0.37475 
1.18233 5.46000 -0.44969 
1.43258 6.37000 -0.52464 
1.59181 6.94900 -0.57233 
1.81931 7.80000 -0.64242 
2.71923 9.32200 -0.76778 
1.70348 5.30800 -0.43718 
1.72565 5.30800 -0.43718 
1.82387 5.53900 -0.45620 
4.22550 8.88800 -0.73203 
4.66536 9.32200 -0.76778 
5.23193 9.80000 -0.80714 
3.42334 5.62100 -0.46295 
3.25445 5.23600 -0.43125 
3.14791 4.90000 -0.40357 
3.13060 4.66100 -0.38389 
3.11304 4.55000 -0.37475 
3.09555 4.49700 -0.37038 
3.09618 4.44400 -0.36602 
3.34294 4.60500 -0.37928 
3.33578 4.39300 -0.36181 
2.94402 3.67500 -0.30268 
2.92575 3.50600 -0.28876 
2.91630 3.44300 -0.28357 
2.90514 3.41300 -0.28110 
2.92112 3.38200 -0.27855 
2.99064 3.41300 -0.28110 
3.09513 3.23900 -0.26677 
3.08274 3.21200 -0.26455 
3.03708 3.05800 -0.25186 
-1.42686 1.69900 -0.14703 
-1.38534 1.74500 -0.15101 
-1.38437 1.75300 -0.15170 
-1.36569 1.78600 -0.15456 
-1.36212 1.81100 -0.15672 
-1.35529 1.86400 -0.16131 
-1.35195 1.89200 -0.16373 
-1.34454 1.95000 -0.16875 
-1.33507 1.96000 -0.16961 
-1.32293 1.99100 -0.17230 
-1.30955 2.08900 -0.18078 
-1.31164 2.13500 -0.18476 
-1.29469 2.19700 -0.19012 
-1.28332 2.20900 -0.19116 
-1.28746 2.31600 -0.20042 
-1.28400 2.34500 -0.20293 
-1.26391 2.41900 -0.20933 
-1.26159 2.43400 -0.21063 
-1.24502 2.48200 -0.21479 
-1.20097 2.56500 -0.22197 
-1.06551 3.03300 -0.26247 
-1.03599 3.05800 -0.26463 
-0.79365 2.87400 -0.24871 
-0.59572 2.79000 -0.24144 
-0.58825 2.81000 -0.24317 
-0.56978 2.89500 -0.25052 
-0.55029 2.98600 -0.25840 
-0.53363 3.03300 -0.26247 
-0.48695 3.05800 -0.26463 
-0.47418 3.05800 -0.26463 
-0.36900 3.03300 -0.26247 
-0.20275 3.00900 -0.26039 
-0.17762 3.00900 -0.26039 
-0.06455 3.00900 -0.26039 
0.01067 2.96300 -0.25641 
0.04706 2.91800 -0.25252 
0.12016 2.91800 -0.25252 
0.15789 2.94000 -0.25442 
0.20861 2.96300 -0.25641 
0.25610 2.94000 -0.25442 
0.26636 2.91800 -0.25252 
0.30053 2.89500 -0.25052 
0.43349 2.89500 -0.25052 
0.44558 2.89500 -0.25052 
0.66543 3.47500 -0.30072 
1.16565 5.38300 -0.46583 
2.25216 9.32200 -0.80670 
3.39710 12.74000 -1.10248 
3.33898 12.32900 -1.06691 
2.78719 9.55500 -0.82686 
1.68038 5.23600 -0.45311 
1.77251 5.38300 -0.46583 
2.25249 6.59000 -0.57028 
2.73121 7.80000 -0.67499 
3.51336 9.80000 -0.84806 
3.55428 9.80000 -0.84806 
4.33821 10.61700 -0.91876 
4.26333 9.55500 -0.82686 
4.65575 10.05800 -0.87039 
4.69774 10.05800 -0.87039 
4.70429 9.32200 -0.80670 
3.65919 6.26600 -0.54224 
3.32335 5.38300 -0.46583 
3.23189 5.16500 -0.44696 
3.12828 4.83800 -0.41867 
3.09167 4.66100 -0.40335 
3.42570 4.71900 -0.40837 
3.59289 4.83800 -0.41867 
3.56828 4.77800 -0.41347 
3.54392 4.71900 -0.40837 
2.96403 3.60600 -0.31205 
2.96591 3.57200 -0.30911 
2.90699 3.38200 -0.29267 
3.00489 3.41300 -0.29535 
3.04568 3.44300 -0.29795 
3.07443 3.44300 -0.29795 
3.05825 3.15900 -0.27337 
-1.43535 1.68400 -0.15276 
-1.36212 1.81100 -0.16428 
-1.35338 1.88300 -0.17081 
-1.35195 1.89200 -0.17163 
-1.34687 1.93000 -0.17508 
-1.34325 1.96000 -0.17780 
-1.34188 1.97000 -0.17870 
-1.31238 2.06600 -0.18741 
-1.29810 2.17200 -0.19703 
-1.28577 2.26200 -0.20519 
-1.29156 2.28900 -0.20764 
-1.28746 2.31600 -0.21009 
-1.24942 2.45000 -0.22225 
-1.19299 2.61800 -0.23749 
-1.16003 2.83100 -0.25681 
-1.13476 2.91800 -0.26470 
-1.11515 2.96300 -0.26878 
-1.04875 3.05800 -0.27740 
-0.93887 3.03300 -0.27513 
-0.89938 2.98600 -0.27087 
-0.71731 2.81000 -0.25490 
-0.65396 2.79000 -0.25309 
-0.58965 2.87400 -0.26071 
-0.53782 2.98600 -0.27087 
-0.49563 3.03300 -0.27513 
-0.46659 3.00900 -0.27295 
-0.42889 3.00900 -0.27295 
-0.20275 3.00900 -0.27295 
-0.06560 3.05800 -0.27740 
-0.02707 3.03300 -0.27513 
-0.00172 2.98600 -0.27087 
0.09504 2.89500 -0.26261 
0.25610 2.94000 -0.26669 
0.50161 2.94000 -0.26669 
0.71908 3.67500 -0.33337 
0.77159 3.86100 -0.35024 
0.93624 4.49700 -0.40793 
1.74794 7.49400 -0.67980 
2.47197 10.05800 -0.91238 
2.65368 10.61700 -0.96309 
3.23602 12.32900 -1.11839 
2.78719 9.55500 -0.86676 
1.96452 6.37000 -0.57784 
2.78829 7.96300 -0.72234 
3.74469 9.55500 -0.86676 
4.87480 11.24100 -1.01970 
4.91797 10.92000 -0.99058 
5.10947 11.24100 -1.01970 
4.86572 10.05800 -0.91238 
5.32768 10.05800 -0.91238 
5.41167 10.05800 -0.91238 
4.39217 7.80000 -0.70756 
4.16946 7.35000 -0.66674 
3.85956 6.70500 -0.60823 
3.75594 6.47800 -0.58763 
3.42334 5.62100 -0.50989 
3.18912 4.60500 -0.41773 
3.53229 4.83800 -0.43887 
3.59801 4.90000 -0.44449 
3.59289 4.83800 -0.43887 
3.20677 4.20000 -0.38099 
3.12143 4.06600 -0.36884 
3.04115 3.94000 -0.35741 
2.98199 3.82200 -0.34670 
2.95099 3.57200 -0.32402 
2.93851 3.53900 -0.32103 
2.90192 3.44300 -0.31232 
2.91007 3.35300 -0.30416 
3.07443 3.44300 -0.31232 
3.14654 3.47500 -0.31523 
3.20354 3.38200 -0.30679 
3.16240 3.29500 -0.29890 
3.08342 3.18500 -0.28892 
-1.45091 1.59300 -0.15116 
-1.44219 1.61300 -0.15305 
-1.44168 1.62000 -0.15372 
-1.43961 1.63300 -0.15495 
-1.44347 1.66900 -0.15837 
-1.43651 1.66900 -0.15837 
-1.43426 1.69100 -0.16046 
-1.41798 1.71400 -0.16264 
-1.41022 1.72200 -0.16340 
-1.37485 1.76900 -0.16786 
-1.37442 1.77800 -0.16871 
-1.37315 1.78600 -0.16947 
-1.36212 1.81100 -0.17184 
-1.35338 1.88300 -0.17867 
-1.35493 1.93000 -0.18313 
-1.35144 1.96000 -0.18598 
-1.32009 2.01200 -0.19091 
-1.28903 2.17200 -0.20610 
-1.28552 2.19700 -0.20847 
-1.28577 2.26200 -0.21464 
-1.26391 2.41900 -0.22953 
-1.24942 2.45000 -0.23248 
-1.19026 2.56500 -0.24339 
-1.18175 2.69200 -0.25544 
-1.17277 2.75000 -0.26094 
-1.16653 2.79000 -0.26474 
-1.13104 2.94000 -0.27897 
-1.10733 3.00900 -0.28552 
-1.09477 3.00900 -0.28552 
-1.07817 3.03300 -0.28779 
-1.05284 3.03300 -0.28779 
-1.01838 3.08200 -0.29244 
-0.97215 3.05800 -0.29017 
-0.74565 2.87400 -0.27271 
-0.58965 2.87400 -0.27271 
-0.56213 2.91800 -0.27688 
-0.52940 3.00900 -0.28552 
-0.37285 2.96300 -0.28115 
-0.36328 2.98600 -0.28333 
-0.02729 3.05800 -0.29017 
0.02304 2.96300 -0.28115 
0.05924 2.91800 -0.27688 
0.12107 2.94000 -0.27897 
0.17150 2.96300 -0.28115 
0.19776 2.98600 -0.28333 
0.21023 2.98600 -0.28333 
0.25610 2.94000 -0.27897 
0.32235 2.87400 -0.27271 
0.34370 2.85200 -0.27062 
0.35560 2.85200 -0.27062 
0.43035 2.87400 -0.27271 
0.44558 2.89500 -0.27470 
0.45767 2.89500 -0.27470 
0.48933 2.94000 -0.27897 
0.57854 3.15900 -0.29975 
0.66543 3.47500 -0.32974 
3.08510 11.94400 -1.13334 
3.33445 11.94400 -1.13334 
3.18513 11.24100 -1.06663 
2.78719 9.55500 -0.90665 
1.75449 5.53900 -0.52558 
1.65759 5.16500 -0.49010 
3.22441 9.10000 -0.86348 
3.84071 9.80000 -0.92990 
4.98018 11.94400 -1.13334 
4.99731 10.33000 -0.98019 
4.86367 9.80000 -0.92990 
4.86176 9.55500 -0.90665 
5.13243 9.32200 -0.88454 
3.82088 6.59000 -0.62531 
3.62595 6.16500 -0.58498 
3.44681 5.62100 -0.53336 
3.37088 5.46000 -0.51809 
3.14848 4.83800 -0.45907 
3.30748 4.71900 -0.44778 
3.32718 4.71900 -0.44778 
3.40868 4.77800 -0.45337 
3.51208 4.83800 -0.45907 
3.56828 4.77800 -0.45337 
3.50036 4.66100 -0.44227 
3.20677 4.20000 -0.39853 
2.93851 3.53900 -0.33581 
2.94936 3.38200 -0.32091 
3.01914 3.41300 -0.32385 
3.08881 3.44300 -0.32670 
-1.46440 1.58600 -0.15711 
-1.45756 1.59300 -0.15781 
-1.44239 1.68400 -0.16682 
-1.42686 1.69900 -0.16831 
-1.38534 1.74500 -0.17287 
-1.37485 1.76900 -0.17524 
-1.37315 1.78600 -0.17693 
-1.36129 1.82000 -0.18030 
-1.36039 1.82900 -0.18119 
-1.34188 1.97000 -0.19515 
-1.32958 2.00100 -0.19823 
-1.31548 2.04400 -0.20249 
-1.30955 2.08900 -0.20694 
-1.30768 2.10000 -0.20803 
-1.28159 2.22200 -0.22012 
-1.28929 2.30200 -0.22804 
-1.29379 2.34500 -0.23230 
-1.28181 2.35900 -0.23369 
-1.28005 2.37400 -0.23518 
-1.27014 2.37400 -0.23518 
-1.19301 2.54800 -0.25241 
-1.16973 2.77000 -0.27441 
-1.10350 3.03300 -0.30046 
-0.97215 3.05800 -0.30294 
-0.82415 2.94000 -0.29125 
-0.78733 2.94000 -0.29125 
-0.68912 2.94000 -0.29125 
-0.65229 2.94000 -0.29125 
-0.54182 2.94000 -0.29125 
-0.52536 2.98600 -0.29580 
-0.51684 3.00900 -0.29808 
-0.42234 2.96300 -0.29352 
-0.37285 2.96300 -0.29352 
-0.35081 2.98600 -0.29580 
-0.30326 3.00900 -0.29808 
-0.29069 3.00900 -0.29808 
-0.21531 3.00900 -0.29808 
-0.20275 3.00900 -0.29808 
-0.15371 3.03300 -0.30046 
-0.12944 3.05800 -0.30294 
-0.10390 3.05800 -0.30294 
0.14676 2.96300 -0.29352 
0.17283 2.98600 -0.29580 
0.25610 2.94000 -0.29125 
0.27635 2.89500 -0.28679 
0.31988 2.85200 -0.28253 
0.37942 2.85200 -0.28253 
0.44558 2.89500 -0.28679 
0.57854 3.15900 -0.31294 
1.14941 5.30800 -0.52583 
1.50957 6.59000 -0.65283 
3.23602 12.32900 -1.22135 
2.62974 8.88800 -0.88047 
2.34040 7.80000 -0.77269 
3.22441 9.10000 -0.90147 
4.24955 10.61700 -1.05175 
5.08923 12.32900 -1.22135 
5.23714 10.92000 -1.08177 
4.90459 9.80000 -0.97082 
4.98642 9.80000 -0.97082 
5.32768 10.05800 -0.99638 
4.48395 7.96300 -0.78884 
3.62595 6.16500 -0.61072 
3.23127 5.09600 -0.50483 
3.14848 4.83800 -0.47927 
3.22866 4.71900 -0.46748 
3.38873 4.77800 -0.47332 
3.57755 4.90000 -0.48541 
3.56828 4.77800 -0.47332 
3.29781 4.34300 -0.43023 
3.01242 3.86100 -0.38248 
2.98605 3.74700 -0.37119 
2.97677 3.64000 -0.36059 
2.84326 3.32400 -0.32929 
2.89878 3.32400 -0.32929 
3.11756 3.44300 -0.34107 
3.17590 3.41300 -0.33810 
3.20354 3.38200 -0.33503 
3.21766 3.38200 -0.33503 
3.27565 3.41300 -0.33810 
-1.44970 1.59900 -0.16508 
-1.44844 1.62000 -0.16725 
-1.44702 1.62600 -0.16787 
-1.36969 1.81100 -0.18697 
-1.36889 1.82000 -0.18789 
-1.36533 1.84600 -0.19058 
-1.36424 1.85500 -0.19151 
-1.35910 1.90200 -0.19636 
-1.33956 1.99100 -0.20555 
-1.32849 2.01200 -0.20772 
-1.31820 2.02200 -0.20875 
-1.30633 2.11200 -0.21804 
-1.30273 2.13500 -0.22041 
-1.29934 2.15900 -0.22289 
-1.29033 2.15900 -0.22289 
-1.28903 2.17200 -0.22423 
-1.28159 2.22200 -0.22940 
-1.29379 2.34500 -0.24209 
-1.28005 2.37400 -0.24509 
-1.25608 2.40400 -0.24819 
-1.25381 2.41900 -0.24973 
-1.24126 2.43400 -0.25128 
-1.22669 2.46600 -0.25459 
-1.21132 2.49800 -0.25789 
-1.19019 2.63600 -0.27214 
-1.14999 2.89500 -0.29888 
-0.97977 3.08200 -0.31818 
-0.81823 2.96300 -0.30590 
-0.72595 2.94000 -0.30352 
-0.60319 2.94000 -0.30352 
-0.54994 2.91800 -0.30125 
-0.48419 2.96300 -0.30590 
-0.45945 2.96300 -0.30590 
-0.40374 2.91800 -0.30125 
-0.33834 2.98600 -0.30827 
-0.01441 3.03300 -0.31312 
0.05969 2.94000 -0.30352 
0.07142 2.91800 -0.30125 
0.17283 2.98600 -0.30827 
0.23336 2.96300 -0.30590 
0.24382 2.94000 -0.30352 
0.29835 2.87400 -0.29671 
0.31988 2.85200 -0.29444 
0.35560 2.85200 -0.29444 
0.83851 4.11000 -0.42431 
1.68193 7.21100 -0.74445 
2.40856 9.80000 -1.01174 
3.33898 12.32900 -1.27283 
2.38930 7.96300 -0.82209 
2.15331 7.07800 -0.73072 
1.90235 5.70500 -0.58898 
2.84746 8.13200 -0.83953 
4.24955 10.61700 -1.09608 
5.45791 11.58200 -1.19571 
5.07570 10.05800 -1.03837 
5.36967 10.05800 -1.03837 
4.85481 8.68600 -0.89673 
4.57912 8.13200 -0.83953 
3.82088 6.59000 -0.68034 
3.53198 5.88000 -0.60704 
3.36830 5.38300 -0.55573 
3.14848 4.83800 -0.49947 
3.16868 4.83800 -0.49947 
3.32888 4.77800 -0.49327 
3.43128 4.83800 -0.49947 
3.45148 4.83800 -0.49947 
3.45831 4.60500 -0.47541 
3.29781 4.34300 -0.44836 
3.10522 4.02300 -0.41533 
3.07405 3.94000 -0.40676 
2.97908 3.60600 -0.37228 
2.85051 3.38200 -0.34915 
3.13315 3.41300 -0.35235 
3.16165 3.41300 -0.35235 
-1.44970 1.59900 -0.17176 
-1.45741 1.66900 -0.17927 
-1.45544 1.69100 -0.18164 
-1.44105 1.69900 -0.18250 
-1.37485 1.76900 -0.19002 
-1.37315 1.78600 -0.19184 
-1.36424 1.85500 -0.19925 
-1.36256 1.87400 -0.20129 
-1.32849 2.01200 -0.21612 
-1.31689 2.03300 -0.21837 
-1.30109 2.14700 -0.23062 
-1.29934 2.15900 -0.23191 
-1.28903 2.17200 -0.23330 
-1.28720 2.24800 -0.24147 
-1.26819 2.38900 -0.25661 
-1.25608 2.40400 -0.25822 
-1.22896 2.45000 -0.26316 
-1.20356 2.48200 -0.26660 
-1.19299 2.61800 -0.28121 
-1.16973 2.77000 -0.29754 
-1.12380 2.98600 -0.32074 
-1.06152 3.05800 -0.32847 
-1.04412 3.08200 -0.33105 
-0.92621 3.03300 -0.32579 
-0.89375 3.00900 -0.32321 
-0.84349 3.00900 -0.32321 
-0.69273 3.00900 -0.32321 
-0.62028 2.96300 -0.31827 
-0.54182 2.94000 -0.31580 
-0.44029 2.91800 -0.31343 
-0.37937 2.91800 -0.31343 
-0.34541 2.94000 -0.31580 
-0.33574 2.96300 -0.31827 
-0.21531 3.00900 -0.32321 
-0.20275 3.00900 -0.32321 
-0.17762 3.00900 -0.32321 
-0.04006 3.05800 -0.32847 
0.25610 2.94000 -0.31580 
1.36443 6.06700 -0.65168 
2.29108 9.32200 -1.00131 
2.51396 10.05800 -1.08037 
1.86671 5.97200 -0.64148 
1.90235 5.70500 -0.61280 
4.37083 10.92000 -1.17296 
5.52486 12.74000 -1.36845 
5.63125 12.74000 -1.36845 
5.57863 11.94400 -1.28295 
5.45791 11.58200 -1.24407 
5.26914 10.61700 -1.14041 
5.16984 10.33000 -1.10958 
5.20169 10.05800 -1.08037 
5.24369 10.05800 -1.08037 
5.36967 10.05800 -1.08037 
5.41167 10.05800 -1.08037 
5.35469 9.80000 -1.05265 
4.42474 7.80000 -0.83783 
3.65169 6.16500 -0.66221 
3.18883 4.90000 -0.52633 
3.16928 4.77800 -0.51322 
3.22913 4.77800 -0.51322 
3.35048 4.83800 -0.51967 
3.45480 4.90000 -0.52633 
3.49571 4.90000 -0.52633 
3.51617 4.90000 -0.52633 
3.55709 4.90000 -0.52633 
3.59801 4.90000 -0.52633 
3.08942 3.98100 -0.42761 
2.92575 3.50600 -0.37659 
2.82179 3.26700 -0.35092 
2.84907 3.26700 -0.35092 
2.87635 3.26700 -0.35092 
-1.47764 1.58600 -0.17698 
-1.45756 1.59300 -0.17776 
-1.45381 1.62600 -0.18144 
-1.45325 1.63300 -0.18223 
-1.45645 1.68400 -0.18792 
-1.43274 1.70600 -0.19037 
-1.39652 1.71400 -0.19126 
-1.39584 1.72200 -0.19216 
-1.39430 1.72900 -0.19294 
-1.38437 1.75300 -0.19562 
-1.36708 1.83800 -0.20510 
-1.35696 1.98000 -0.22095 
-1.31070 2.07700 -0.23177 
-1.31645 2.10000 -0.23434 
-1.31515 2.11200 -0.23568 
-1.28909 2.23500 -0.24940 
-1.28005 2.37400 -0.26491 
-1.20356 2.48200 -0.27696 
-1.19301 2.54800 -0.28433 
-1.19565 2.60000 -0.29013 
-1.18457 2.67300 -0.29828 
-1.18175 2.69200 -0.30040 
-1.15365 2.87400 -0.32071 
-1.14694 2.91800 -0.32562 
-1.10350 3.03300 -0.33845 
-1.07817 3.03300 -0.33845 
-1.07429 3.05800 -0.34124 
-1.05699 3.08200 -0.34392 
-1.00069 3.10700 -0.34671 
-0.86862 3.00900 -0.33577 
-0.86289 3.03300 -0.33845 
-0.85022 3.03300 -0.33845 
-0.77471 2.98600 -0.33321 
-0.69826 3.03300 -0.33845 
-0.55409 2.94000 -0.32807 
-0.32337 2.96300 -0.33064 
-0.21531 3.00900 -0.33577 
-0.19018 3.00900 -0.33577 
-0.16506 3.00900 -0.33577 
-0.03974 3.03300 -0.33845 
0.10798 2.91800 -0.32562 
0.15913 2.96300 -0.33064 
0.19776 2.98600 -0.33321 
0.22098 2.96300 -0.33064 
0.28635 2.87400 -0.32071 
0.43694 2.91800 -0.32562 
0.44912 2.91800 -0.32562 
0.46842 2.96300 -0.33064 
0.53451 3.05800 -0.34124 
0.66543 3.47500 -0.38777 
1.01470 4.77800 -0.53317 
1.45917 6.37000 -0.71082 
2.69801 10.61700 -1.18474 
3.18513 11.24100 -1.25437 
2.19378 7.21100 -0.80467 
1.93103 5.79100 -0.64621 
3.38563 9.55500 -1.06623 
3.59519 9.80000 -1.09357 
3.71795 9.80000 -1.09357 
3.89982 10.05800 -1.12236 
4.68416 11.58200 -1.29242 
5.36528 12.74000 -1.42164 
5.52486 12.74000 -1.42164 
5.63125 12.74000 -1.42164 
5.32833 10.92000 -1.21855 
5.19102 9.80000 -1.09357 
5.23193 9.80000 -1.09357 
3.36830 5.38300 -0.60068 
3.29112 4.90000 -0.54679 
3.47526 4.90000 -0.54679 
3.50451 4.71900 -0.52659 
3.29781 4.34300 -0.48463 
3.15539 4.06600 -0.45372 
3.10604 3.98100 -0.44424 
3.04863 3.74700 -0.41812 
2.96591 3.57200 -0.39860 
2.85051 3.38200 -0.37739 
2.84134 3.21200 -0.35842 
2.86816 3.21200 -0.35842 
3.06532 3.32400 -0.37092 
3.20407 3.35300 -0.37416 
-1.45544 1.69100 -0.19576 
-1.44105 1.69900 -0.19668 
-1.38437 1.75300 -0.20294 
-1.38185 1.77800 -0.20583 
-1.36533 1.84600 -0.21370 
-1.36780 1.96000 -0.22690 
-1.32849 2.01200 -0.23292 
-1.31313 2.12300 -0.24577 
-1.29316 2.27500 -0.26336 
-1.29713 2.31600 -0.26811 
-1.25381 2.41900 -0.28003 
-1.25143 2.43400 -0.28177 
-1.19580 2.46600 -0.28548 
-1.19046 2.49800 -0.28918 
-1.19565 2.60000 -0.30099 
-1.19299 2.61800 -0.30307 
-1.18724 2.65400 -0.30724 
-1.15365 2.87400 -0.33271 
-1.11616 3.03300 -0.35111 
-1.10350 3.03300 -0.35111 
-1.00069 3.10700 -0.35968 
-0.73731 2.98600 -0.34567 
-0.72358 3.03300 -0.35111 
-0.54182 2.94000 -0.34035 
-0.38847 2.89500 -0.33514 
-0.28847 2.98600 -0.34567 
-0.25300 3.00900 -0.34834 
-0.09039 3.03300 -0.35111 
0.07142 2.91800 -0.33780 
0.15913 2.96300 -0.34301 
0.24382 2.94000 -0.34035 
0.28844 2.89500 -0.33514 
0.33435 2.87400 -0.33271 
0.37035 2.87400 -0.33271 
0.39723 2.89500 -0.33514 
1.32238 5.88000 -0.68070 
2.18441 8.88800 -1.02891 
3.18503 11.58200 -1.34078 
2.97013 10.33000 -1.19585 
1.70348 5.30800 -0.61448 
3.51336 9.80000 -1.13449 
3.64785 10.05800 -1.16436 
3.63611 9.80000 -1.13449 
5.03775 12.32900 -1.42726 
5.25889 12.74000 -1.47484 
5.31208 12.74000 -1.47484 
5.50106 12.32900 -1.42726 
5.57863 11.94400 -1.38269 
5.43802 11.24100 -1.30131 
5.20169 10.05800 -1.16436 
4.96771 8.88800 -1.02891 
4.15083 7.21100 -0.83478 
3.95713 6.82500 -0.79009 
3.53198 5.88000 -0.68070 
3.47450 5.70500 -0.66044 
3.35677 5.02900 -0.58218 
3.39876 5.02900 -0.58218 
3.41976 5.02900 -0.58218 
3.46176 5.02900 -0.58218 
3.50451 4.71900 -0.54629 
3.29781 4.34300 -0.50277 
3.20633 4.15400 -0.48089 
3.18934 4.06600 -0.47070 
3.05033 3.71100 -0.42960 
2.82938 3.32400 -0.38480 
2.83817 3.23900 -0.37496 
2.83075 3.18500 -0.36871 
2.88157 3.21200 -0.37184 
2.95989 3.23900 -0.37496 
3.01276 3.26700 -0.37820 
3.02640 3.26700 -0.37820 
-1.49082 1.59300 -0.19106 
-1.45637 1.59900 -0.19178 
-1.45901 1.65500 -0.19850 
-1.41083 1.71400 -0.20558 
-1.39652 1.71400 -0.20558 
-1.38708 1.72900 -0.20738 
-1.38437 1.75300 -0.21025 
-1.38224 1.76900 -0.21217 
-1.36708 1.83800 -0.22045 
-1.37086 1.86400 -0.22357 
-1.37104 1.93000 -0.23148 
-1.37005 1.94000 -0.23268 
-1.36897 1.95000 -0.23388 
-1.35011 1.97000 -0.23628 
-1.32101 2.06600 -0.24780 
-1.31515 2.11200 -0.25331 
-1.30836 2.15900 -0.25895 
-1.29254 2.20900 -0.26495 
-1.28814 2.38900 -0.28654 
-1.26611 2.40400 -0.28834 
-1.22896 2.45000 -0.29385 
-1.19580 2.46600 -0.29577 
-1.19046 2.49800 -0.29961 
-1.17564 2.73000 -0.32744 
-1.15365 2.87400 -0.34471 
-1.14999 2.89500 -0.34723 
-1.13989 2.96300 -0.35538 
-1.08706 3.05800 -0.36678 
-1.00069 3.10700 -0.37265 
-0.90830 3.05800 -0.36678 
-0.76925 2.91800 -0.34998 
-0.75707 2.91800 -0.34998 
-0.65003 2.98600 -0.35814 
-0.63757 2.98600 -0.35814 
-0.56978 2.89500 -0.34723 
-0.45415 2.85200 -0.34207 
-0.40652 2.85200 -0.34207 
-0.31099 2.96300 -0.35538 
-0.20275 3.00900 -0.36090 
-0.10224 3.00900 -0.36090 
-0.06455 3.00900 -0.36090 
-0.02665 2.98600 -0.35814 
0.31035 2.87400 -0.34471 
0.47205 2.98600 -0.35814 
1.10351 5.09600 -0.61121 
1.20513 5.46000 -0.65487 
1.56391 6.70500 -0.80420 
2.13477 8.68600 -1.04180 
2.49039 9.80000 -1.17541 
3.04433 11.24100 -1.34824 
1.99139 5.97200 -0.71628 
2.97387 8.49300 -1.01865 
3.38563 9.55500 -1.14602 
3.59519 9.80000 -1.17541 
3.81583 10.05800 -1.20635 
4.00529 10.33000 -1.23898 
4.68416 11.58200 -1.38914 
5.03775 12.32900 -1.47874 
5.52486 12.74000 -1.52803 
5.50106 12.32900 -1.47874 
5.52876 11.94400 -1.43256 
5.31347 10.61700 -1.27340 
5.24369 10.05800 -1.20635 
4.85481 8.68600 -1.04180 
4.36816 7.64400 -0.91682 
3.47852 5.79100 -0.69457 
3.45068 5.70500 -0.68426 
3.42334 5.62100 -0.67418 
3.36830 5.38300 -0.64564 
3.39077 5.38300 -0.64564 
3.42277 5.09600 -0.61121 
3.43128 4.83800 -0.58027 
3.20669 4.11000 -0.49295 
3.20632 4.06600 -0.48768 
3.03609 3.67500 -0.44078 
2.99414 3.60600 -0.43250 
2.82938 3.32400 -0.39868 
2.79451 3.26700 -0.39184 
2.78769 3.21200 -0.38525 
2.79445 3.15900 -0.37889 
2.80764 3.15900 -0.37889 
2.91054 3.18500 -0.38201 
3.02751 3.23900 -0.38849 
3.08096 3.26700 -0.39184 
3.24590 3.38200 -0.40564 
-1.48417 1.59300 -0.19772 
-1.46348 1.68400 -0.20901 
-1.45544 1.69100 -0.20988 
-1.43986 1.70600 -0.21174 
-1.43274 1.70600 -0.21174 
-1.38061 1.78600 -0.22167 
-1.37869 1.80300 -0.22378 
-1.37649 1.82000 -0.22589 
-1.37198 1.85500 -0.23023 
-1.36780 1.96000 -0.24327 
-1.33956 1.99100 -0.24711 
-1.32958 2.00100 -0.24835 
-1.30112 2.28900 -0.28410 
-1.26611 2.40400 -0.29837 
-1.19046 2.49800 -0.31004 
-1.19565 2.60000 -0.32270 
-1.19573 2.67300 -0.33176 
-1.17878 2.71100 -0.33648 
-1.00907 3.13300 -0.38885 
-0.97475 3.10700 -0.38563 
-0.94117 3.08200 -0.38252 
-0.78165 2.87400 -0.35671 
-0.76376 2.85200 -0.35398 
-0.73450 2.83100 -0.35137 
-0.69903 2.83100 -0.35137 
-0.56479 2.81000 -0.34876 
-0.49172 2.73000 -0.33883 
-0.19018 3.00900 -0.37346 
-0.17762 3.00900 -0.37346 
-0.07652 2.98600 -0.37061 
0.13234 2.91800 -0.36217 
0.21927 2.94000 -0.36490 
0.24382 2.94000 -0.36490 
0.30053 2.89500 -0.35931 
0.34888 2.89500 -0.35931 
1.10351 5.09600 -0.63249 
1.30236 5.79100 -0.71875 
1.88445 7.80000 -0.96810 
2.59795 10.05800 -1.24835 
2.78667 10.61700 -1.31773 
2.91180 10.92000 -1.35534 
3.04858 10.92000 -1.35534 
1.72755 5.38300 -0.66811 
2.69864 7.80000 -0.96810 
3.91902 10.33000 -1.28211 
3.96215 10.33000 -1.28211 
4.32524 10.92000 -1.35534 
4.49932 11.24100 -1.39518 
4.88044 11.94400 -1.48243 
5.37914 11.94400 -1.48243 
5.40955 11.58200 -1.43750 
5.43802 11.24100 -1.39518 
5.22082 9.55500 -1.18592 
5.17136 9.32200 -1.15700 
4.96771 8.88800 -1.10314 
4.02903 6.94900 -0.86248 
3.39653 5.53900 -0.68747 
3.45847 4.96400 -0.61611 
3.41108 4.83800 -0.60047 
3.33965 4.49700 -0.55815 
3.29781 4.34300 -0.53903 
3.26038 4.24700 -0.52712 
3.27691 4.20000 -0.52128 
3.24027 4.06600 -0.50465 
3.18921 3.94000 -0.48901 
2.79086 3.18500 -0.39531 
2.88678 3.15900 -0.39208 
2.98886 3.21200 -0.39866 
3.31882 3.44300 -0.42733 
-1.46197 1.62000 -0.20783 
-1.40367 1.71400 -0.21989 
-1.38962 1.76900 -0.22695 
-1.37930 1.79400 -0.23015 
-1.37566 1.82900 -0.23464 
-1.37498 1.90200 -0.24401 
-1.33125 1.99100 -0.25543 
-1.32849 2.01200 -0.25812 
-1.32401 2.04400 -0.26223 
-1.32256 2.05500 -0.26364 
-1.30387 2.19700 -0.28185 
-1.30176 2.20900 -0.28339 
-1.29842 2.23500 -0.28673 
-1.30466 2.26200 -0.29019 
-1.28005 2.37400 -0.30456 
-1.26391 2.41900 -0.31034 
-1.20610 2.46600 -0.31636 
-1.18704 2.73000 -0.35023 
-1.16003 2.83100 -0.36319 
-1.13989 2.96300 -0.38013 
-0.98772 3.10700 -0.39860 
-0.75880 2.79000 -0.35793 
-0.42782 2.61800 -0.33587 
-0.40875 2.63600 -0.33817 
-0.35246 2.71100 -0.34780 
-0.13779 2.96300 -0.38013 
-0.08762 2.94000 -0.37717 
-0.06307 2.94000 -0.37717 
0.18108 2.91800 -0.37435 
0.25418 2.91800 -0.37435 
0.52174 3.05800 -0.39231 
0.63350 3.38200 -0.43388 
0.67769 3.53900 -0.45402 
1.01470 4.77800 -0.61297 
1.68046 7.07800 -0.90804 
2.31251 9.10000 -1.16744 
2.75447 10.33000 -1.32524 
2.91966 10.61700 -1.36206 
2.88387 10.33000 -1.32524 
2.24858 7.49400 -0.96141 
2.11407 6.94900 -0.89149 
3.96215 10.33000 -1.32524 
4.68416 11.58200 -1.48586 
5.03005 11.94400 -1.53230 
5.22953 11.94400 -1.53230 
5.31283 11.58200 -1.48586 
5.46511 10.92000 -1.40093 
5.29923 10.33000 -1.32524 
5.31377 9.80000 -1.25725 
5.26072 9.55500 -1.22582 
5.08620 9.10000 -1.16744 
4.36816 7.64400 -0.98065 
4.23084 7.35000 -0.94294 
3.32335 5.38300 -0.69059 
3.34582 5.38300 -0.69059 
3.38786 5.30800 -0.68097 
3.36878 4.77800 -0.61297 
3.31884 4.44400 -0.57012 
3.31744 4.39300 -0.56358 
3.29646 4.29400 -0.55088 
3.27571 4.15400 -0.53292 
2.90192 3.44300 -0.44170 
2.89089 3.41300 -0.43786 
2.78769 3.21200 -0.41207 
2.79445 3.15900 -0.40527 
3.09460 3.26700 -0.41913 
3.36418 3.47500 -0.44581 
3.50002 3.53900 -0.45402 
-1.47751 1.59300 -0.21102 
-1.46275 1.60600 -0.21274 
-1.46007 1.63300 -0.21632 
-1.45883 1.64700 -0.21817 
-1.45523 1.69900 -0.22506 
-1.37566 1.82900 -0.24228 
-1.37086 1.86400 -0.24692 
-1.36083 1.95000 -0.25831 
-1.32401 2.04400 -0.27076 
-1.30680 2.31600 -0.30679 
-1.26819 2.38900 -0.31646 
-1.26391 2.41900 -0.32044 
-1.25381 2.41900 -0.32044 
-1.21873 2.45000 -0.32454 
-1.20356 2.48200 -0.32878 
-1.20097 2.56500 -0.33978 
-1.20120 2.63600 -0.34918 
-1.13627 2.98600 -0.39554 
-1.12883 3.03300 -0.40177 
-1.08706 3.05800 -0.40508 
-0.97475 3.10700 -0.41157 
-0.81765 2.87400 -0.38071 
-0.74249 2.73000 -0.36163 
-0.64223 2.69200 -0.35660 
-0.44530 2.53100 -0.33527 
-0.42149 2.51500 -0.33315 
-0.39510 2.54800 -0.33752 
-0.35725 2.58200 -0.34203 
-0.32944 2.61800 -0.34680 
-0.30288 2.67300 -0.35408 
-0.05041 2.91800 -0.38654 
-0.03823 2.91800 -0.38654 
-0.01375 2.89500 -0.38349 
0.10798 2.91800 -0.38654 
0.18108 2.91800 -0.38654 
0.21763 2.91800 -0.38654 
0.31747 2.94000 -0.38945 
0.77159 3.86100 -0.51145 
1.28302 5.70500 -0.75572 
1.64983 6.94900 -0.92051 
1.95708 7.96300 -1.05483 
2.20730 8.68600 -1.15060 
2.61648 9.10000 -1.20544 
1.81013 5.79100 -0.76711 
1.70508 5.38300 -0.71306 
1.96071 5.88000 -0.77890 
2.59277 7.49400 -0.99270 
3.51336 9.80000 -1.29817 
3.91902 10.33000 -1.36837 
4.64012 11.24100 -1.48905 
4.87480 11.24100 -1.48905 
5.06254 11.24100 -1.48905 
5.15641 11.24100 -1.48905 
5.46511 10.92000 -1.44653 
5.38549 10.33000 -1.36837 
5.41167 10.05800 -1.33234 
5.31377 9.80000 -1.29817 
5.35469 9.80000 -1.29817 
5.17136 9.32200 -1.23485 
4.45730 7.80000 -1.03323 
4.02903 6.94900 -0.92051 
3.68535 6.26600 -0.83003 
3.37640 5.62100 -0.74459 
3.32335 5.38300 -0.71306 
3.34582 5.38300 -0.71306 
3.36830 5.38300 -0.71306 
3.40441 5.16500 -0.68419 
3.30575 4.66100 -0.61742 
3.25725 4.06600 -0.53861 
3.23960 4.02300 -0.53291 
3.20566 3.94000 -0.52192 
3.18940 3.90000 -0.51662 
2.80764 3.15900 -0.41846 
2.81070 3.13300 -0.41502 
2.84994 3.13300 -0.41502 
2.91316 3.15900 -0.41846 
3.58134 3.60600 -0.47767 
-1.46060 1.62600 -0.22218 
-1.39430 1.72900 -0.23625 
-1.39263 1.74500 -0.23844 
-1.37086 1.86400 -0.25470 
-1.37039 1.87400 -0.25607 
-1.36083 1.95000 -0.26645 
-1.35962 1.96000 -0.26782 
-1.32401 2.04400 -0.27930 
-1.32397 2.11200 -0.28859 
-1.30387 2.19700 -0.30020 
-1.30015 2.22200 -0.30362 
-1.30597 2.24800 -0.30717 
-1.26391 2.41900 -0.33054 
-1.19856 2.51500 -0.34365 
-1.20392 2.61800 -0.35773 
-1.20120 2.63600 -0.36019 
-1.18983 2.79000 -0.38123 
-1.16864 2.85200 -0.38970 
-1.15226 2.96300 -0.40487 
-1.14874 2.98600 -0.40801 
-1.11260 3.05800 -0.41785 
-1.09983 3.05800 -0.41785 
-0.99264 3.08200 -0.42113 
-0.81724 2.83100 -0.38683 
-0.65911 2.58200 -0.35281 
-0.63335 2.56500 -0.35049 
-0.57286 2.58200 -0.35281 
-0.54404 2.54800 -0.34816 
-0.52985 2.53100 -0.34584 
-0.50208 2.49800 -0.34133 
-0.49165 2.49800 -0.34133 
-0.42082 2.45000 -0.33477 
-0.37990 2.45000 -0.33477 
-0.34341 2.48200 -0.33914 
-0.33520 2.49800 -0.34133 
-0.29935 2.54800 -0.34816 
-0.28375 2.60000 -0.35527 
-0.27478 2.61800 -0.35773 
-0.08696 2.91800 -0.39872 
-0.05002 2.89500 -0.39558 
-0.03793 2.89500 -0.39558 
0.16889 2.91800 -0.39872 
0.21763 2.91800 -0.39872 
0.24200 2.91800 -0.39872 
0.28065 2.94000 -0.40173 
0.38478 2.98600 -0.40801 
0.46682 3.03300 -0.41443 
0.52584 3.08200 -0.42113 
0.77159 3.86100 -0.52757 
1.08900 5.02900 -0.68717 
1.87867 7.64400 -1.04449 
1.99032 7.96300 -1.08807 
2.58772 9.55500 -1.30561 
2.26167 7.64400 -1.04449 
1.70348 5.30800 -0.72529 
2.04840 6.06700 -0.82900 
2.84746 8.13200 -1.11117 
3.96215 10.33000 -1.41150 
4.46202 10.92000 -1.49212 
4.91797 10.92000 -1.49212 
5.55630 10.92000 -1.49212 
5.36967 10.05800 -1.37434 
4.23084 7.35000 -1.00431 
3.32529 5.46000 -0.74606 
3.29921 5.30800 -0.72529 
3.39629 4.96400 -0.67829 
3.37068 4.83800 -0.66107 
3.24680 4.60500 -0.62923 
3.18895 4.44400 -0.60723 
3.22528 4.34300 -0.59343 
3.27571 4.15400 -0.56761 
3.25817 4.11000 -0.56160 
3.20578 3.98100 -0.54397 
2.82465 3.23900 -0.44258 
2.81452 3.21200 -0.43889 
2.83686 3.13300 -0.42810 
2.89997 3.15900 -0.43165 
2.95044 3.18500 -0.43520 
2.98886 3.21200 -0.43889 
3.06732 3.26700 -0.44641 
3.14860 3.32400 -0.45420 
3.19007 3.35300 -0.45816 
-1.47640 1.59900 -0.22517 
-1.46060 1.62600 -0.22897 
-1.44132 1.69100 -0.23812 
-1.41976 1.69900 -0.23925 
-1.39430 1.72900 -0.24347 
-1.39263 1.74500 -0.24573 
-1.39069 1.76100 -0.24798 
-1.38622 1.80300 -0.25389 
-1.37566 1.82900 -0.25755 
-1.36708 1.83800 -0.25882 
-1.37039 1.87400 -0.26389 
-1.36911 1.88300 -0.26516 
-1.37351 1.91100 -0.26910 
-1.35144 1.96000 -0.27600 
-1.32849 2.01200 -0.28332 
-1.32804 2.07700 -0.29248 
-1.32699 2.08900 -0.29417 
-1.30717 2.17200 -0.30585 
-1.28181 2.35900 -0.33219 
-1.24126 2.43400 -0.34275 
-1.23110 2.43400 -0.34275 
-1.22094 2.43400 -0.34275 
-1.20940 2.65400 -0.37373 
-1.20690 2.67300 -0.37640 
-1.20141 2.71100 -0.38175 
-1.19286 2.77000 -0.39006 
-1.18054 2.85200 -0.40161 
-1.14874 2.98600 -0.42048 
-1.05259 3.10700 -0.43752 
-1.01838 3.08200 -0.43400 
-1.00551 3.08200 -0.43400 
-0.97215 3.05800 -0.43062 
-0.64395 2.48200 -0.34951 
-0.63358 2.48200 -0.34951 
-0.40519 2.35900 -0.33219 
-0.30830 2.45000 -0.34500 
-0.25508 2.53100 -0.35641 
-0.22294 2.79000 -0.39288 
-0.21440 2.83100 -0.39865 
-0.18582 2.94000 -0.41400 
-0.00166 2.89500 -0.40766 
0.10798 2.91800 -0.41090 
0.12016 2.91800 -0.41090 
0.14453 2.91800 -0.41090 
0.20544 2.91800 -0.41090 
0.31996 2.96300 -0.41724 
0.38478 2.98600 -0.42048 
0.52584 3.08200 -0.43400 
1.71002 7.07800 -0.99670 
1.84181 7.49400 -1.05528 
2.60246 9.32200 -1.31269 
1.87107 6.06700 -0.85433 
1.68038 5.23600 -0.73732 
2.17729 6.37000 -0.89700 
2.73121 7.80000 -1.09837 
3.46542 9.55500 -1.34550 
3.59519 9.80000 -1.38000 
3.73184 10.05800 -1.41633 
4.33821 10.61700 -1.49505 
4.51553 10.61700 -1.49505 
4.69000 10.92000 -1.53772 
4.73559 10.92000 -1.53772 
4.78119 10.92000 -1.53772 
3.78299 6.47800 -0.91221 
3.30087 5.38300 -0.75802 
3.29818 5.23600 -0.73732 
3.27502 5.16500 -0.72732 
3.25255 5.09600 -0.71760 
3.18883 4.90000 -0.69000 
3.20908 4.83800 -0.68127 
3.31158 4.90000 -0.69000 
3.30893 4.77800 -0.67282 
3.15184 4.44400 -0.62579 
3.11852 4.24700 -0.59805 
3.27812 4.24700 -0.59805 
3.29585 4.24700 -0.59805 
3.20600 4.02300 -0.56651 
3.12561 3.82200 -0.53820 
3.09557 3.74700 -0.52764 
3.02237 3.64000 -0.51257 
2.96806 3.53900 -0.49835 
2.83221 3.29500 -0.46399 
2.83543 3.26700 -0.46005 
2.82083 3.15900 -0.44484 
2.84994 3.13300 -0.44118 
2.86302 3.13300 -0.44118 
3.33320 3.44300 -0.48483 
-1.47640 1.59900 -0.23184 
-1.45210 1.65500 -0.23996 
-1.39169 1.75300 -0.25417 
-1.37725 1.81100 -0.26258 
-1.32401 2.04400 -0.29636 
-1.32200 2.12300 -0.30782 
-1.31901 2.14700 -0.31130 
-1.31624 2.17200 -0.31492 
-1.30527 2.18400 -0.31666 
-1.30466 2.26200 -0.32797 
-1.30358 2.34500 -0.34001 
-1.30151 2.35900 -0.34204 
-1.29166 2.35900 -0.34204 
-1.27014 2.37400 -0.34421 
-1.25608 2.40400 -0.34856 
-1.20619 2.53100 -0.36698 
-1.20940 2.65400 -0.38481 
-1.19844 2.73000 -0.39583 
-1.20148 2.79000 -0.40453 
-1.18367 2.83100 -0.41047 
-1.17765 2.87400 -0.41671 
-1.17131 2.91800 -0.42309 
-1.12883 3.03300 -0.43976 
-1.11616 3.03300 -0.43976 
-1.08706 3.05800 -0.44339 
-1.08272 3.08200 -0.44687 
-1.05699 3.08200 -0.44687 
-0.99768 3.05800 -0.44339 
-0.85270 2.83100 -0.41047 
-0.71427 2.54800 -0.36944 
-0.47133 2.34500 -0.34001 
-0.36145 2.33100 -0.33798 
-0.32252 2.33100 -0.33798 
-0.27891 2.37400 -0.34421 
-0.23978 2.48200 -0.35987 
-0.21129 2.79000 -0.40453 
-0.19507 2.89500 -0.41975 
-0.18443 2.91800 -0.42309 
-0.14788 2.91800 -0.42309 
-0.12254 2.89500 -0.41975 
0.07142 2.91800 -0.42309 
0.08361 2.91800 -0.42309 
0.10879 2.94000 -0.42628 
0.19326 2.91800 -0.42309 
0.21927 2.94000 -0.42628 
0.23155 2.94000 -0.42628 
0.25610 2.94000 -0.42628 
0.26837 2.94000 -0.42628 
0.30759 2.96300 -0.42961 
0.34738 2.98600 -0.43295 
0.41287 3.00900 -0.43628 
0.44149 3.03300 -0.43976 
1.38977 6.06700 -0.87967 
1.80642 7.35000 -1.06569 
2.10047 8.13200 -1.17907 
2.17468 7.35000 -1.06569 
3.00933 8.49300 -1.23142 
3.50531 9.55500 -1.38540 
4.17781 10.33000 -1.49777 
4.60419 10.61700 -1.53938 
5.05476 10.92000 -1.58331 
5.10035 10.92000 -1.58331 
5.53512 10.61700 -1.53938 
5.22082 9.55500 -1.38540 
5.26072 9.55500 -1.38540 
4.61307 8.13200 -1.17907 
4.02903 6.94900 -1.00755 
3.42686 5.70500 -0.82718 
3.29921 5.30800 -0.76962 
3.32137 5.30800 -0.76962 
3.25255 5.09600 -0.73888 
3.23078 5.02900 -0.72916 
3.20929 4.90000 -0.71046 
3.26903 4.77800 -0.69277 
3.30893 4.77800 -0.69277 
3.08401 4.20000 -0.60897 
3.06758 4.15400 -0.60230 
