ply
format ascii 1.0
comment pointcloud saved from Realsense Viewer
element vertex 1878
property float32 x
property float32 y
property float32 z
end_header
-1.25965 2.45000 0.53475 
-1.23919 2.45000 0.53475 
-1.21393 2.48200 0.54173 
-1.19562 2.53100 0.55243 
-1.15813 2.56500 0.55985 
-1.06538 2.89500 0.63187 
-0.87325 2.94000 0.64170 
-0.86098 2.94000 0.64170 
-0.84870 2.94000 0.64170 
-0.81823 2.96300 0.64672 
-0.74891 3.03300 0.66199 
-0.74232 3.05800 0.66745 
-0.69667 3.08200 0.67269 
-0.55409 2.94000 0.64170 
-0.54182 2.94000 0.64170 
0.01110 3.08200 0.67269 
0.08831 3.08200 0.67269 
0.11404 3.08200 0.67269 
0.15265 3.08200 0.67269 
0.26420 3.03300 0.66199 
0.37141 3.08200 0.67269 
0.41680 3.13300 0.68382 
0.49699 2.98600 0.65174 
0.57179 2.98600 0.65174 
1.67589 6.70500 1.46346 
1.76288 6.82500 1.48965 
1.85294 6.94900 1.51672 
2.00555 7.07800 1.54487 
2.12376 7.07800 1.54487 
2.24197 7.07800 1.54487 
2.37520 6.94900 1.51672 
2.44884 7.07800 1.54487 
2.47840 7.07800 1.54487 
2.73573 7.21100 1.57390 
2.79595 7.21100 1.57390 
2.89746 6.94900 1.51672 
2.38016 5.09600 1.11227 
2.48928 5.23600 1.14283 
2.62659 5.38300 1.17492 
2.77815 5.46000 1.19172 
3.02191 5.70500 1.24520 
3.06955 5.70500 1.24520 
3.72891 6.16500 1.34560 
3.74563 6.06700 1.32421 
3.67195 5.79100 1.26397 
3.73564 5.46000 1.19172 
3.68646 4.96400 1.08346 
3.63329 4.83800 1.05596 
3.33408 4.34300 0.94792 
3.22368 4.15400 0.90667 
3.15561 4.02300 0.87808 
3.09170 3.90000 0.85123 
3.03134 3.78400 0.82591 
2.92653 3.32400 0.72551 
2.94455 3.26700 0.71307 
2.81253 3.00900 0.65676 
2.81834 2.87400 0.62729 
2.94678 2.91800 0.63689 
-1.45381 1.62600 0.34811 
-1.44702 1.62600 0.34811 
-1.43828 1.65500 0.35432 
-1.41426 1.68400 0.36053 
-1.39000 1.70600 0.36524 
-1.38287 1.70600 0.36524 
-1.38220 1.71400 0.36695 
-1.37174 1.73700 0.37187 
-1.35958 1.77800 0.38065 
-1.32979 1.88300 0.40313 
-1.31870 1.96000 0.41961 
-1.28903 2.17200 0.46500 
-1.27089 2.17200 0.46500 
-1.28181 2.35900 0.50504 
-1.15503 2.58200 0.55278 
-1.08709 2.60000 0.55663 
-1.06935 2.69200 0.57633 
-0.92236 2.94000 0.62942 
-0.91008 2.94000 0.62942 
-0.87890 2.91800 0.62471 
-0.86672 2.91800 0.62471 
-0.82415 2.94000 0.62942 
-0.78733 2.94000 0.62942 
-0.71678 3.05800 0.65468 
-0.67848 3.05800 0.65468 
-0.53368 2.96300 0.63434 
-0.50042 2.98600 0.63927 
-0.41759 3.21200 0.68765 
-0.40758 3.23900 0.69343 
-0.09337 3.13300 0.67074 
0.26637 3.05800 0.65468 
0.41680 3.13300 0.67074 
1.32654 5.79100 1.23979 
1.59212 6.59000 1.41085 
2.01312 7.21100 1.54379 
2.19378 7.21100 1.54379 
2.21242 7.07800 1.51532 
2.24197 7.07800 1.51532 
2.38974 7.07800 1.51532 
2.44884 7.07800 1.51532 
2.84984 7.35000 1.57355 
2.80280 6.59000 1.41085 
2.32613 5.16500 1.10577 
2.93048 5.62100 1.20339 
3.49724 6.16500 1.31986 
3.58070 6.26600 1.34148 
3.71992 6.37000 1.36375 
3.73768 6.26600 1.34148 
3.79000 6.26600 1.34148 
3.80614 6.16500 1.31986 
3.77096 6.06700 1.29888 
3.73685 5.97200 1.27854 
3.57606 5.46000 1.16893 
3.63165 5.30800 1.13638 
3.65381 5.30800 1.13638 
3.71356 5.23600 1.12097 
3.69938 5.09600 1.09100 
3.69273 5.02900 1.07665 
3.37247 4.39300 0.94049 
3.18934 4.06600 0.87048 
3.12341 3.94000 0.84351 
3.07690 3.86100 0.82660 
3.03299 3.74700 0.80219 
3.00540 3.67500 0.78678 
2.97380 3.44300 0.73711 
2.92407 3.35300 0.71784 
2.94041 3.32400 0.71163 
2.95429 3.32400 0.71163 
2.95820 3.26700 0.69943 
2.89997 3.15900 0.67631 
2.88919 3.13300 0.67074 
2.73723 2.85200 0.61058 
-1.46275 1.60600 0.33712 
-1.43048 1.66200 0.34888 
-1.40602 1.69100 0.35496 
-1.38146 1.72200 0.36147 
-1.37806 1.74500 0.36630 
-1.35275 1.82900 0.38393 
-1.33972 1.86400 0.39128 
-1.32733 1.90200 0.39925 
-1.32269 1.93000 0.40513 
-1.31870 1.96000 0.41143 
-1.29288 2.02200 0.42444 
-1.28650 2.06600 0.43368 
-1.29212 2.14700 0.45068 
-1.27231 2.22200 0.46643 
-1.20850 2.45000 0.51429 
-1.09794 2.60000 0.54577 
-1.07690 2.71100 0.56907 
-1.05708 3.00900 0.63163 
-1.04875 3.05800 0.64191 
-0.96172 2.98600 0.62680 
-0.91008 2.94000 0.61715 
-0.87325 2.94000 0.61715 
-0.83017 2.91800 0.61253 
-0.69273 3.00900 0.63163 
-0.68017 3.00900 0.63163 
-0.62510 2.98600 0.62680 
-0.60016 2.98600 0.62680 
-0.50894 2.96300 0.62197 
-0.48795 2.98600 0.62680 
-0.46142 3.05800 0.64191 
-0.42738 3.18500 0.66857 
-0.35349 3.23900 0.67991 
-0.26780 3.18500 0.66857 
-0.21285 3.15900 0.66312 
-0.13372 3.15900 0.66312 
-0.12053 3.15900 0.66312 
-0.08029 3.13300 0.65766 
0.02397 3.08200 0.64695 
0.03683 3.08200 0.64695 
0.04970 3.08200 0.64695 
0.17983 3.10700 0.65220 
0.21699 3.08200 0.64695 
0.34298 3.05800 0.64191 
0.46913 3.13300 0.65766 
0.49215 3.03300 0.63667 
0.53441 2.91800 0.61253 
1.32654 5.79100 1.21561 
1.76589 6.94900 1.45869 
1.88733 7.07800 1.48577 
2.22388 7.21100 1.51369 
2.41929 7.07800 1.48577 
2.81915 7.35000 1.54286 
2.91638 7.21100 1.51369 
2.92170 7.07800 1.48577 
2.44555 5.23600 1.09911 
2.65646 5.53900 1.16271 
2.71925 5.62100 1.17992 
3.28802 5.97200 1.25360 
3.47651 5.30800 1.11422 
3.49494 5.23600 1.09911 
3.56052 5.23600 1.09911 
3.62007 5.16500 1.08420 
3.64164 5.16500 1.08420 
3.65682 5.09600 1.06972 
3.65074 5.02900 1.05565 
3.61847 4.90000 1.02858 
3.58823 4.77800 1.00297 
3.20632 4.06600 0.85351 
3.03484 3.71100 0.77899 
3.05143 3.67500 0.77143 
2.98693 3.47500 0.72945 
2.97380 3.44300 0.72273 
2.95429 3.32400 0.69775 
2.79103 2.98600 0.62680 
2.75184 2.91800 0.61253 
2.73434 2.87400 0.60329 
2.89034 2.87400 0.60329 
-1.45521 1.62000 0.33330 
-1.40558 1.69900 0.34955 
-1.37599 1.76100 0.36230 
-1.32825 1.89200 0.38926 
-1.32269 1.93000 0.39707 
-1.32826 1.95000 0.40119 
-1.32389 1.98000 0.40736 
-1.31287 2.00100 0.41168 
-1.30451 2.00100 0.41168 
-1.29288 2.02200 0.41600 
-1.28606 2.33100 0.47958 
-1.28005 2.37400 0.48842 
-1.21078 2.43400 0.50077 
-1.16110 2.54800 0.52422 
-1.09113 2.63600 0.54233 
-1.07690 2.71100 0.55776 
-1.08498 2.79000 0.57401 
-1.08165 2.87400 0.59129 
-1.07393 2.98600 0.61433 
-1.06146 2.98600 0.61433 
-1.02752 3.03300 0.62400 
-0.89781 2.94000 0.60487 
-0.80586 2.96300 0.60960 
-0.52131 2.96300 0.60960 
-0.48795 2.98600 0.61433 
-0.47915 3.00900 0.61907 
-0.39077 3.21200 0.66083 
-0.37018 3.26700 0.67215 
-0.30770 3.18500 0.65528 
-0.21285 3.15900 0.64993 
-0.08029 3.13300 0.64458 
-0.06721 3.13300 0.64458 
-0.01476 3.10700 0.63923 
0.17983 3.10700 0.63923 
0.19281 3.10700 0.63923 
0.31745 3.05800 0.62915 
0.52222 2.91800 0.60034 
0.64729 3.23900 0.66639 
1.19374 5.30800 1.09206 
1.64889 6.82500 1.40416 
1.70786 6.94900 1.42967 
1.76912 7.07800 1.45621 
2.07334 7.21100 1.48358 
2.13356 7.21100 1.48358 
2.67551 7.21100 1.48358 
2.81915 7.35000 1.51218 
2.89746 6.94900 1.42967 
2.70923 6.37000 1.31055 
2.64779 6.16500 1.26838 
2.71225 5.70500 1.17374 
2.73607 5.70500 1.17374 
2.85517 5.70500 1.17374 
2.87899 5.70500 1.17374 
3.01911 5.79100 1.19143 
3.18828 5.97200 1.22867 
3.31499 6.06700 1.24821 
3.81004 6.47800 1.33277 
3.79971 6.37000 1.31055 
3.79000 6.26600 1.28916 
3.71192 5.97200 1.22867 
3.62360 5.79100 1.19143 
3.43218 5.30800 1.09206 
3.40149 5.09600 1.04844 
3.54575 5.02900 1.03466 
3.58283 4.96400 1.02128 
3.57755 4.90000 1.00812 
3.56828 4.77800 0.98302 
3.43353 4.49700 0.92520 
3.27691 4.20000 0.86410 
3.12427 3.90000 0.80238 
3.10914 3.86100 0.79435 
3.07874 3.78400 0.77851 
3.08212 3.67500 0.75609 
3.06796 3.64000 0.74889 
2.99894 3.50600 0.72132 
2.92407 3.35300 0.68984 
2.91266 3.32400 0.68387 
2.94041 3.32400 0.68387 
2.94455 3.26700 0.67215 
2.74223 2.89500 0.59561 
2.72532 2.85200 0.58676 
2.75253 2.83100 0.58244 
2.90234 2.87400 0.59129 
-1.47586 1.61300 0.32512 
-1.46239 1.61300 0.32512 
-1.46197 1.62000 0.32653 
-1.42954 1.66900 0.33641 
-1.42257 1.66900 0.33641 
-1.40424 1.70600 0.34387 
-1.36889 1.82000 0.36684 
-1.35941 1.83800 0.37047 
-1.32979 1.88300 0.37954 
-1.32733 1.90200 0.38337 
-1.31287 2.00100 0.40333 
-1.29381 2.13500 0.43034 
-1.29033 2.15900 0.43517 
-1.28400 2.34500 0.47266 
-1.26819 2.38900 0.48153 
-1.16392 2.53100 0.51015 
-1.08955 2.89500 0.58352 
-1.07803 2.96300 0.59723 
-0.92957 2.96300 0.59723 
-0.80580 3.00900 0.60650 
-0.79324 3.00900 0.60650 
-0.48297 3.03300 0.61134 
-0.46142 3.05800 0.61638 
-0.43709 3.15900 0.63674 
-0.32372 3.21200 0.64742 
-0.14449 3.10700 0.62625 
-0.01464 3.08200 0.62122 
0.01110 3.08200 0.62122 
0.12794 3.10700 0.62625 
0.16826 3.13300 0.63150 
0.19281 3.10700 0.62625 
0.21699 3.08200 0.62122 
0.41680 3.13300 0.63150 
0.43345 3.15900 0.63674 
0.50553 2.96300 0.59723 
0.52222 2.91800 0.58816 
0.64189 3.21200 0.64742 
0.85436 4.02300 0.81089 
1.05460 4.77800 0.96307 
1.19374 5.30800 1.06990 
1.83247 7.21100 1.45347 
2.11331 7.35000 1.48149 
2.48157 7.35000 1.48149 
2.69640 7.35000 1.48149 
2.84576 6.82500 1.37567 
2.77529 6.59000 1.32830 
2.64779 6.16500 1.24263 
2.88905 5.97200 1.20373 
3.13841 5.97200 1.20373 
3.50715 6.37000 1.28395 
3.71082 6.59000 1.32830 
3.76585 6.59000 1.32830 
3.79337 6.59000 1.32830 
3.87591 6.59000 1.32830 
3.86414 6.47800 1.30572 
3.31638 5.09600 1.02716 
3.31477 5.02900 1.01366 
3.35484 4.96400 1.00056 
3.47526 4.90000 0.98766 
3.53229 4.83800 0.97516 
3.10914 3.86100 0.77823 
2.99894 3.50600 0.70668 
2.93524 3.38200 0.68168 
2.93091 3.26700 0.65851 
2.90839 3.21200 0.64742 
2.86302 3.13300 0.63150 
2.82002 3.05800 0.61638 
2.74385 2.81000 0.56639 
-1.45381 1.62600 0.32095 
-1.43048 1.66200 0.32806 
-1.42129 1.68400 0.33240 
-1.41308 1.69100 0.33378 
-1.39430 1.72900 0.34128 
-1.38534 1.74500 0.34444 
-1.38437 1.75300 0.34602 
-1.38224 1.76900 0.34918 
-1.35649 1.85500 0.36615 
-1.34405 1.89200 0.37346 
-1.33361 1.91100 0.37721 
-1.33075 1.93000 0.38096 
-1.29682 2.05500 0.40563 
-1.29891 2.10000 0.41451 
-1.29381 2.13500 0.42142 
-1.27968 2.30200 0.45439 
-1.20834 2.38900 0.47156 
-1.20589 2.40400 0.47452 
-1.20331 2.41900 0.47748 
-1.19321 2.41900 0.47748 
-1.18805 2.45000 0.48360 
-1.18551 2.46600 0.48676 
-1.17521 2.46600 0.48676 
-1.17247 2.48200 0.48992 
-1.15917 2.49800 0.49307 
-1.10554 2.61800 0.51676 
-1.09365 2.87400 0.56729 
-1.06964 3.00900 0.59394 
-1.05708 3.00900 0.59394 
-1.04018 3.03300 0.59868 
-0.91720 2.96300 0.58486 
-0.85534 2.96300 0.58486 
-0.74299 3.00900 0.59394 
-0.68214 2.96300 0.58486 
-0.66250 2.98600 0.58940 
-0.64248 3.00900 0.59394 
-0.62991 3.00900 0.59394 
-0.62227 3.03300 0.59868 
-0.57633 3.05800 0.60361 
-0.45584 3.10700 0.61328 
-0.38053 3.23900 0.63934 
-0.23727 3.13300 0.61841 
-0.10557 3.10700 0.61328 
-0.06665 3.10700 0.61328 
-0.05368 3.10700 0.61328 
0.03683 3.08200 0.60835 
0.04970 3.08200 0.60835 
0.15518 3.13300 0.61841 
0.26637 3.05800 0.60361 
0.30468 3.05800 0.60361 
0.33281 3.08200 0.60835 
0.39064 3.13300 0.61841 
0.47302 3.15900 0.62355 
0.50553 2.96300 0.58486 
0.55071 2.94000 0.58032 
1.19374 5.30800 1.04773 
1.80642 7.35000 1.45080 
1.83711 7.35000 1.45080 
2.16592 7.64400 1.50883 
2.26167 7.64400 1.50883 
2.32551 7.64400 1.50883 
2.59277 7.49400 1.47922 
2.88053 7.35000 1.45080 
2.77529 6.59000 1.30078 
2.75517 6.47800 1.27868 
2.57843 5.62100 1.10951 
3.03128 6.26600 1.23683 
3.51251 6.47800 1.27868 
3.60076 6.59000 1.30078 
3.69159 6.70500 1.32348 
3.87164 6.82500 1.34717 
3.87591 6.59000 1.30078 
3.41325 5.38300 1.06254 
3.25120 4.96400 0.97983 
3.25020 4.90000 0.96720 
3.27066 4.90000 0.96720 
3.31158 4.90000 0.96720 
3.33028 4.83800 0.95496 
3.44540 4.71900 0.93147 
3.10798 3.90000 0.76981 
3.09302 3.86100 0.76211 
3.04863 3.74700 0.73961 
3.05143 3.67500 0.72540 
3.01065 3.57200 0.70507 
2.99761 3.53900 0.69855 
2.93807 3.35300 0.66184 
2.92852 3.29500 0.65039 
2.88395 3.18500 0.62868 
2.74803 2.94000 0.58032 
2.73965 2.91800 0.57598 
2.72234 2.87400 0.56729 
2.73434 2.87400 0.56729 
2.74071 2.83100 0.55880 
2.75253 2.83100 0.55880 
2.84710 2.83100 0.55880 
-1.46946 1.60600 0.31030 
-1.46275 1.60600 0.31030 
-1.43820 1.64700 0.31822 
-1.43137 1.65500 0.31977 
-1.43048 1.66200 0.32112 
-1.42954 1.66900 0.32247 
-1.42129 1.68400 0.32537 
-1.40424 1.70600 0.32962 
-1.40303 1.72200 0.33271 
-1.38534 1.74500 0.33715 
-1.36969 1.81100 0.34991 
-1.35762 1.84600 0.35667 
-1.32955 1.94000 0.37483 
-1.32543 1.97000 0.38063 
-1.32389 1.98000 0.38256 
-1.29751 2.11200 0.40806 
-1.28201 2.28900 0.44226 
-1.27968 2.30200 0.44477 
-1.24040 2.37400 0.45868 
-1.23826 2.38900 0.46158 
-1.19321 2.41900 0.46738 
-1.19045 2.43400 0.47028 
-1.17782 2.45000 0.47337 
-1.15656 2.51500 0.48593 
-1.14278 2.53100 0.48902 
-1.09183 2.69200 0.52013 
-1.08955 2.89500 0.55935 
-1.08194 2.94000 0.56804 
-1.04018 3.03300 0.58601 
-1.01485 3.03300 0.58601 
-0.87325 2.94000 0.56804 
-0.85534 2.96300 0.57249 
-0.81837 3.00900 0.58137 
-0.79324 3.00900 0.58137 
-0.67497 2.98600 0.57693 
-0.66250 2.98600 0.57693 
-0.55512 3.08200 0.59548 
-0.41759 3.21200 0.62060 
-0.33429 3.18500 0.61538 
-0.31838 3.15900 0.61036 
0.06257 3.08200 0.59548 
0.07605 3.10700 0.60031 
0.19442 3.13300 0.60533 
0.26637 3.05800 0.59084 
0.50082 3.00900 0.58137 
0.55071 2.94000 0.56804 
0.69631 3.41300 0.65943 
2.00634 7.64400 1.47691 
2.35742 7.64400 1.47691 
2.38934 7.64400 1.47691 
2.42125 7.64400 1.47691 
2.65529 7.96300 1.53855 
2.63351 7.80000 1.50705 
2.74042 7.64400 1.47691 
2.80425 7.64400 1.47691 
2.81180 7.49400 1.44793 
2.90567 7.49400 1.44793 
2.91122 7.35000 1.42011 
2.94191 7.35000 1.42011 
2.91638 7.21100 1.39325 
2.78222 6.47800 1.25163 
2.64814 5.88000 1.13609 
2.71451 5.97200 1.15386 
2.92663 6.26600 1.21067 
3.24305 6.59000 1.27327 
3.21458 6.37000 1.23076 
3.49069 6.59000 1.27327 
3.57960 6.70500 1.29549 
3.70066 6.82500 1.31867 
3.88756 6.70500 1.29549 
3.75465 6.16500 1.19115 
3.68698 5.97200 1.15386 
3.31815 5.16500 0.99794 
3.29510 5.09600 0.98461 
3.33028 4.83800 0.93476 
3.40868 4.77800 0.92317 
3.37720 4.49700 0.86887 
3.35595 4.44400 0.85863 
3.33578 4.39300 0.84878 
3.18953 4.11000 0.79410 
3.15561 4.02300 0.77729 
3.06294 3.78400 0.73111 
3.04863 3.74700 0.72397 
3.03484 3.71100 0.71701 
3.02237 3.64000 0.70329 
3.02425 3.60600 0.69672 
2.94789 3.41300 0.65943 
2.92407 3.35300 0.64784 
2.79449 3.05800 0.59084 
2.78431 3.03300 0.58601 
2.77484 3.00900 0.58137 
2.74479 2.96300 0.57249 
2.77905 2.81000 0.54293 
2.81164 2.83100 0.54698 
2.82346 2.83100 0.54698 
2.84710 2.83100 0.54698 
-1.47640 1.59900 0.30227 
-1.43894 1.64000 0.31002 
-1.42154 1.67600 0.31683 
-1.39263 1.74500 0.32987 
-1.39169 1.75300 0.33138 
-1.37869 1.80300 0.34083 
-1.33640 1.95000 0.36862 
-1.32122 2.00100 0.37826 
-1.30132 2.02200 0.38223 
-1.29033 2.15900 0.40813 
-1.27633 2.26200 0.42760 
-1.27196 2.35900 0.44594 
-1.26023 2.37400 0.44877 
-1.25031 2.37400 0.44877 
-1.19321 2.41900 0.45728 
-1.16759 2.45000 0.46314 
-1.16211 2.48200 0.46919 
-1.15917 2.49800 0.47221 
-1.13671 2.56500 0.48488 
-1.11966 2.60000 0.49149 
-1.10214 2.63600 0.49830 
-1.09585 2.73000 0.51607 
-1.09421 2.94000 0.55577 
-1.07803 2.96300 0.56012 
-0.73731 2.98600 0.56446 
-0.71237 2.98600 0.56446 
-0.69451 2.96300 0.56012 
-0.68744 2.98600 0.56446 
-0.62740 3.05800 0.57807 
-0.46881 3.10700 0.58734 
-0.39406 3.23900 0.61229 
0.04970 3.08200 0.58261 
0.11593 3.13300 0.59225 
0.18284 3.15900 0.59717 
0.19603 3.15900 0.59717 
0.29191 3.05800 0.57807 
0.31994 3.08200 0.58261 
0.39064 3.13300 0.59225 
1.53709 6.59000 1.24575 
1.87310 7.49400 1.41664 
2.21013 7.80000 1.47449 
2.27526 7.80000 1.47449 
2.65529 7.96300 1.50530 
2.68854 7.96300 1.50530 
2.94191 7.35000 1.38942 
2.80926 6.47800 1.22458 
2.99860 6.47800 1.22458 
3.39455 7.07800 1.33800 
3.40815 6.59000 1.24575 
3.73888 6.94900 1.31362 
3.89695 7.07800 1.33800 
3.87591 6.59000 1.24575 
3.34688 4.71900 0.89206 
3.06078 3.86100 0.72987 
2.74914 2.85200 0.53913 
2.76104 2.85200 0.53913 
2.79078 2.81000 0.53119 
-1.47616 1.60600 0.29689 
-1.45604 1.60600 0.29689 
-1.45521 1.62000 0.29947 
-1.44702 1.62600 0.30058 
-1.43820 1.64700 0.30447 
-1.41137 1.70600 0.31537 
-1.38927 1.77800 0.32868 
-1.37725 1.81100 0.33478 
-1.36533 1.84600 0.34125 
-1.35529 1.86400 0.34458 
-1.33366 1.97000 0.36418 
-1.32122 2.00100 0.36991 
-1.30328 2.01200 0.37194 
-1.29751 2.11200 0.39043 
-1.29541 2.12300 0.39246 
-1.29381 2.13500 0.39468 
-1.29212 2.14700 0.39690 
-1.27089 2.17200 0.40152 
-1.26879 2.18400 0.40374 
-1.26211 2.35900 0.43609 
-1.20834 2.38900 0.44163 
-1.19045 2.43400 0.44995 
-1.18029 2.43400 0.44995 
-1.13982 2.54800 0.47103 
-1.10554 2.61800 0.48397 
-1.09585 2.73000 0.50467 
-1.09421 2.94000 0.54349 
-1.09040 2.96300 0.54774 
-1.05708 3.00900 0.55625 
-1.05284 3.03300 0.56068 
-1.02752 3.03300 0.56068 
-0.93679 2.98600 0.55200 
-0.89781 2.94000 0.54349 
-0.66250 2.98600 0.55200 
-0.65003 2.98600 0.55200 
-0.64248 3.00900 0.55625 
-0.63494 3.03300 0.56068 
-0.62740 3.05800 0.56531 
-0.61946 3.08200 0.56974 
-0.46881 3.10700 0.57436 
-0.30267 3.13300 0.57917 
-0.28959 3.13300 0.57917 
-0.01453 3.05800 0.56531 
0.15646 3.15900 0.58398 
0.22058 3.13300 0.57917 
0.25560 3.08200 0.56974 
0.29420 3.08200 0.56974 
0.42372 3.18500 0.58878 
0.48221 3.13300 0.57917 
0.48723 3.08200 0.56974 
0.52222 2.91800 0.53942 
0.53441 2.91800 0.53942 
0.55071 2.94000 0.54349 
0.76511 3.67500 0.67936 
1.17755 5.23600 0.96793 
2.18981 7.96300 1.47205 
2.22306 7.96300 1.47205 
2.25631 7.96300 1.47205 
2.28956 7.96300 1.47205 
2.27987 7.49400 1.38535 
2.50324 7.80000 1.44192 
2.79635 7.80000 1.44192 
2.82891 7.80000 1.44192 
2.83617 7.64400 1.41308 
2.93192 7.64400 1.41308 
2.99954 7.49400 1.38535 
2.93125 6.82500 1.26168 
3.57187 7.07800 1.30845 
3.56480 6.94900 1.28460 
3.59381 6.94900 1.28460 
3.71963 7.07800 1.30845 
4.13877 7.35000 1.35873 
3.91555 6.70500 1.23950 
3.83709 6.47800 1.19753 
3.79971 6.37000 1.17757 
3.76384 6.26600 1.15834 
3.34190 5.23600 0.96793 
3.23048 4.96400 0.91765 
3.22928 4.83800 0.89436 
3.28988 4.83800 0.89436 
3.30893 4.77800 0.88327 
3.32888 4.77800 0.88327 
3.36217 4.60500 0.85129 
3.02854 3.86100 0.71375 
2.99974 3.78400 0.69951 
2.96806 3.53900 0.65422 
2.95943 3.44300 0.63648 
2.75898 3.03300 0.56068 
2.73242 2.96300 0.54774 
2.77618 2.83100 0.52334 
2.83528 2.83100 0.52334 
-1.50298 1.60600 0.29018 
-1.43894 1.64000 0.29632 
-1.42854 1.67600 0.30283 
-1.41137 1.70600 0.30825 
-1.41022 1.72200 0.31114 
-1.40075 1.73700 0.31385 
-1.39992 1.74500 0.31530 
-1.37869 1.80300 0.32578 
-1.36708 1.83800 0.33210 
-1.33765 1.94000 0.35053 
-1.33640 1.95000 0.35234 
-1.33507 1.96000 0.35414 
-1.33366 1.97000 0.35595 
-1.30328 2.01200 0.36354 
-1.28824 2.05500 0.37131 
-1.29335 2.07700 0.37528 
-1.29033 2.15900 0.39010 
-1.28131 2.15900 0.39010 
-1.27089 2.17200 0.39245 
-1.27231 2.22200 0.40148 
-1.27043 2.23500 0.40383 
-1.19321 2.41900 0.43708 
-1.10645 2.67300 0.48297 
-1.09585 2.73000 0.49327 
-1.10909 2.85200 0.51532 
-1.09421 2.94000 0.53122 
-1.05284 3.03300 0.54802 
-1.00219 3.03300 0.54802 
-0.98169 3.00900 0.54368 
-0.85989 2.89500 0.52309 
-0.78733 2.94000 0.53122 
-0.66977 2.96300 0.53537 
-0.63757 2.98600 0.53953 
-0.50303 3.15900 0.57079 
-0.37736 3.21200 0.58036 
-0.35054 3.21200 0.58036 
-0.31838 3.15900 0.57079 
-0.30267 3.13300 0.56609 
-0.27422 3.10700 0.56139 
-0.19480 3.08200 0.55687 
-0.18193 3.08200 0.55687 
-0.07837 3.05800 0.55254 
-0.03974 3.03300 0.54802 
-0.02707 3.03300 0.54802 
0.02378 3.05800 0.55254 
0.06257 3.08200 0.55687 
0.15646 3.15900 0.57079 
0.19603 3.15900 0.57079 
0.30468 3.05800 0.55254 
0.40707 3.15900 0.57079 
0.57620 3.00900 0.54368 
0.70243 3.44300 0.62210 
1.48577 6.37000 1.15097 
1.71002 7.07800 1.27890 
2.26167 7.64400 1.38116 
2.53580 7.80000 1.40935 
2.86148 7.80000 1.40935 
2.93192 7.64400 1.38116 
2.96383 7.64400 1.38116 
2.99954 7.49400 1.35406 
3.03681 7.21100 1.30293 
3.01352 6.94900 1.25559 
3.04253 6.94900 1.25559 
3.37155 7.35000 1.32804 
4.06341 7.49400 1.35406 
4.07740 7.35000 1.32804 
3.98563 6.82500 1.23318 
3.94355 6.70500 1.21150 
3.83709 6.47800 1.17048 
3.79971 6.37000 1.15097 
3.24948 4.83800 0.87416 
3.28898 4.77800 0.86332 
3.30209 4.49700 0.81254 
3.20719 4.24700 0.76737 
3.15430 4.15400 0.75057 
3.05618 3.98100 0.71931 
3.01028 3.90000 0.70467 
2.92868 3.67500 0.66402 
2.93118 3.64000 0.65770 
2.92407 3.35300 0.60584 
2.88724 3.29500 0.59536 
2.81070 3.13300 0.56609 
2.71121 2.94000 0.53122 
2.79059 2.89500 0.52309 
2.83528 2.83100 0.51152 
2.82598 2.81000 0.50773 
-1.44643 1.63300 0.28824 
-1.43820 1.64700 0.29071 
-1.43828 1.65500 0.29212 
-1.40303 1.72200 0.30395 
-1.37869 1.80300 0.31825 
-1.37649 1.82000 0.32125 
-1.36533 1.84600 0.32584 
-1.35529 1.86400 0.32902 
-1.34059 1.92100 0.33908 
-1.33366 1.97000 0.34773 
-1.33125 1.99100 0.35143 
-1.32293 1.99100 0.35143 
-1.30328 2.01200 0.35514 
-1.27089 2.17200 0.38338 
-1.26879 2.18400 0.38550 
-1.27417 2.27500 0.40156 
-1.25226 2.35900 0.41639 
-1.23049 2.37400 0.41904 
-1.22058 2.37400 0.41904 
-1.15335 2.53100 0.44675 
-1.10034 2.77000 0.48893 
-1.10909 2.85200 0.50341 
-1.08640 2.98600 0.52706 
-1.07393 2.98600 0.52706 
-1.06551 3.03300 0.53536 
-1.04018 3.03300 0.53536 
-0.87765 2.87400 0.50729 
-0.65229 2.94000 0.51894 
-0.61735 3.00900 0.53112 
-0.60659 3.08200 0.54401 
-0.56898 3.15900 0.55760 
-0.55579 3.15900 0.55760 
-0.40079 3.18500 0.56219 
-0.31838 3.15900 0.55760 
-0.22054 3.08200 0.54401 
-0.15746 3.10700 0.54842 
-0.14449 3.10700 0.54842 
-0.13151 3.10700 0.54842 
-0.03974 3.03300 0.53536 
0.03655 3.05800 0.53977 
0.07544 3.08200 0.54401 
0.25560 3.08200 0.54401 
0.29191 3.05800 0.53977 
0.30468 3.05800 0.53977 
0.34848 3.10700 0.54842 
0.41042 3.18500 0.56219 
0.45414 3.21200 0.56695 
0.84544 3.98100 0.70269 
1.02877 4.66100 0.82272 
2.29359 7.64400 1.34925 
2.31116 7.49400 1.32277 
2.99575 7.64400 1.34925 
3.12342 7.64400 1.34925 
3.18742 7.35000 1.29735 
3.47450 7.64400 1.34925 
3.98492 8.30900 1.46663 
3.90365 7.80000 1.37678 
3.90696 7.49400 1.32277 
3.83709 6.47800 1.14344 
3.54596 5.70500 1.00699 
3.36569 5.30800 0.93692 
3.25120 4.96400 0.87620 
3.24908 4.77800 0.84337 
3.30449 4.60500 0.81283 
3.28332 4.49700 0.79377 
3.30209 4.49700 0.79377 
2.89539 3.71100 0.65503 
2.94038 3.50600 0.61885 
2.94505 3.44300 0.60773 
2.94789 3.41300 0.60243 
2.93524 3.38200 0.59696 
2.89878 3.32400 0.58672 
2.86522 3.23900 0.57172 
2.81070 3.13300 0.55301 
2.74631 3.03300 0.53536 
2.69893 2.94000 0.51894 
2.71121 2.94000 0.51894 
2.85851 2.94000 0.51894 
2.83249 2.85200 0.50341 
-1.44844 1.62000 0.27918 
-1.44508 1.64700 0.28384 
-1.43651 1.66900 0.28763 
-1.42014 1.69100 0.29142 
-1.41976 1.69900 0.29280 
-1.40075 1.73700 0.29935 
-1.39350 1.73700 0.29935 
-1.37930 1.79400 0.30917 
-1.37725 1.81100 0.31210 
-1.37649 1.82000 0.31365 
-1.35338 1.88300 0.32451 
-1.34957 1.91100 0.32933 
-1.33125 1.99100 0.34312 
-1.29288 2.02200 0.34846 
-1.28987 2.04400 0.35225 
-1.26717 2.19700 0.37862 
-1.27633 2.26200 0.38982 
-1.27633 2.33100 0.40171 
-1.21832 2.38900 0.41171 
-1.15917 2.49800 0.43049 
-1.15046 2.54800 0.43911 
-1.14742 2.56500 0.44204 
-1.12741 2.61800 0.45117 
-1.10645 2.67300 0.46065 
-1.10649 2.94000 0.50667 
-0.88965 2.87400 0.49529 
-0.77567 2.85200 0.49150 
-0.69231 2.85200 0.49150 
-0.68040 2.85200 0.49150 
-0.63523 2.91800 0.50287 
-0.60791 2.96300 0.51063 
-0.44498 3.03300 0.52269 
-0.40732 3.13300 0.53993 
-0.37113 3.15900 0.54441 
0.01092 3.03300 0.52269 
0.03625 3.03300 0.52269 
0.04891 3.03300 0.52269 
0.10200 3.10700 0.53545 
0.24470 3.10700 0.53545 
0.25560 3.08200 0.53114 
0.28133 3.08200 0.53114 
0.34848 3.10700 0.53545 
0.53843 2.94000 0.50667 
0.77260 3.71100 0.63954 
0.92984 4.29400 0.74001 
1.16158 5.16500 0.89011 
1.46151 6.26600 1.07985 
1.83711 7.35000 1.26666 
2.33815 8.13200 1.40143 
2.64374 8.13200 1.40143 
2.86748 8.49300 1.46364 
2.97387 8.49300 1.46364 
3.22051 7.96300 1.37231 
3.38676 7.96300 1.37231 
3.55300 7.96300 1.37231 
3.58625 7.96300 1.37231 
4.16573 8.68600 1.49690 
3.96879 7.80000 1.34422 
3.98516 7.64400 1.31733 
4.17666 7.64400 1.31733 
3.57524 5.79100 0.99799 
3.43928 5.46000 0.94095 
3.29378 5.02900 0.86667 
3.29266 4.96400 0.85547 
3.28777 4.71900 0.81325 
3.30748 4.71900 0.81325 
3.30575 4.66100 0.80325 
3.30449 4.60500 0.79360 
2.92074 3.78400 0.65212 
2.80863 3.50600 0.60421 
2.81282 3.47500 0.59886 
2.82733 3.47500 0.59886 
2.95791 3.47500 0.59886 
2.88999 3.26700 0.56302 
2.72005 2.96300 0.51063 
2.71121 2.94000 0.50667 
2.80665 2.96300 0.51063 
2.86822 2.85200 0.49150 
-1.45091 1.59300 0.26788 
-1.44578 1.64000 0.27578 
-1.43828 1.65500 0.27830 
-1.43742 1.66200 0.27948 
-1.43553 1.67600 0.28184 
-1.42832 1.68400 0.28318 
-1.42129 1.68400 0.28318 
-1.36708 1.83800 0.30908 
-1.35529 1.86400 0.31345 
-1.34957 1.91100 0.32135 
-1.33216 1.98000 0.33296 
-1.31287 2.00100 0.33649 
-1.28468 2.07700 0.34927 
-1.28316 2.14700 0.36104 
-1.27230 2.15900 0.36306 
-1.26182 2.17200 0.36524 
-1.26843 2.24800 0.37802 
-1.27417 2.27500 0.38256 
-1.20834 2.38900 0.40173 
-1.17521 2.46600 0.41468 
-1.16491 2.46600 0.41468 
-1.10307 2.69200 0.45269 
-0.86984 2.81000 0.47253 
-0.85200 2.79000 0.46917 
-0.71085 2.83100 0.47606 
-0.67038 2.81000 0.47253 
-0.58769 2.98600 0.50212 
-0.56356 3.05800 0.51423 
-0.53802 3.05800 0.51423 
-0.46659 3.00900 0.50599 
-0.27201 3.08200 0.51827 
-0.25914 3.08200 0.51827 
-0.14570 3.13300 0.52684 
-0.13151 3.10700 0.52247 
0.30468 3.05800 0.51423 
0.49118 3.10700 0.52247 
0.51338 3.00900 0.50599 
0.61302 3.13300 0.52684 
2.09007 7.96300 1.33906 
2.28496 8.30900 1.39724 
2.31966 8.30900 1.39724 
2.38930 7.96300 1.33906 
2.70128 8.30900 1.39724 
2.79656 8.49300 1.42818 
3.11571 8.49300 1.42818 
3.29106 8.30900 1.39724 
3.32576 8.30900 1.39724 
3.71855 8.49300 1.42818 
4.32628 9.10000 1.53026 
4.04899 7.64400 1.28541 
4.33624 7.64400 1.28541 
4.28244 7.49400 1.26019 
3.26968 4.83800 0.81356 
3.24837 4.71900 0.79355 
3.26454 4.49700 0.75621 
3.22573 4.39300 0.73873 
3.20715 4.34300 0.73032 
3.11961 4.15400 0.69854 
2.92074 3.78400 0.63632 
2.82852 3.60600 0.60638 
2.83004 3.44300 0.57897 
2.84442 3.44300 0.57897 
2.95791 3.47500 0.58436 
2.93524 3.38200 0.56872 
2.73715 3.00900 0.50599 
2.72869 2.98600 0.50212 
2.72348 2.94000 0.49439 
2.72747 2.91800 0.49069 
2.84931 2.91800 0.49069 
2.89034 2.87400 0.48329 
-1.45091 1.59300 0.26123 
-1.44844 1.62000 0.26565 
-1.42129 1.68400 0.27615 
-1.41426 1.68400 0.27615 
-1.36708 1.83800 0.30140 
-1.35529 1.86400 0.30567 
-1.34687 1.93000 0.31649 
-1.28338 2.08900 0.34256 
-1.28137 2.10000 0.34437 
-1.26523 2.14700 0.35207 
-1.25462 2.34500 0.38454 
-1.25226 2.35900 0.38684 
-1.21341 2.41900 0.39668 
-1.15917 2.49800 0.40963 
-1.15656 2.51500 0.41242 
-1.15335 2.53100 0.41504 
-1.15046 2.54800 0.41783 
-1.11431 2.69200 0.44145 
-1.10649 2.94000 0.48211 
-1.08640 2.98600 0.48966 
-1.08220 3.00900 0.49343 
-1.04018 3.03300 0.49736 
-0.92033 2.89500 0.47473 
-0.88816 2.83100 0.46424 
-0.69385 2.81000 0.46080 
-0.61629 2.83100 0.46424 
-0.60447 2.83100 0.46424 
-0.58965 2.87400 0.47129 
-0.54197 3.00900 0.49343 
-0.46659 3.00900 0.49343 
-0.40699 3.03300 0.49736 
-0.39432 3.03300 0.49736 
-0.29543 3.05800 0.50146 
-0.18494 3.13300 0.51376 
-0.11854 3.10700 0.50950 
-0.10557 3.10700 0.50950 
0.03596 3.00900 0.49343 
0.20922 3.15900 0.51803 
0.26847 3.08200 0.50540 
0.36448 3.13300 0.51376 
0.38383 3.18500 0.52229 
0.49118 3.10700 0.50950 
0.56363 3.00900 0.49343 
1.05460 4.77800 0.78352 
1.73957 7.07800 1.16068 
2.01472 7.80000 1.27908 
2.54188 8.13200 1.33352 
3.03796 8.88800 1.45749 
3.32848 8.49300 1.39272 
3.87034 9.10000 1.49226 
3.90833 9.10000 1.49226 
4.25029 9.10000 1.49226 
4.39290 9.32200 1.52866 
4.12370 8.30900 1.36255 
3.93825 7.49400 1.22890 
4.08091 7.64400 1.25350 
4.29446 7.80000 1.27908 
4.35960 7.80000 1.27908 
4.39217 7.80000 1.27908 
4.15083 7.21100 1.18249 
3.66205 5.97200 0.97932 
3.48068 5.38300 0.88273 
3.26903 4.77800 0.78352 
3.26603 4.60500 0.75515 
2.92074 3.78400 0.62052 
2.75817 3.44300 0.56460 
2.94038 3.50600 0.57493 
2.96966 3.50600 0.57493 
2.92653 3.32400 0.54508 
2.90363 3.26700 0.53574 
2.78431 3.03300 0.49736 
2.80350 2.98600 0.48966 
2.91799 2.96300 0.48589 
-1.45091 1.59300 0.25458 
-1.44519 1.65500 0.26448 
-1.42954 1.66900 0.26672 
-1.42854 1.67600 0.26784 
-1.39652 1.71400 0.27391 
-1.37181 1.79400 0.28670 
-1.37649 1.82000 0.29085 
-1.36533 1.84600 0.29501 
-1.33765 1.94000 0.31003 
-1.29799 1.99100 0.31818 
-1.25687 2.33100 0.37251 
-1.25226 2.35900 0.37699 
-1.15656 2.51500 0.40192 
-1.14927 2.61800 0.41838 
-1.13834 2.61800 0.41838 
-0.95918 2.94000 0.46984 
-0.93241 2.89500 0.46265 
-0.79959 2.69200 0.43021 
-0.77711 2.69200 0.43021 
-0.61014 2.75000 0.43947 
-0.54994 2.91800 0.46632 
-0.54182 2.94000 0.46984 
-0.46659 3.00900 0.48087 
-0.45402 3.00900 0.48087 
-0.22418 3.13300 0.50068 
-0.10557 3.10700 0.49653 
-0.07837 3.05800 0.48870 
0.07424 3.03300 0.48470 
0.08762 3.05800 0.48870 
0.12794 3.10700 0.49653 
0.18284 3.15900 0.50484 
0.30707 3.08200 0.49253 
0.36750 3.15900 0.50484 
0.42731 3.21200 0.51331 
0.59018 3.08200 0.49253 
0.62320 3.18500 0.50899 
0.79571 3.82200 0.61079 
1.43796 6.16500 0.98522 
1.53801 6.47800 1.03524 
2.01472 7.80000 1.24651 
2.40606 8.13200 1.29957 
2.38930 7.96300 1.27256 
2.54188 8.13200 1.29957 
3.11042 9.10000 1.45426 
3.44617 8.88800 1.42038 
3.94417 9.55500 1.52698 
4.02396 9.55500 1.52698 
4.22343 9.55500 1.52698 
4.30323 9.55500 1.52698 
4.21230 9.10000 1.45426 
4.25029 9.10000 1.45426 
4.01848 7.96300 1.27256 
3.98516 7.64400 1.22158 
4.04899 7.64400 1.22158 
4.11283 7.64400 1.22158 
4.14474 7.64400 1.22158 
4.35960 7.80000 1.24651 
3.66205 5.97200 0.95438 
3.63018 5.88000 0.93968 
3.65473 5.88000 0.93968 
3.40441 5.16500 0.82541 
3.35677 5.02900 0.80368 
3.20844 4.66100 0.74487 
3.22790 4.66100 0.74487 
3.22607 4.44400 0.71019 
3.22573 4.39300 0.70204 
3.17172 4.24700 0.67871 
3.11961 4.15400 0.66385 
3.02470 3.94000 0.62965 
2.84358 3.60600 0.57627 
2.75817 3.44300 0.55022 
2.83004 3.44300 0.55022 
2.87065 3.18500 0.50899 
2.83686 3.13300 0.50068 
2.83279 3.05800 0.48870 
2.91304 3.00900 0.48087 
2.94064 2.98600 0.47719 
-1.44519 1.65500 0.25757 
-1.43828 1.65500 0.25757 
-1.42154 1.67600 0.26084 
-1.39652 1.71400 0.26676 
-1.37315 1.78600 0.27796 
-1.37566 1.82900 0.28465 
-1.37476 1.83800 0.28605 
-1.33881 1.93000 0.30037 
-1.31721 1.97000 0.30660 
-1.30631 1.99100 0.30987 
-1.29799 1.99100 0.30987 
-1.28780 2.00100 0.31142 
-1.28134 2.04400 0.31812 
-1.27966 2.05500 0.31983 
-1.27599 2.13500 0.33228 
-1.19827 2.45000 0.38130 
-1.15222 2.60000 0.40465 
-1.14291 2.65400 0.41305 
-1.10277 2.96300 0.46114 
-0.95201 2.91800 0.45414 
-0.64223 2.69200 0.41897 
-0.60422 2.67300 0.41601 
-0.54537 2.83100 0.44060 
-0.53751 2.85200 0.44387 
-0.51726 2.94000 0.45756 
-0.48795 2.98600 0.46472 
-0.43232 3.03300 0.47204 
-0.41965 3.03300 0.47204 
-0.35500 3.13300 0.48760 
-0.32884 3.13300 0.48760 
-0.28719 3.10700 0.48355 
-0.27422 3.10700 0.48355 
-0.11854 3.10700 0.48355 
0.14092 3.10700 0.48355 
0.28362 3.10700 0.48355 
0.30956 3.10700 0.48355 
0.47691 3.18500 0.49569 
0.49620 3.05800 0.47593 
0.79571 3.82200 0.59483 
0.88218 4.15400 0.64650 
1.32654 5.79100 0.90128 
2.13443 8.13200 1.26561 
2.37211 8.13200 1.26561 
2.47397 8.13200 1.26561 
2.50792 8.13200 1.26561 
2.69018 8.49300 1.32180 
2.82384 8.68600 1.35184 
3.41439 9.10000 1.41627 
4.27778 10.05800 1.56537 
4.31978 10.05800 1.56537 
4.41356 9.80000 1.52521 
4.39290 9.32200 1.45082 
4.36428 9.10000 1.41627 
4.39217 7.80000 1.21394 
3.94355 6.70500 1.04352 
3.79971 6.37000 0.99139 
3.65473 5.88000 0.91513 
3.62360 5.79100 0.90128 
3.56416 5.62100 0.87482 
3.58763 5.62100 0.87482 
3.53047 5.46000 0.84976 
3.38021 5.09600 0.79311 
3.22866 4.71900 0.73444 
3.18903 4.55000 0.70813 
3.20803 4.55000 0.70813 
3.20751 4.44400 0.69164 
3.22607 4.44400 0.69164 
3.20739 4.39300 0.68370 
3.12089 4.11000 0.63965 
2.85863 3.60600 0.56122 
3.01239 3.53900 0.55079 
2.96214 3.41300 0.53118 
2.94936 3.38200 0.52635 
2.95207 3.35300 0.52184 
2.89498 3.21200 0.49990 
2.86521 3.10700 0.48355 
2.86789 3.08200 0.47966 
2.90940 3.05800 0.47593 
2.89828 3.03300 0.47204 
2.95073 3.00900 0.46830 
-1.44702 1.62600 0.24627 
-1.44578 1.64000 0.24839 
-1.43828 1.65500 0.25066 
-1.39652 1.71400 0.25960 
-1.38708 1.72900 0.26187 
-1.37442 1.77800 0.26929 
-1.37181 1.79400 0.27172 
-1.37725 1.81100 0.27429 
-1.37476 1.83800 0.27838 
-1.36533 1.84600 0.27959 
-1.35195 1.89200 0.28656 
-1.33881 1.93000 0.29231 
-1.29909 1.98000 0.29989 
-1.26467 2.27500 0.34457 
-1.25462 2.34500 0.35517 
-1.22351 2.41900 0.36638 
-1.20850 2.45000 0.37107 
-1.12555 2.69200 0.40773 
-1.10649 2.94000 0.44529 
-1.06964 3.00900 0.45574 
-0.94450 2.89500 0.43847 
-0.76095 2.63600 0.39924 
-0.71582 2.67300 0.40485 
-0.68234 2.67300 0.40485 
-0.66002 2.67300 0.40485 
-0.64425 2.65400 0.40197 
-0.61786 2.63600 0.39924 
-0.59178 2.61800 0.39652 
-0.54125 2.75000 0.41651 
-0.48044 2.94000 0.44529 
-0.41356 3.08200 0.46679 
-0.38116 3.13300 0.47452 
-0.36089 3.18500 0.48239 
-0.27881 3.15900 0.47846 
-0.22604 3.15900 0.47846 
-0.13046 3.08200 0.46679 
-0.05240 3.03300 0.45937 
0.04891 3.03300 0.45937 
0.07485 3.05800 0.46316 
0.08762 3.05800 0.46316 
0.14092 3.10700 0.47058 
0.15518 3.13300 0.47452 
0.16826 3.13300 0.47452 
0.18134 3.13300 0.47452 
0.19442 3.13300 0.47452 
0.41390 3.21200 0.48648 
0.52192 2.98600 0.45225 
0.59994 3.13300 0.47452 
0.63377 3.23900 0.49057 
0.88218 4.15400 0.62916 
1.32654 5.79100 0.87710 
1.43796 6.16500 0.93374 
1.53801 6.47800 0.98115 
2.47741 8.49300 1.28634 
3.22522 9.32200 1.41190 
3.46542 9.55500 1.44719 
3.49768 9.32200 1.41190 
3.53660 9.32200 1.41190 
3.57553 9.32200 1.41190 
4.06781 10.05800 1.52337 
4.47120 10.61700 1.60803 
4.05172 7.96300 1.20606 
4.08497 7.96300 1.20606 
4.09906 7.80000 1.18138 
4.04899 7.64400 1.15775 
4.32703 7.80000 1.18138 
4.20015 7.35000 1.11322 
4.02903 6.94900 1.05248 
3.66205 5.97200 0.90451 
3.65473 5.88000 0.89058 
3.58763 5.62100 0.85135 
3.31338 4.96400 0.75184 
3.20896 4.71900 0.71473 
3.20821 4.49700 0.68111 
3.18904 4.39300 0.66536 
3.18901 4.34300 0.65778 
3.18889 4.29400 0.65036 
3.15416 4.20000 0.63613 
3.15430 4.15400 0.62916 
2.92637 3.71100 0.56206 
2.84659 3.57200 0.54101 
2.80863 3.50600 0.53101 
2.86719 3.50600 0.53101 
2.90895 3.53900 0.53601 
3.02557 3.57200 0.54101 
2.98818 3.44300 0.52147 
2.95207 3.35300 0.50784 
2.96607 3.35300 0.50784 
2.93224 3.08200 0.46679 
2.93494 3.05800 0.46316 
2.99051 2.98600 0.45225 
3.00298 2.98600 0.45225 
-1.46453 1.57900 0.23256 
-1.45116 1.58600 0.23359 
-1.43820 1.64700 0.24257 
-1.43742 1.66200 0.24478 
-1.39712 1.70600 0.25126 
-1.39000 1.70600 0.25126 
-1.37986 1.72900 0.25465 
-1.37315 1.78600 0.26305 
-1.37649 1.82000 0.26805 
-1.36708 1.83800 0.27071 
-1.36124 1.88300 0.27733 
-1.34957 1.91100 0.28146 
-1.31870 1.96000 0.28867 
-1.28968 1.99100 0.29324 
-1.26523 2.14700 0.31622 
-1.26688 2.26200 0.33315 
-1.26467 2.27500 0.33507 
-1.25687 2.33100 0.34332 
-1.13993 2.67300 0.39369 
-1.12555 2.69200 0.39649 
-1.04451 3.00900 0.44317 
-0.77761 2.61800 0.38559 
-0.56208 2.58200 0.38028 
-0.54429 2.60000 0.38294 
-0.46302 2.98600 0.43979 
-0.42643 3.08200 0.45393 
-0.32100 3.18500 0.46910 
-0.15619 3.08200 0.45393 
0.01101 3.05800 0.45039 
0.15389 3.10700 0.45761 
0.18134 3.13300 0.46144 
0.40049 3.21200 0.47307 
0.46362 3.18500 0.46910 
0.52594 3.00900 0.44317 
0.60492 3.15900 0.46527 
0.89195 4.20000 0.61859 
0.97380 4.49700 0.66233 
1.06784 4.83800 0.71256 
1.80642 7.35000 1.08253 
2.48130 8.88800 1.30905 
2.49744 8.68600 1.27930 
2.56997 8.68600 1.27930 
2.71504 8.68600 1.27930 
2.75131 8.68600 1.27930 
3.42552 9.55500 1.40729 
3.45876 9.32200 1.37297 
4.02581 10.05800 1.48137 
4.42687 10.61700 1.56370 
4.69539 10.33000 1.52143 
4.61375 10.05800 1.48137 
4.43183 9.32200 1.37297 
4.25047 8.49300 1.25088 
4.21797 7.96300 1.17282 
3.83709 6.47800 0.95410 
3.73768 6.26600 0.92288 
3.72891 6.16500 0.90800 
3.67929 5.88000 0.86602 
3.64777 5.79100 0.85292 
3.31338 4.96400 0.73111 
3.18943 4.49700 0.66233 
3.20751 4.44400 0.65453 
3.18901 4.34300 0.63965 
3.20715 4.34300 0.63965 
3.17172 4.24700 0.62551 
3.18945 4.24700 0.62551 
2.86151 3.57200 0.52609 
2.94455 3.26700 0.48117 
2.92181 3.21200 0.47307 
2.97804 2.98600 0.43979 
3.00298 2.98600 0.43979 
-1.47102 1.58600 0.22697 
-1.46421 1.59300 0.22797 
-1.44970 1.59900 0.22883 
-1.44578 1.64000 0.23470 
-1.43742 1.66200 0.23784 
-1.42954 1.66900 0.23885 
-1.42257 1.66900 0.23885 
-1.41560 1.66900 0.23885 
-1.35115 1.90200 0.27219 
-1.29799 1.99100 0.28493 
-1.28443 2.02200 0.28936 
-1.29335 2.07700 0.29723 
-1.25800 2.19700 0.31441 
-1.26289 2.28900 0.32757 
-1.26045 2.30200 0.32943 
-1.25845 2.31600 0.33144 
-1.23600 2.40400 0.34403 
-1.21873 2.45000 0.35061 
-1.18505 2.53100 0.36221 
-1.17173 2.54800 0.36464 
-1.11275 2.83100 0.40514 
-1.06146 2.98600 0.42732 
-1.01159 2.98600 0.42732 
-0.91180 2.83100 0.40514 
-0.82743 2.67300 0.38253 
-0.77227 2.60000 0.37208 
-0.72296 2.61800 0.37466 
-0.56532 2.54800 0.36464 
-0.50377 2.67300 0.38253 
-0.49172 2.73000 0.39068 
-0.48735 2.77000 0.39641 
-0.47796 2.85200 0.40814 
-0.33996 3.23900 0.46353 
-0.23924 3.15900 0.45208 
-0.22418 3.13300 0.44836 
-0.14221 3.05800 0.43762 
-0.12838 3.03300 0.43405 
-0.08968 3.00900 0.43061 
-0.03974 3.03300 0.43405 
-0.02707 3.03300 0.43405 
-0.01453 3.05800 0.43762 
-0.00176 3.05800 0.43762 
0.03683 3.08200 0.44106 
0.04970 3.08200 0.44106 
0.10200 3.10700 0.44464 
0.20578 3.10700 0.44464 
0.31474 3.15900 0.45208 
0.34112 3.15900 0.45208 
0.40049 3.21200 0.45966 
0.44072 3.21200 0.45966 
0.98527 4.55000 0.65114 
1.08152 4.90000 0.70123 
2.27984 8.68600 1.24303 
2.54048 9.10000 1.30228 
2.62974 8.88800 1.27194 
3.50531 9.55500 1.36739 
4.27453 8.68600 1.24303 
4.13771 8.13200 1.16375 
4.18472 7.96300 1.13957 
4.21797 7.96300 1.13957 
4.37539 8.13200 1.16375 
4.35960 7.80000 1.11624 
4.25115 7.49400 1.07245 
4.02903 6.94900 0.99446 
3.68698 5.97200 0.85464 
3.61110 5.62100 0.80441 
3.22913 4.77800 0.68377 
3.16952 4.66100 0.66702 
3.15103 4.55000 0.65114 
3.15184 4.44400 0.63597 
3.20715 4.34300 0.62152 
3.20682 4.29400 0.61450 
3.01391 3.82200 0.54696 
2.92116 3.57200 0.51118 
3.02557 3.57200 0.51118 
3.01358 3.50600 0.50174 
2.97639 3.41300 0.48843 
2.96979 3.29500 0.47154 
2.97704 3.18500 0.45580 
2.94510 3.08200 0.44106 
2.95311 2.98600 0.42732 
-1.47086 1.59300 0.22132 
-1.44844 1.62000 0.22507 
-1.42257 1.66900 0.23188 
-1.40020 1.68400 0.23396 
-1.39000 1.70600 0.23702 
-1.38936 1.71400 0.23813 
-1.36863 1.76100 0.24466 
-1.37315 1.78600 0.24813 
-1.36969 1.81100 0.25161 
-1.36803 1.82900 0.25411 
-1.36124 1.88300 0.26161 
-1.33640 1.95000 0.27092 
-1.32826 1.95000 0.27092 
-1.29142 2.03300 0.28245 
-1.26328 2.15900 0.29995 
-1.25800 2.19700 0.30523 
-1.26211 2.35900 0.32774 
-1.23361 2.41900 0.33608 
-1.23110 2.43400 0.33816 
-1.18505 2.53100 0.35164 
-1.16308 2.60000 0.36122 
-1.15399 2.65400 0.36873 
-1.13679 2.69200 0.37401 
-1.12684 2.75000 0.38206 
-1.10565 2.87400 0.39929 
-1.05708 3.00900 0.41805 
-0.97146 2.94000 0.40846 
-0.73458 2.58200 0.35872 
-0.67290 2.63600 0.36623 
-0.66189 2.63600 0.36623 
-0.58660 2.54800 0.35400 
-0.57596 2.54800 0.35400 
-0.52277 2.54800 0.35400 
-0.51555 2.56500 0.35636 
-0.44146 3.00900 0.41805 
-0.38053 3.23900 0.45000 
-0.19638 3.10700 0.43166 
-0.11480 3.00900 0.41805 
-0.10224 3.00900 0.41805 
-0.06455 3.00900 0.41805 
-0.02707 3.03300 0.42138 
0.14092 3.10700 0.43166 
0.27064 3.10700 0.43166 
0.37053 3.18500 0.44250 
0.43702 3.18500 0.44250 
0.51338 3.00900 0.41805 
0.58199 3.10700 0.43166 
0.65040 3.32400 0.46181 
0.75711 3.71100 0.51558 
1.08152 4.90000 0.68077 
1.74215 7.21100 1.00184 
2.38850 9.10000 1.26428 
3.66490 9.55500 1.32750 
3.98381 10.05800 1.39738 
4.17781 10.33000 1.43517 
4.50762 10.92000 1.51714 
4.17955 8.49300 1.17995 
4.21501 8.49300 1.17995 
4.34144 8.13200 1.12980 
4.37539 8.13200 1.12980 
4.39217 7.80000 1.08367 
3.83709 6.47800 0.90000 
3.62360 5.79100 0.80456 
3.64777 5.79100 0.80456 
3.50315 5.38300 0.74787 
3.33577 5.02900 0.69869 
3.31338 4.96400 0.68966 
3.24948 4.83800 0.67215 
3.15236 4.39300 0.61033 
3.18901 4.34300 0.60338 
3.12202 4.02300 0.55892 
2.97639 3.41300 0.47418 
2.97760 3.38200 0.46987 
2.98205 3.32400 0.46181 
2.98355 3.29500 0.45778 
3.02640 3.26700 0.45389 
3.01568 3.21200 0.44625 
-1.37264 1.72900 0.23299 
-1.36863 1.76100 0.23731 
-1.36969 1.81100 0.24404 
-1.36889 1.82000 0.24526 
-1.36533 1.84600 0.24876 
-1.36424 1.85500 0.24997 
-1.35115 1.90200 0.25631 
-1.34861 1.92100 0.25887 
-1.29799 1.99100 0.26830 
-1.28869 2.11200 0.28461 
-1.25427 2.15900 0.29094 
-1.25056 2.18400 0.29431 
-1.25376 2.22200 0.29943 
-1.18237 2.54800 0.34336 
-1.15399 2.65400 0.35764 
-1.14482 2.71100 0.36533 
-1.11275 2.83100 0.38150 
-1.10909 2.85200 0.38433 
-1.07803 2.96300 0.39928 
-1.07393 2.98600 0.40238 
-1.04451 3.00900 0.40548 
-0.97906 2.96300 0.39928 
-0.80497 2.63600 0.35522 
-0.70110 2.61800 0.35279 
-0.69016 2.61800 0.35279 
-0.66189 2.63600 0.35522 
-0.49001 2.60000 0.35037 
-0.46263 2.83100 0.38150 
-0.44891 2.89500 0.39012 
-0.42041 3.13300 0.42219 
-0.39406 3.23900 0.43648 
-0.10068 2.96300 0.39928 
-0.06455 3.00900 0.40548 
-0.05198 3.00900 0.40548 
0.06308 3.10700 0.41869 
0.07605 3.10700 0.41869 
0.26847 3.08200 0.41532 
0.31215 3.13300 0.42219 
0.44664 3.15900 0.42570 
0.51748 3.03300 0.40872 
0.75711 3.71100 0.50008 
0.90193 4.24700 0.57231 
1.22792 5.46000 0.73577 
2.66751 9.55500 1.28760 
2.70740 9.55500 1.28760 
3.18615 9.55500 1.28760 
4.46202 10.92000 1.47155 
4.28829 9.10000 1.22629 
4.36655 8.30900 1.11970 
4.43593 8.30900 1.11970 
4.30432 7.64400 1.03008 
4.12072 7.21100 0.97173 
3.87591 6.59000 0.88805 
3.66205 5.97200 0.80477 
3.59942 5.79100 0.78038 
3.48068 5.38300 0.72540 
3.27066 4.90000 0.66031 
3.13203 4.55000 0.61314 
3.13402 4.39300 0.59199 
3.12202 4.02300 0.54213 
2.99005 3.67500 0.49523 
2.94936 3.38200 0.45575 
2.95429 3.32400 0.44793 
3.02482 3.29500 0.44402 
3.03858 3.29500 0.44402 
2.93627 3.03300 0.40872 
2.94894 3.03300 0.40872 
2.93816 3.00900 0.40548 
2.93217 2.94000 0.39619 
-1.44578 1.64000 0.21415 
-1.43048 1.66200 0.21703 
-1.42257 1.66900 0.21794 
-1.39896 1.69100 0.22081 
-1.36256 1.87400 0.24471 
-1.36124 1.88300 0.24588 
-1.31870 1.96000 0.25594 
-1.30631 1.99100 0.25999 
-1.29288 2.02200 0.26404 
-1.28654 2.12300 0.27722 
-1.28490 2.13500 0.27879 
-1.27599 2.13500 0.27879 
-1.25275 2.17200 0.28362 
-1.24966 2.24800 0.29355 
-1.26023 2.37400 0.31000 
-1.21640 2.46600 0.32201 
-1.20610 2.46600 0.32201 
-1.17113 2.61800 0.34186 
-1.14482 2.71100 0.35401 
-1.12684 2.75000 0.35910 
-1.07803 2.96300 0.38691 
-1.07393 2.98600 0.38992 
-0.75116 2.56500 0.33494 
-0.68390 2.63600 0.34421 
-0.66189 2.63600 0.34421 
-0.65088 2.63600 0.34421 
-0.62028 2.60000 0.33951 
-0.46422 2.77000 0.36171 
-0.45919 2.81000 0.36693 
-0.44361 2.94000 0.38391 
-0.42643 3.08200 0.40245 
-0.23924 3.15900 0.41251 
-0.12542 2.96300 0.38691 
-0.06405 2.98600 0.38992 
0.28133 3.08200 0.40245 
0.46913 3.13300 0.40911 
0.51748 3.03300 0.39605 
0.54728 3.05800 0.39932 
1.68046 7.07800 0.92426 
2.04211 8.30900 1.08500 
2.72394 10.05800 1.31339 
2.89192 10.05800 1.31339 
2.97592 10.05800 1.31339 
3.22693 9.80000 1.27970 
3.43152 9.80000 1.27970 
3.62500 9.55500 1.24771 
4.29388 10.61700 1.38639 
4.46202 10.92000 1.42595 
4.64852 10.61700 1.38639 
4.56599 10.33000 1.34891 
4.60913 10.33000 1.34891 
4.42291 9.55500 1.24771 
4.33683 8.88800 1.16061 
4.34707 8.68600 1.13423 
4.50532 8.30900 1.08500 
4.00001 6.94900 0.90741 
3.95713 6.82500 0.89122 
3.73768 6.26600 0.81822 
3.56978 5.70500 0.74497 
3.53529 5.53900 0.72329 
3.50767 5.46000 0.71298 
3.45434 5.30800 0.69313 
3.27066 4.90000 0.63985 
3.24948 4.83800 0.63175 
3.13310 4.49700 0.58723 
3.13329 4.44400 0.58030 
3.17088 4.34300 0.56712 
3.18901 4.34300 0.56712 
3.20719 4.24700 0.55458 
3.10604 3.98100 0.51985 
3.03484 3.71100 0.48459 
3.05277 3.64000 0.47532 
2.94041 3.32400 0.43405 
2.95429 3.32400 0.43405 
2.94228 3.29500 0.43027 
2.95603 3.29500 0.43027 
3.01106 3.29500 0.43027 
3.00549 3.15900 0.41251 
2.95797 3.08200 0.40245 
-1.50280 1.61300 0.20389 
-1.46946 1.60600 0.20301 
-1.45521 1.62000 0.20478 
-1.40723 1.68400 0.21287 
-1.39848 1.69900 0.21476 
-1.39712 1.70600 0.21565 
-1.37986 1.72900 0.21856 
-1.37806 1.74500 0.22058 
-1.36307 1.86400 0.23562 
-1.35985 1.89200 0.23916 
-1.34957 1.91100 0.24156 
-1.33640 1.95000 0.24649 
-1.32689 1.96000 0.24776 
-1.30328 2.01200 0.25433 
-1.29841 2.04400 0.25837 
-1.27599 2.13500 0.26988 
-1.24966 2.24800 0.28416 
-1.25687 2.33100 0.29465 
-1.24371 2.41900 0.30578 
-1.17113 2.61800 0.33093 
-1.16507 2.65400 0.33548 
-1.14482 2.71100 0.34269 
-1.12347 2.77000 0.35015 
-1.11993 2.79000 0.35267 
-1.11623 2.81000 0.35520 
-1.11275 2.83100 0.35786 
-1.08955 2.89500 0.36595 
-0.83331 2.69200 0.34029 
-0.76692 2.58200 0.32638 
-0.75116 2.56500 0.32423 
-0.68857 2.65400 0.33548 
-0.66641 2.65400 0.33548 
-0.63988 2.63600 0.33321 
-0.49085 2.54800 0.32208 
-0.47363 2.69200 0.34029 
-0.29689 3.21200 0.40602 
-0.23530 3.10700 0.39274 
-0.20767 3.08200 0.38958 
-0.13779 2.96300 0.37454 
-0.11305 2.96300 0.37454 
-0.08830 2.96300 0.37454 
-0.06405 2.98600 0.37745 
0.02436 3.13300 0.39603 
0.15389 3.10700 0.39274 
0.20088 3.03300 0.38339 
0.26637 3.05800 0.38655 
0.29420 3.08200 0.38958 
0.33831 3.13300 0.39603 
0.39388 3.15900 0.39932 
0.65607 3.35300 0.42384 
1.71204 7.21100 0.91152 
2.49039 9.80000 1.23878 
2.88387 10.33000 1.30578 
3.27430 10.61700 1.34206 
3.40729 10.61700 1.34206 
3.44458 10.33000 1.30578 
3.63611 9.80000 1.23878 
3.71795 9.80000 1.23878 
4.00529 10.33000 1.30578 
4.37083 10.92000 1.38036 
4.41643 10.92000 1.38036 
4.65575 10.05800 1.27139 
4.54859 9.32200 1.17836 
4.70624 9.10000 1.15030 
4.63371 8.88800 1.12350 
4.56963 8.49300 1.07357 
4.27241 7.64400 0.96625 
4.13877 7.35000 0.92909 
3.66205 5.97200 0.75490 
3.63018 5.88000 0.74327 
3.54069 5.62100 0.71053 
3.51217 5.53900 0.70016 
3.31477 5.02900 0.63570 
3.16989 4.60500 0.58210 
3.20715 4.34300 0.54898 
3.18889 4.29400 0.54279 
3.10522 4.02300 0.50853 
3.08942 3.98100 0.50322 
3.02237 3.64000 0.46012 
3.03757 3.64000 0.46012 
3.02425 3.60600 0.45582 
3.02751 3.23900 0.40943 
3.00363 3.18500 0.40260 
2.91571 2.98600 0.37745 
2.90562 2.96300 0.37454 
2.89804 2.91800 0.36885 
-1.45325 1.63300 0.19960 
-1.44578 1.64000 0.20046 
-1.37077 1.74500 0.21329 
-1.36569 1.78600 0.21830 
-1.36364 1.80300 0.22038 
-1.34454 1.95000 0.23835 
-1.31462 1.99100 0.24336 
-1.28869 2.11200 0.25815 
-1.27599 2.13500 0.26096 
-1.24369 2.17200 0.26549 
-1.24243 2.23500 0.27319 
-1.25462 2.34500 0.28663 
-1.25031 2.37400 0.29018 
-1.23600 2.40400 0.29384 
-1.23361 2.41900 0.29568 
-1.22351 2.41900 0.29568 
-1.22094 2.43400 0.29751 
-1.20850 2.45000 0.29947 
-1.17756 2.51500 0.30741 
-1.17113 2.61800 0.32000 
-1.13832 2.75000 0.33613 
-0.81627 2.67300 0.32672 
-0.73458 2.58200 0.31560 
-0.72182 2.65400 0.32440 
-0.71074 2.65400 0.32440 
-0.61786 2.63600 0.32220 
-0.59857 2.60000 0.31780 
-0.55468 2.54800 0.31144 
-0.54041 2.53100 0.30937 
-0.50871 2.53100 0.30937 
-0.49085 2.54800 0.31144 
-0.47029 2.67300 0.32672 
-0.44746 2.81000 0.34347 
-0.33996 3.23900 0.39591 
-0.29440 3.18500 0.38931 
-0.15016 2.96300 0.36217 
-0.13779 2.96300 0.36217 
-0.05198 3.00900 0.36779 
0.06361 3.13300 0.38295 
0.17555 3.03300 0.37073 
0.22442 3.00900 0.36779 
0.23698 3.00900 0.36779 
0.39388 3.15900 0.38613 
0.40707 3.15900 0.38613 
0.50010 3.08200 0.37672 
0.55157 3.08200 0.37672 
0.75711 3.71100 0.45360 
3.09698 10.61700 1.29773 
3.54028 10.61700 1.29773 
3.53084 10.33000 1.26265 
3.63611 9.80000 1.19786 
4.32524 10.92000 1.33476 
4.92173 11.24100 1.37400 
4.82678 10.92000 1.33476 
4.78151 10.61700 1.29773 
4.82478 10.33000 1.26265 
4.78173 10.05800 1.22940 
4.82373 10.05800 1.22940 
4.82275 9.80000 1.19786 
4.78223 9.10000 1.11230 
4.60509 8.49300 1.03811 
4.13877 7.35000 0.89840 
3.92864 6.82500 0.83423 
3.88756 6.70500 0.81956 
3.72891 6.16500 0.75355 
3.48487 5.46000 0.66738 
3.29266 4.96400 0.60675 
3.29112 4.90000 0.59893 
3.15275 4.34300 0.53085 
3.17172 4.24700 0.51911 
3.15416 4.20000 0.51337 
2.98605 3.74700 0.45800 
2.97471 3.67500 0.44920 
2.97677 3.64000 0.44492 
2.98082 3.57200 0.43661 
2.94505 3.44300 0.42084 
2.91266 3.32400 0.40630 
2.99912 3.26700 0.39933 
3.01276 3.26700 0.39933 
3.02640 3.26700 0.39933 
-1.49606 1.61300 0.19042 
-1.45521 1.62000 0.19125 
-1.45325 1.63300 0.19278 
-1.41560 1.66900 0.19703 
