ply
format ascii 1.0
comment pointcloud saved from Realsense Viewer
element vertex 1874
property float32 x
property float32 y
property float32 z
end_header
-0.27422 3.10700 1.45652 
-0.20935 3.10700 1.45652 
-0.19638 3.10700 1.45652 
-0.13046 3.08200 1.44480 
-0.11667 3.05800 1.43355 
0.02304 2.96300 1.38901 
0.25610 2.94000 1.37823 
0.27855 2.91800 1.36792 
0.45959 2.98600 1.39979 
0.48452 2.98600 1.39979 
0.56813 3.03300 1.42183 
0.63377 3.23900 1.51840 
0.78010 3.74700 1.75654 
1.22127 5.23600 2.45456 
1.32299 5.38300 2.52347 
1.88267 5.79100 2.71474 
2.02775 5.79100 2.71474 
2.07611 5.79100 2.71474 
2.12447 5.79100 2.71474 
2.37876 5.70500 2.67442 
2.41339 5.46000 2.55957 
2.11950 4.20000 1.96890 
2.00068 3.90000 1.82826 
1.70973 3.08200 1.44480 
2.16713 3.71100 1.73966 
2.70124 4.49700 2.10813 
3.08653 4.90000 2.29705 
3.14848 4.83800 2.26799 
3.13015 4.71900 2.21220 
3.00768 4.34300 2.03594 
2.96125 4.20000 1.96890 
2.96864 4.06600 1.90608 
2.88183 3.50600 1.64356 
2.85051 3.38200 1.58543 
2.84007 3.35300 1.57184 
2.80815 3.26700 1.53152 
2.76143 3.10700 1.45652 
2.77484 3.00900 1.41058 
2.80057 2.91800 1.36792 
2.94444 2.94000 1.37823 
-1.57598 1.68400 0.78240 
-1.56150 1.67600 0.77869 
-1.54800 1.66900 0.77543 
-1.49851 1.67600 0.77869 
-1.47493 1.72200 0.80006 
-1.46774 1.72200 0.80006 
-1.41178 1.76900 0.82190 
-1.39522 1.85500 0.86185 
-1.37711 1.95000 0.90599 
-1.35144 1.96000 0.91064 
-1.33956 1.99100 0.92504 
-1.33793 2.00100 0.92968 
-1.33386 2.03300 0.94455 
-1.24800 2.26200 1.05095 
-1.23740 2.33100 1.08301 
-1.19562 2.53100 1.17593 
-1.17615 2.65400 1.23308 
-1.12100 2.85200 1.32507 
-1.09821 2.91800 1.35573 
-1.06566 2.96300 1.37664 
-0.99264 3.08200 1.43193 
-0.98772 3.10700 1.44354 
-0.90442 3.13300 1.45562 
-0.64812 3.15900 1.46770 
-0.61663 3.13300 1.45562 
-0.60354 3.13300 1.45562 
-0.56430 3.13300 1.45562 
-0.40069 3.08200 1.43193 
-0.36209 3.08200 1.43193 
-0.34922 3.08200 1.43193 
-0.30016 3.10700 1.44354 
-0.09039 3.03300 1.40916 
-0.07711 3.00900 1.39801 
0.03569 2.98600 1.38733 
0.06062 2.98600 1.38733 
0.13543 2.98600 1.38733 
0.18387 2.96300 1.37664 
0.41893 2.96300 1.37664 
0.83673 3.94000 1.83056 
1.20471 5.16500 2.39971 
1.28239 5.30800 2.46615 
1.34546 5.38300 2.50100 
1.50009 5.53900 2.57348 
1.71006 5.62100 2.61157 
1.95521 5.79100 2.69056 
2.19700 5.79100 2.69056 
2.24536 5.79100 2.69056 
2.39059 5.46000 2.53677 
2.34046 4.83800 2.24778 
1.74273 3.23900 1.50487 
2.07104 3.57200 1.65959 
3.11114 4.66100 2.16555 
3.04051 4.44400 2.06473 
3.02396 4.39300 2.04103 
2.97666 4.24700 1.97320 
2.95234 3.78400 1.75809 
2.87642 3.57200 1.65959 
2.88183 3.50600 1.62892 
2.85880 3.44300 1.59965 
2.86239 3.41300 1.58571 
2.76495 3.08200 1.43193 
2.76895 3.05800 1.42078 
2.74971 3.00900 1.39801 
2.77484 3.00900 1.39801 
2.76609 2.98600 1.38733 
2.76953 2.96300 1.37664 
2.77258 2.94000 1.36595 
2.82494 2.91800 1.35573 
2.91989 2.94000 1.36595 
2.95511 2.96300 1.37664 
-1.58301 1.68400 0.77537 
-1.56150 1.67600 0.77169 
-1.48361 1.69900 0.78228 
-1.42010 1.76100 0.81083 
-1.41275 1.76100 0.81083 
-1.39386 1.87400 0.86285 
-1.38483 1.88300 0.86700 
-1.38355 1.89200 0.87114 
-1.36897 1.95000 0.89785 
-1.36083 1.95000 0.89785 
-1.35011 1.97000 0.90706 
-1.30203 2.07700 0.95632 
-1.26523 2.14700 0.98855 
-1.18206 2.61800 1.20542 
-1.17918 2.63600 1.21371 
-1.13969 2.81000 1.29382 
-1.07393 2.98600 1.37486 
-1.04451 3.00900 1.38545 
-0.99599 3.13300 1.44254 
-0.89134 3.13300 1.44254 
-0.83278 3.15900 1.45451 
-0.81959 3.15900 1.45451 
-0.79321 3.15900 1.45451 
-0.74045 3.15900 1.45451 
-0.72726 3.15900 1.45451 
-0.55962 3.10700 1.43057 
-0.50773 3.10700 1.43057 
-0.40069 3.08200 1.41906 
-0.27422 3.10700 1.43057 
-0.09039 3.03300 1.39650 
0.02322 2.98600 1.37486 
0.09802 2.98600 1.37486 
0.35430 2.94000 1.35368 
0.36658 2.94000 1.35368 
0.43130 2.96300 1.36427 
0.48452 2.98600 1.37486 
1.32299 5.38300 2.47852 
1.54577 5.62100 2.58810 
1.61618 5.62100 2.58810 
1.80707 5.70500 2.62678 
1.95521 5.79100 2.66638 
2.19700 5.79100 2.66638 
2.26954 5.79100 2.66638 
2.43762 5.62100 2.58810 
2.33139 4.77800 2.19996 
2.29376 4.66100 2.14609 
1.74162 3.21200 1.47892 
1.72607 3.15900 1.45451 
1.76564 3.15900 1.45451 
1.80867 3.21200 1.47892 
2.27085 3.86100 1.77774 
2.97374 4.29400 1.97711 
2.95893 4.24700 1.95547 
2.93212 4.11000 1.89239 
2.94928 4.11000 1.89239 
2.95166 4.06600 1.87213 
2.95404 4.02300 1.85233 
2.97771 3.90000 1.79570 
2.95234 3.78400 1.74229 
2.92637 3.71100 1.70867 
2.86719 3.50600 1.61428 
2.85635 3.47500 1.60001 
2.87086 3.47500 1.60001 
2.85880 3.44300 1.58528 
2.83712 2.91800 1.34355 
2.87367 2.91800 1.34355 
2.95511 2.96300 1.36427 
2.96748 2.96300 1.36427 
-1.51429 1.65500 0.75511 
-1.49152 1.67600 0.76469 
-1.48457 1.68400 0.76834 
-1.46055 1.72200 0.78568 
-1.43635 1.74500 0.79617 
-1.41917 1.76900 0.80712 
-1.41178 1.76900 0.80712 
-1.41044 1.78600 0.81488 
-1.38483 1.88300 0.85914 
-1.38292 1.90200 0.86781 
-1.37910 1.93000 0.88058 
-1.36897 1.95000 0.88971 
-1.35144 1.96000 0.89427 
-1.34043 1.98000 0.90339 
-1.31398 2.05500 0.93761 
-1.28338 2.08900 0.95313 
-1.28137 2.10000 0.95814 
-1.27260 2.10000 0.95814 
-1.26707 2.13500 0.97411 
-1.23740 2.33100 1.06354 
-1.22596 2.40400 1.09685 
-1.19019 2.63600 1.20270 
-0.89691 3.10700 1.41760 
-0.87097 3.10700 1.41760 
-0.85799 3.10700 1.41760 
-0.83278 3.15900 1.44132 
-0.74045 3.15900 1.44132 
-0.54665 3.10700 1.41760 
-0.47791 3.08200 1.40619 
-0.41356 3.08200 1.40619 
-0.35205 3.10700 1.41760 
0.19624 2.96300 1.35190 
0.28284 2.96300 1.35190 
0.30520 2.94000 1.34140 
0.36658 2.94000 1.34140 
0.44367 2.96300 1.35190 
0.47205 2.98600 1.36239 
0.48452 2.98600 1.36239 
0.71529 3.50600 1.59965 
0.77260 3.71100 1.69318 
1.16734 5.09600 2.32510 
1.45384 5.53900 2.52722 
1.47696 5.53900 2.52722 
1.59271 5.62100 2.56464 
1.90685 5.79100 2.64220 
1.95521 5.79100 2.64220 
2.07611 5.79100 2.64220 
2.17283 5.79100 2.64220 
2.29372 5.79100 2.64220 
2.42640 5.70500 2.60296 
2.33139 4.77800 2.18001 
2.23183 4.49700 2.05180 
1.96066 3.82200 1.74382 
1.90060 3.67500 1.67675 
1.75245 3.15900 1.44132 
1.80867 3.21200 1.46551 
3.08653 4.90000 2.23567 
3.12828 4.83800 2.20738 
2.98954 4.34300 1.98154 
2.93212 4.11000 1.87523 
2.98969 3.98100 1.81637 
2.91088 3.71100 1.69318 
2.88874 3.60600 1.64527 
2.86462 3.53900 1.61470 
2.77484 3.00900 1.37289 
2.90762 2.94000 1.34140 
-1.59707 1.68400 0.76131 
-1.55497 1.66900 0.75453 
-1.46808 1.71400 0.77487 
-1.46774 1.72200 0.77849 
-1.45205 1.72900 0.78165 
-1.40880 1.80300 0.81511 
-1.37697 1.88300 0.85127 
-1.38148 1.91100 0.86393 
-1.37005 1.94000 0.87704 
-1.33793 2.00100 0.90462 
-1.30540 2.05500 0.92903 
-1.29513 2.06600 0.93401 
-1.29335 2.07700 0.93898 
-1.27988 2.11200 0.95480 
-1.25376 2.22200 1.00453 
-1.24966 2.24800 1.01629 
-1.23740 2.33100 1.05381 
-1.21078 2.43400 1.10037 
-1.20089 2.49800 1.12931 
-1.15488 2.79000 1.26131 
-1.13790 2.89500 1.30878 
-1.12752 2.96300 1.33953 
-1.11515 2.96300 1.33953 
-1.07817 3.03300 1.37117 
-1.06152 3.05800 1.38247 
-1.05699 3.08200 1.39332 
-0.99599 3.13300 1.41638 
-0.98291 3.13300 1.41638 
-0.83901 3.13300 1.41638 
-0.82593 3.13300 1.41638 
-0.81959 3.15900 1.42813 
-0.76683 3.15900 1.42813 
-0.74045 3.15900 1.42813 
-0.70088 3.15900 1.42813 
-0.55962 3.10700 1.40463 
-0.54225 3.08200 1.39332 
-0.45217 3.08200 1.39332 
-0.43930 3.08200 1.39332 
-0.28488 3.08200 1.39332 
-0.09039 3.03300 1.37117 
-0.07773 3.03300 1.37117 
-0.01418 2.98600 1.34992 
0.01075 2.98600 1.34992 
0.08556 2.98600 1.34992 
0.13334 2.94000 1.32913 
0.15913 2.96300 1.33953 
0.32975 2.94000 1.32913 
0.40656 2.96300 1.33953 
0.41568 2.94000 1.32913 
0.46842 2.96300 1.33953 
0.62848 3.21200 1.45209 
0.90948 4.20000 1.89875 
0.98088 4.44400 2.00906 
1.15199 5.02900 2.27353 
1.26023 5.30800 2.39966 
1.43071 5.53900 2.50409 
1.59271 5.62100 2.54117 
1.78325 5.70500 2.57914 
2.26954 5.79100 2.61802 
2.52738 5.46000 2.46838 
1.85328 3.26700 1.47696 
2.03278 3.50600 1.58501 
2.18263 3.71100 1.67768 
2.37467 3.98100 1.79975 
2.46878 4.11000 1.85807 
2.93311 4.71900 2.13339 
3.10699 4.90000 2.21521 
3.10943 4.77800 2.16006 
3.09167 4.66100 2.10716 
2.92320 3.98100 1.79975 
2.97307 3.98100 1.79975 
2.96603 3.82200 1.72787 
2.95234 3.78400 1.71069 
2.86462 3.53900 1.59993 
2.88183 3.50600 1.58501 
2.88537 3.47500 1.57099 
2.86239 3.41300 1.54296 
2.86463 3.38200 1.52895 
2.78737 3.10700 1.40463 
2.76609 2.98600 1.34992 
2.87079 2.94000 1.32913 
2.99051 2.98600 1.34992 
-1.59004 1.68400 0.75428 
-1.52120 1.65500 0.74129 
-1.50047 1.65500 0.74129 
-1.49988 1.66200 0.74442 
-1.44483 1.72900 0.77443 
-1.39778 1.83800 0.82326 
-1.37697 1.88300 0.84341 
-1.37565 1.89200 0.84744 
-1.35962 1.96000 0.87790 
-1.35144 1.96000 0.87790 
-1.30540 2.05500 0.92045 
-1.29682 2.05500 0.92045 
-1.28338 2.08900 0.93568 
-1.22596 2.40400 1.07677 
-1.20850 2.45000 1.09738 
-1.21393 2.48200 1.11171 
-1.19565 2.60000 1.16456 
-1.17918 2.63600 1.18069 
-1.17341 2.67300 1.19726 
-1.15927 2.69200 1.20577 
-1.15817 2.77000 1.24071 
-1.07817 3.03300 1.35851 
-1.02664 3.10700 1.39165 
-0.95674 3.13300 1.40330 
-0.90989 3.10700 1.39165 
-0.79321 3.15900 1.41494 
-0.76683 3.15900 1.41494 
-0.70088 3.15900 1.41494 
-0.61151 3.10700 1.39165 
-0.47418 3.05800 1.36971 
-0.36209 3.08200 1.38046 
-0.25914 3.08200 1.38046 
-0.22054 3.08200 1.38046 
-0.20767 3.08200 1.38046 
-0.18193 3.08200 1.38046 
-0.15619 3.08200 1.38046 
-0.14333 3.08200 1.38046 
-0.05240 3.03300 1.35851 
-0.02686 3.00900 1.34776 
0.04815 2.98600 1.33746 
0.18244 2.94000 1.31685 
0.40340 2.94000 1.31685 
0.46842 2.96300 1.32715 
0.48079 2.96300 1.32715 
1.07455 4.77800 2.14011 
1.22127 5.23600 2.34525 
1.45384 5.53900 2.48097 
1.49883 5.62100 2.51770 
1.63965 5.62100 2.51770 
1.73561 5.70500 2.55532 
2.10801 5.88000 2.63370 
2.21580 5.97200 2.67491 
2.20622 5.88000 2.63370 
2.55970 5.79100 2.59384 
1.79499 3.44300 1.54215 
1.71568 3.23900 1.45078 
1.71479 3.21200 1.43868 
1.72607 3.15900 1.41494 
2.06669 3.53900 1.58515 
2.58654 4.24700 1.90227 
2.91652 4.66100 2.08770 
2.92618 4.20000 1.88122 
2.91496 4.11000 1.84091 
2.86462 3.53900 1.58515 
2.86719 3.50600 1.57037 
2.87086 3.47500 1.55648 
2.87317 3.44300 1.54215 
2.89287 3.38200 1.51483 
2.87102 3.32400 1.48885 
2.85170 3.23900 1.45078 
2.84134 3.21200 1.43868 
2.82083 3.15900 1.41494 
2.79068 3.08200 1.38046 
2.81253 3.00900 1.34776 
2.81596 2.98600 1.33746 
2.88306 2.94000 1.31685 
-1.57549 1.67600 0.74370 
-1.46123 1.70600 0.75701 
-1.42829 1.75300 0.77786 
-1.41789 1.78600 0.79251 
-1.39522 1.85500 0.82313 
-1.38483 1.88300 0.83555 
-1.36083 1.95000 0.86528 
-1.32849 2.01200 0.89279 
-1.27988 2.11200 0.93716 
-1.26328 2.15900 0.95802 
-1.26182 2.17200 0.96379 
-1.25376 2.22200 0.98598 
-1.24800 2.26200 1.00373 
-1.23740 2.33100 1.03434 
-1.24040 2.37400 1.05342 
-1.23049 2.37400 1.05342 
-1.19301 2.54800 1.13063 
-1.18737 2.58200 1.14572 
-1.15927 2.69200 1.19453 
-1.15488 2.79000 1.23802 
-1.15365 2.87400 1.27529 
-1.14999 2.89500 1.28461 
-1.12380 2.98600 1.32499 
-1.10350 3.03300 1.34584 
-1.08706 3.05800 1.35694 
-1.08272 3.08200 1.36759 
-1.06985 3.08200 1.36759 
-0.95674 3.13300 1.39022 
-0.93058 3.13300 1.39022 
-0.91750 3.13300 1.39022 
-0.87826 3.13300 1.39022 
-0.80640 3.15900 1.40175 
-0.76683 3.15900 1.40175 
-0.68769 3.15900 1.40175 
-0.65587 3.13300 1.39022 
-0.44865 3.05800 1.35694 
-0.33635 3.08200 1.36759 
-0.27201 3.08200 1.36759 
-0.19480 3.08200 1.36759 
-0.14333 3.08200 1.36759 
-0.07773 3.03300 1.34584 
0.04815 2.98600 1.32499 
0.25610 2.94000 1.30458 
0.26837 2.94000 1.30458 
0.42795 2.94000 1.30458 
0.49699 2.98600 1.32499 
0.50946 2.98600 1.32499 
0.62848 3.21200 1.42527 
0.72202 3.53900 1.57037 
1.16734 5.09600 2.26127 
1.47536 5.62100 2.49423 
1.54505 5.70500 2.53150 
1.61651 5.70500 2.53150 
1.83431 5.79100 2.56966 
1.93616 5.88000 2.60915 
2.14100 5.97200 2.64998 
2.16593 5.97200 2.64998 
2.26567 5.97200 2.64998 
2.60806 5.79100 2.56966 
2.48928 5.23600 2.32339 
1.76319 3.38200 1.50071 
1.72698 3.18500 1.41329 
3.12828 4.83800 2.14678 
2.94119 4.24700 1.88454 
2.97084 4.02300 1.78514 
2.98764 4.02300 1.78514 
3.02123 4.02300 1.78514 
2.87635 3.26700 1.44968 
2.81332 3.10700 1.37868 
2.84090 2.98600 1.32499 
2.84624 2.94000 1.30458 
-1.56150 1.67600 0.73670 
-1.54800 1.66900 0.73362 
-1.50738 1.65500 0.72747 
-1.47754 1.68400 0.74022 
-1.41897 1.77800 0.78153 
-1.41506 1.81100 0.79604 
-1.41313 1.83800 0.80791 
-1.37498 1.90200 0.83604 
-1.37005 1.94000 0.85274 
-1.30540 2.05500 0.90329 
-1.29682 2.05500 0.90329 
-1.29210 2.08900 0.91824 
-1.28338 2.08900 0.91824 
-1.27419 2.14700 0.94373 
-1.24123 2.30200 1.01186 
-1.24040 2.37400 1.04351 
-1.22351 2.41900 1.06329 
-1.19856 2.51500 1.10549 
-1.15817 2.77000 1.21758 
-1.15365 2.87400 1.26329 
-1.14999 2.89500 1.27252 
-1.14694 2.91800 1.28263 
-1.11616 3.03300 1.33318 
-1.06556 3.10700 1.36571 
-1.02215 3.13300 1.37714 
-1.00907 3.13300 1.37714 
-0.98291 3.13300 1.37714 
-0.93058 3.13300 1.37714 
-0.91750 3.13300 1.37714 
-0.89134 3.13300 1.37714 
-0.85209 3.13300 1.37714 
-0.70088 3.15900 1.38856 
-0.55079 3.05800 1.34417 
-0.53802 3.05800 1.34417 
-0.15619 3.08200 1.35472 
-0.02707 3.03300 1.33318 
-0.00173 3.00900 1.32263 
0.03569 2.98600 1.31252 
0.06015 2.96300 1.30241 
0.07253 2.96300 1.30241 
0.08424 2.94000 1.29230 
0.12016 2.91800 1.28263 
0.20544 2.91800 1.28263 
0.23155 2.94000 1.29230 
0.26837 2.94000 1.29230 
0.35165 2.91800 1.28263 
0.37602 2.91800 1.28263 
0.44023 2.94000 1.29230 
0.48452 2.98600 1.31252 
0.62848 3.21200 1.41186 
1.68924 5.79100 2.54548 
2.24074 5.97200 2.62504 
2.29061 5.97200 2.62504 
2.45173 5.88000 2.58460 
2.50083 5.88000 2.58460 
2.52538 5.88000 2.58460 
2.54993 5.88000 2.58460 
2.57449 5.88000 2.58460 
2.21305 4.49700 1.97669 
2.10775 4.24700 1.86680 
1.83241 3.57200 1.57010 
1.81035 3.23900 1.42373 
2.39957 3.94000 1.73186 
2.93514 4.34300 1.90900 
2.96125 4.20000 1.84614 
2.99633 4.20000 1.84614 
3.00076 4.11000 1.80658 
3.01792 4.11000 1.80658 
3.01957 4.06600 1.78724 
3.03803 4.02300 1.76834 
3.00825 3.94000 1.73186 
2.99630 3.86100 1.69713 
2.87642 3.57200 1.57010 
2.89988 3.47500 1.52746 
2.90514 3.41300 1.50021 
2.91939 3.41300 1.50021 
2.83686 3.13300 1.37714 
2.82629 3.10700 1.36571 
2.86850 2.96300 1.30241 
2.90562 2.96300 1.30241 
3.00098 3.00900 1.32263 
-1.55497 1.66900 0.72665 
-1.54800 1.66900 0.72665 
-1.48457 1.68400 0.73318 
-1.46233 1.69900 0.73971 
-1.46123 1.70600 0.74276 
-1.41917 1.76900 0.77019 
-1.39616 1.84600 0.80372 
-1.38483 1.88300 0.81983 
-1.37498 1.90200 0.82810 
-1.37104 1.93000 0.84029 
-1.35833 1.97000 0.85770 
-1.33956 1.99100 0.86685 
-1.32958 2.00100 0.87120 
-1.32665 2.02200 0.88034 
-1.31689 2.03300 0.88513 
-1.29335 2.07700 0.90429 
-1.29014 2.10000 0.91430 
-1.27599 2.13500 0.92954 
-1.25517 2.27500 0.99050 
-1.25084 2.30200 1.00225 
-1.22596 2.40400 1.04666 
-1.21078 2.43400 1.05972 
-1.20850 2.45000 1.06669 
-1.19562 2.53100 1.10195 
-1.18206 2.61800 1.13983 
-1.17918 2.63600 1.14767 
-1.15559 2.94000 1.28003 
-1.13627 2.98600 1.30005 
-1.07853 3.10700 1.35273 
-0.99599 3.13300 1.36405 
-0.90442 3.13300 1.36405 
-0.83278 3.15900 1.37537 
-0.74045 3.15900 1.37537 
-0.71407 3.15900 1.37537 
-0.60659 3.08200 1.34185 
-0.59372 3.08200 1.34185 
-0.55079 3.05800 1.33140 
-0.46142 3.05800 1.33140 
-0.43588 3.05800 1.33140 
-0.42311 3.05800 1.33140 
-0.36209 3.08200 1.34185 
-0.16906 3.08200 1.34185 
-0.15619 3.08200 1.34185 
-0.07837 3.05800 1.33140 
-0.03974 3.03300 1.32052 
0.04815 2.98600 1.30005 
0.10798 2.91800 1.27045 
0.13130 2.89500 1.26043 
0.44023 2.94000 1.28003 
0.56005 3.05800 1.33140 
0.78010 3.74700 1.63138 
0.90948 4.20000 1.82861 
1.16734 5.09600 2.21871 
1.25556 5.38300 2.34367 
1.42842 5.62100 2.44729 
1.47359 5.70500 2.48386 
1.49741 5.70500 2.48386 
1.59252 5.79100 2.52130 
1.73759 5.79100 2.52130 
1.76177 5.79100 2.52130 
1.78595 5.79100 2.52130 
1.81013 5.79100 2.52130 
2.29061 5.97200 2.60011 
2.42718 5.88000 2.56005 
2.47628 5.88000 2.56005 
2.59904 5.88000 2.56005 
2.60190 5.62100 2.44729 
2.58707 5.53900 2.41159 
2.57297 5.46000 2.37719 
2.34046 4.83800 2.10638 
1.73295 3.32400 1.44721 
1.70038 3.18500 1.38669 
1.72698 3.18500 1.38669 
1.76844 3.21200 1.39845 
1.83964 3.26700 1.42240 
1.89668 3.29500 1.43459 
1.97500 3.38200 1.47246 
2.48371 4.02300 1.75155 
2.55458 4.11000 1.78942 
2.76717 4.39300 1.91264 
2.99633 4.20000 1.82861 
3.03508 4.11000 1.78942 
2.96814 3.78400 1.64749 
2.91630 3.44300 1.49902 
2.93067 3.44300 1.49902 
2.84556 3.05800 1.33140 
2.86850 2.96300 1.29004 
-1.55539 1.66200 0.71667 
-1.49160 1.68400 0.72615 
-1.46233 1.69900 0.73262 
-1.43898 1.72200 0.74254 
-1.41675 1.79400 0.77359 
-1.40689 1.82000 0.78480 
-1.38747 1.85500 0.79989 
-1.37565 1.89200 0.81584 
-1.37005 1.94000 0.83654 
-1.35962 1.96000 0.84517 
-1.35833 1.97000 0.84948 
-1.35011 1.97000 0.84948 
-1.33793 2.00100 0.86285 
-1.31820 2.02200 0.87190 
-1.29513 2.06600 0.89087 
-1.27419 2.14700 0.92580 
-1.26879 2.18400 0.94176 
-1.25333 2.28900 0.98703 
-1.23049 2.37400 1.02369 
-1.21832 2.38900 1.03015 
-1.19580 2.46600 1.06336 
-1.19026 2.56500 1.10605 
-1.18737 2.58200 1.11338 
-1.16746 2.71100 1.16900 
-1.15673 2.85200 1.22980 
-1.15559 2.94000 1.26775 
-1.02215 3.13300 1.35097 
-0.80640 3.15900 1.36218 
-0.74045 3.15900 1.36218 
-0.68769 3.15900 1.36218 
-0.66895 3.13300 1.35097 
-0.65043 3.10700 1.33976 
-0.63745 3.10700 1.33976 
-0.57633 3.05800 1.31863 
-0.56356 3.05800 1.31863 
-0.49563 3.03300 1.30785 
-0.36209 3.08200 1.32898 
-0.28488 3.08200 1.32898 
-0.18193 3.08200 1.32898 
-0.02707 3.03300 1.30785 
-0.01441 3.03300 1.30785 
0.06015 2.96300 1.27767 
0.07196 2.94000 1.26775 
0.17965 2.89500 1.24835 
0.31747 2.94000 1.26775 
0.35430 2.94000 1.26775 
0.37602 2.91800 1.25826 
0.49699 2.98600 1.28759 
0.56005 3.05800 1.31863 
0.90948 4.20000 1.81107 
1.61670 5.79100 2.49712 
1.68924 5.79100 2.49712 
1.73759 5.79100 2.49712 
1.96071 5.88000 2.53550 
2.27638 6.06700 2.61614 
2.46515 5.97200 2.57517 
2.64814 5.88000 2.53550 
2.57297 5.46000 2.35439 
2.13727 4.34300 1.87273 
1.79683 3.23900 1.39668 
2.91063 4.44400 1.91629 
2.91391 4.39300 1.89429 
2.97879 4.20000 1.81107 
3.05483 4.02300 1.73475 
3.01028 3.90000 1.68171 
2.96814 3.78400 1.63169 
2.89134 3.57200 1.54027 
2.87940 3.53900 1.52604 
2.87086 3.47500 1.49845 
2.91630 3.44300 1.48465 
-1.56891 1.66900 0.71272 
-1.55497 1.66900 0.71272 
-1.54151 1.66200 0.70973 
-1.50738 1.65500 0.70674 
-1.47754 1.68400 0.71912 
-1.47051 1.68400 0.71912 
-1.43179 1.72200 0.73535 
-1.41154 1.77800 0.75926 
-1.41044 1.78600 0.76268 
-1.39778 1.83800 0.78488 
-1.26304 2.22200 0.94886 
-1.23911 2.31600 0.98901 
-1.20061 2.43400 1.03940 
-1.17955 2.56500 1.09534 
-1.15559 2.94000 1.25547 
-1.11616 3.03300 1.29519 
-1.08272 3.08200 1.31611 
-0.94603 3.18500 1.36010 
-0.68769 3.15900 1.34899 
-0.49563 3.03300 1.29519 
-0.40069 3.08200 1.31611 
-0.34922 3.08200 1.31611 
-0.31061 3.08200 1.31611 
-0.26989 3.05800 1.30586 
-0.15498 3.05800 1.30586 
-0.14221 3.05800 1.30586 
-0.07773 3.03300 1.29519 
0.13130 2.89500 1.23626 
0.30520 2.94000 1.25547 
0.32975 2.94000 1.25547 
0.46478 2.94000 1.25547 
1.27352 5.46000 2.33159 
1.35801 5.62100 2.40035 
1.61699 5.88000 2.51095 
1.96645 5.97200 2.55024 
2.04126 5.97200 2.55024 
2.27638 6.06700 2.59080 
2.34048 5.97200 2.55024 
2.53996 5.97200 2.55024 
2.28289 4.71900 2.01516 
1.76624 3.44300 1.47027 
1.71368 3.18500 1.36010 
1.78330 3.23900 1.38316 
1.84165 3.29500 1.40707 
1.88292 3.29500 1.40707 
1.98607 3.35300 1.43184 
2.16053 3.57200 1.52536 
2.27560 3.71100 1.58472 
2.84054 4.39300 1.87595 
2.81200 4.11000 1.75510 
2.94372 4.20000 1.79353 
2.97879 4.20000 1.79353 
3.07050 4.06600 1.73631 
3.05483 4.02300 1.71795 
3.02470 3.94000 1.68251 
2.99630 3.86100 1.64877 
2.89134 3.57200 1.52536 
2.93067 3.44300 1.47027 
2.91932 3.23900 1.38316 
2.90413 3.10700 1.32679 
-1.54845 1.66200 0.70279 
-1.50619 1.66900 0.70575 
-1.44698 1.70600 0.72139 
-1.43179 1.72200 0.72816 
-1.40720 1.74500 0.73788 
-1.39778 1.83800 0.77721 
-1.39616 1.84600 0.78059 
-1.38483 1.88300 0.79624 
-1.37267 1.92100 0.81231 
-1.29513 2.06600 0.87362 
-1.25904 2.24800 0.95058 
-1.25517 2.27500 0.96200 
-1.23504 2.34500 0.99160 
-1.22058 2.37400 1.00386 
-1.20061 2.43400 1.02923 
-1.19320 2.48200 1.04953 
-1.16653 2.79000 1.17977 
-1.15559 2.94000 1.24320 
-1.11616 3.03300 1.28252 
-0.98592 3.18500 1.34680 
-0.83334 3.21200 1.35822 
-0.79311 3.21200 1.35822 
-0.71407 3.15900 1.33580 
-0.70088 3.15900 1.33580 
-0.58910 3.05800 1.29310 
-0.53363 3.03300 1.28252 
-0.41356 3.08200 1.30324 
-0.40069 3.08200 1.30324 
-0.38783 3.08200 1.30324 
-0.33635 3.08200 1.30324 
-0.23159 3.05800 1.29310 
-0.09039 3.03300 1.28252 
0.13130 2.89500 1.22417 
0.30759 2.96300 1.25292 
0.38820 2.91800 1.23390 
0.45250 2.94000 1.24320 
0.46478 2.94000 1.24320 
0.61507 3.21200 1.35822 
1.29194 5.53900 2.34220 
1.33454 5.62100 2.37688 
1.47162 5.79100 2.44876 
1.61699 5.88000 2.48640 
1.66609 5.88000 2.48640 
1.78885 5.88000 2.48640 
2.07373 6.06700 2.56547 
2.14972 6.06700 2.56547 
2.32705 6.06700 2.56547 
2.49009 5.97200 2.52530 
2.59904 5.88000 2.48640 
2.48928 5.23600 2.21408 
2.28289 4.71900 1.99546 
1.74273 3.23900 1.36963 
1.84165 3.29500 1.39331 
1.88057 3.26700 1.38147 
2.00007 3.35300 1.41784 
2.15535 3.53900 1.49649 
2.81238 4.29400 1.81575 
2.99439 4.24700 1.79587 
3.01212 4.24700 1.79587 
3.07050 4.06600 1.71934 
3.05483 4.02300 1.70115 
2.99630 3.86100 1.63265 
2.96814 3.78400 1.60009 
2.99407 3.35300 1.41784 
2.98205 3.32400 1.40558 
2.93284 3.23900 1.36963 
-1.52120 1.65500 0.69292 
-1.49922 1.66900 0.69878 
-1.47754 1.68400 0.70506 
-1.46348 1.68400 0.70506 
-1.46250 1.69100 0.70799 
-1.44814 1.69900 0.71134 
-1.44698 1.70600 0.71427 
-1.43230 1.71400 0.71762 
-1.40800 1.73700 0.72725 
-1.38483 1.88300 0.78838 
-1.37498 1.90200 0.79633 
-1.37351 1.91100 0.80010 
-1.36897 1.95000 0.81643 
-1.36780 1.96000 0.82061 
-1.34188 1.97000 0.82480 
-1.32122 2.00100 0.83778 
-1.31287 2.00100 0.83778 
-1.30976 2.02200 0.84657 
-1.30132 2.02200 0.84657 
-1.28824 2.05500 0.86039 
-1.28650 2.06600 0.86500 
-1.28338 2.08900 0.87462 
-1.28137 2.10000 0.87923 
-1.27419 2.14700 0.89891 
-1.26487 2.20900 0.92487 
-1.25904 2.24800 0.94120 
-1.25517 2.27500 0.95250 
-1.25333 2.28900 0.95836 
-1.24878 2.31600 0.96967 
-1.19046 2.49800 1.04587 
-1.17878 2.71100 1.13505 
-1.17277 2.75000 1.15137 
-1.16973 2.77000 1.15975 
-1.10350 3.03300 1.26986 
-0.95405 3.21200 1.34480 
-0.91381 3.21200 1.34480 
-0.88699 3.21200 1.34480 
-0.74655 3.18500 1.33350 
-0.60187 3.05800 1.28033 
-0.54629 3.03300 1.26986 
-0.52096 3.03300 1.26986 
-0.49563 3.03300 1.26986 
-0.44865 3.05800 1.28033 
-0.42311 3.05800 1.28033 
-0.38783 3.08200 1.29038 
-0.33373 3.05800 1.28033 
-0.30820 3.05800 1.28033 
-0.26989 3.05800 1.28033 
-0.14105 3.03300 1.26986 
-0.12838 3.03300 1.26986 
-0.00174 3.03300 1.26986 
0.16756 2.89500 1.21208 
0.18108 2.91800 1.22171 
0.20699 2.94000 1.23092 
0.25810 2.96300 1.24055 
0.69445 3.47500 1.45492 
1.04157 4.71900 1.97576 
1.61736 5.97200 2.50037 
1.76697 5.97200 2.50037 
1.97240 6.06700 2.54014 
2.02306 6.06700 2.54014 
2.04840 6.06700 2.54014 
2.28741 6.16500 2.58117 
2.39035 5.97200 2.50037 
2.56490 5.97200 2.50037 
2.57449 5.88000 2.46185 
2.62359 5.88000 2.46185 
2.63224 5.79100 2.42458 
2.61697 5.70500 2.38858 
2.53669 5.38300 2.25376 
1.73495 3.38200 1.41598 
1.71568 3.23900 1.35611 
1.83010 3.32400 1.39170 
1.86692 3.26700 1.36783 
1.89421 3.26700 1.36783 
1.94877 3.26700 1.36783 
2.79933 4.24700 1.77814 
2.74794 4.06600 1.70236 
3.11852 4.24700 1.77814 
3.05483 4.02300 1.68436 
2.90380 3.60600 1.50977 
2.91630 3.44300 1.44152 
3.01595 3.47500 1.45492 
-1.49152 1.67600 0.69471 
-1.44814 1.69900 0.70425 
-1.44698 1.70600 0.70715 
-1.43986 1.70600 0.70715 
-1.43230 1.71400 0.71046 
-1.42460 1.72200 0.71378 
-1.40075 1.73700 0.72000 
-1.39857 1.82900 0.75813 
-1.38642 1.86400 0.77264 
-1.38604 1.87400 0.77678 
-1.36897 1.95000 0.80829 
-1.36083 1.95000 0.80829 
-1.34188 1.97000 0.81658 
-1.34043 1.98000 0.82072 
-1.31462 1.99100 0.82528 
-1.30451 2.00100 0.82943 
-1.28987 2.04400 0.84725 
-1.28650 2.06600 0.85637 
-1.28468 2.07700 0.86093 
-1.27089 2.17200 0.90031 
-1.25744 2.26200 0.93761 
-1.22058 2.37400 0.98404 
-1.15673 2.85200 1.18217 
-1.15365 2.87400 1.19129 
-1.11989 3.00900 1.24725 
-1.03125 3.08200 1.27751 
-0.98087 3.21200 1.33139 
-0.96746 3.21200 1.33139 
-0.94854 3.23900 1.34258 
-0.92149 3.23900 1.34258 
-0.88092 3.23900 1.34258 
-0.80652 3.21200 1.33139 
-0.71407 3.15900 1.30942 
-0.55895 3.03300 1.25720 
-0.50830 3.03300 1.25720 
-0.43588 3.05800 1.26756 
-0.36209 3.08200 1.27751 
-0.30820 3.05800 1.26756 
-0.16506 3.00900 1.24725 
-0.05240 3.03300 1.25720 
0.01092 3.03300 1.25720 
0.02358 3.03300 1.25720 
0.14339 2.89500 1.19999 
0.15548 2.89500 1.19999 
0.21927 2.94000 1.21865 
0.28284 2.96300 1.22818 
0.31996 2.96300 1.22818 
1.46969 5.88000 2.43730 
1.59242 5.97200 2.47543 
1.61736 5.97200 2.47543 
1.76697 5.97200 2.47543 
1.92174 6.06700 2.51481 
2.18445 6.16500 2.55543 
2.28741 6.16500 2.55543 
2.53996 5.97200 2.47543 
2.58388 5.79100 2.40040 
2.60806 5.79100 2.40040 
2.63224 5.79100 2.40040 
2.09522 4.29400 1.77989 
2.02260 4.11000 1.70362 
1.81974 3.60600 1.49471 
1.79007 3.35300 1.38984 
1.88124 3.44300 1.42714 
1.88807 3.35300 1.38984 
2.05216 3.32400 1.37782 
2.17441 3.47500 1.44041 
2.46430 3.86100 1.60041 
2.70208 4.02300 1.66756 
2.84632 4.11000 1.70362 
2.94372 4.20000 1.74093 
3.03956 3.98100 1.65015 
3.01028 3.90000 1.61657 
2.90380 3.60600 1.49471 
2.89134 3.57200 1.48062 
2.89418 3.53900 1.46694 
2.88183 3.50600 1.45326 
2.93067 3.44300 1.42714 
3.00144 3.47500 1.44041 
-1.50697 1.64700 0.67581 
-1.47754 1.68400 0.69100 
-1.45523 1.69900 0.69715 
-1.43179 1.72200 0.70659 
-1.40298 1.78600 0.73285 
-1.39929 1.82000 0.74680 
-1.38845 1.84600 0.75747 
-1.38747 1.85500 0.76116 
-1.38355 1.89200 0.77635 
-1.35144 1.96000 0.80425 
-1.30451 2.00100 0.82107 
-1.30328 2.01200 0.82558 
-1.26304 2.22200 0.91175 
-1.25333 2.28900 0.93925 
-1.25084 2.30200 0.94458 
-1.23740 2.33100 0.95648 
-1.19045 2.43400 0.99874 
-1.18805 2.45000 1.00531 
-1.19320 2.48200 1.01844 
-1.19026 2.56500 1.05250 
-1.17564 2.73000 1.12020 
-1.17185 2.83100 1.16165 
-1.16864 2.85200 1.17026 
-1.15673 2.85200 1.17026 
-1.10733 3.00900 1.23468 
-1.07817 3.03300 1.24453 
-0.76629 3.21200 1.31798 
-0.62740 3.05800 1.25479 
-0.59694 3.03300 1.24453 
-0.57162 3.03300 1.24453 
-0.53363 3.03300 1.24453 
-0.42311 3.05800 1.25479 
-0.28266 3.05800 1.25479 
-0.16506 3.00900 1.23468 
-0.15133 2.98600 1.22525 
-0.08899 2.98600 1.22525 
-0.01429 3.00900 1.23468 
0.19472 2.94000 1.20637 
0.24573 2.96300 1.21581 
0.29751 2.98600 1.22525 
0.31996 2.96300 1.21581 
0.40038 2.91800 1.19734 
0.44023 2.94000 1.20637 
0.47706 2.94000 1.20637 
0.49316 2.96300 1.21581 
0.82882 3.98100 1.63353 
1.05460 4.77800 1.96056 
1.35448 5.70500 2.34094 
1.66723 5.97200 2.45049 
1.71710 5.97200 2.45049 
1.74203 5.97200 2.45049 
2.08148 6.16500 2.52969 
2.27256 6.26600 2.57113 
2.32489 6.26600 2.57113 
2.36463 6.16500 2.52969 
2.40304 6.06700 2.48948 
2.45371 6.06700 2.48948 
2.51503 5.97200 2.45049 
2.52538 5.88000 2.41274 
2.54993 5.88000 2.41274 
2.32026 4.83800 1.98518 
1.93554 3.90000 1.60029 
1.94848 3.53900 1.45216 
1.83336 3.18500 1.30690 
1.79981 3.08200 1.26464 
1.78386 3.03300 1.24453 
2.26493 3.57200 1.46570 
2.52176 3.90000 1.60029 
2.89413 4.15400 1.70451 
3.05483 4.02300 1.65076 
3.02470 3.94000 1.61670 
2.91439 3.47500 1.42590 
2.94505 3.44300 1.41277 
-1.49226 1.66900 0.67787 
-1.43230 1.71400 0.69615 
-1.38355 1.89200 0.76845 
-1.37351 1.91100 0.77616 
-1.34325 1.96000 0.79606 
-1.34188 1.97000 0.80013 
-1.33125 1.99100 0.80865 
-1.30328 2.01200 0.81718 
-1.27419 2.14700 0.87201 
-1.22767 2.33100 0.94675 
-1.21546 2.34500 0.95243 
-1.19837 2.38900 0.97030 
-1.19320 2.48200 1.00808 
-1.19046 2.49800 1.01458 
-1.18806 2.51500 1.02148 
-1.19026 2.56500 1.04179 
-1.18737 2.58200 1.04869 
-1.18724 2.65400 1.07794 
-1.18175 2.69200 1.09337 
-1.17878 2.71100 1.10109 
-1.16864 2.85200 1.15835 
-1.13989 2.96300 1.20344 
-1.00425 3.15900 1.28304 
-0.99922 3.18500 1.29360 
-0.97559 3.23900 1.31554 
-0.74655 3.18500 1.29360 
-0.71407 3.15900 1.28304 
-0.67637 3.10700 1.26192 
-0.52096 3.03300 1.23187 
-0.50830 3.03300 1.23187 
-0.41356 3.08200 1.25177 
-0.26769 3.03300 1.23187 
-0.21703 3.03300 1.23187 
-0.15133 2.98600 1.21278 
-0.11392 2.98600 1.21278 
-0.07652 2.98600 1.21278 
0.22098 2.96300 1.20344 
0.23336 2.96300 1.20344 
0.30997 2.98600 1.21278 
0.43694 2.91800 1.18516 
0.48933 2.94000 1.19410 
0.71384 3.57200 1.45079 
1.23308 5.38300 2.18633 
1.49268 5.97200 2.42556 
1.54255 5.97200 2.42556 
1.69216 5.97200 2.42556 
1.79508 6.06700 2.46414 
1.84574 6.06700 2.46414 
2.06326 6.26600 2.54497 
2.25709 6.37000 2.58721 
2.31028 6.37000 2.58721 
2.53996 5.97200 2.42556 
2.59315 5.70500 2.31712 
2.29149 4.77800 1.94061 
1.80521 3.15900 1.28304 
1.77826 2.94000 1.19410 
1.91819 3.10700 1.26192 
2.02674 3.23900 1.31554 
2.20343 3.47500 1.41139 
2.47133 3.82200 1.55233 
2.53805 3.90000 1.58401 
2.89413 4.15400 1.68717 
3.06532 4.24700 1.72494 
3.10079 4.24700 1.72494 
3.07050 4.06600 1.65143 
3.05483 4.02300 1.63396 
2.90625 3.57200 1.45079 
2.90895 3.53900 1.43738 
2.94038 3.50600 1.42398 
2.97380 3.44300 1.39839 
-1.50741 1.64000 0.65925 
-1.50697 1.64700 0.66206 
-1.48529 1.66900 0.67090 
-1.45523 1.69900 0.68296 
-1.45411 1.70600 0.68578 
-1.41741 1.72200 0.69221 
-1.39805 1.76100 0.70789 
-1.39778 1.83800 0.73884 
-1.37498 1.90200 0.76457 
-1.37267 1.92100 0.77220 
-1.37104 1.93000 0.77582 
-1.30328 2.01200 0.80878 
-1.26487 2.20900 0.88797 
-1.25517 2.27500 0.91450 
-1.24878 2.31600 0.93099 
-1.21287 2.35900 0.94827 
-1.20075 2.37400 0.95430 
-1.19837 2.38900 0.96033 
-1.19299 2.61800 1.05238 
-1.15673 2.85200 1.14645 
-1.09477 3.00900 1.20956 
-1.09084 3.03300 1.21921 
-1.04018 3.03300 1.21921 
-1.00425 3.15900 1.26985 
-0.99428 3.21200 1.29116 
-0.80652 3.21200 1.29116 
-0.79311 3.21200 1.29116 
-0.74655 3.18500 1.28031 
-0.48297 3.03300 1.21921 
-0.47031 3.03300 1.21921 
-0.37204 3.05800 1.22925 
-0.35927 3.05800 1.22925 
-0.28035 3.03300 1.21921 
-0.24236 3.03300 1.21921 
-0.10146 2.98600 1.20031 
0.23517 2.98600 1.20031 
0.37885 2.94000 1.18182 
0.43694 2.91800 1.17298 
0.46130 2.91800 1.17298 
0.59173 3.15900 1.26985 
0.98527 4.55000 1.82901 
1.23308 5.38300 2.16386 
1.42058 5.88000 2.36364 
1.61775 6.06700 2.43881 
1.66842 6.06700 2.43881 
1.74441 6.06700 2.43881 
1.90130 6.16500 2.47821 
1.92704 6.16500 2.47821 
1.95278 6.16500 2.47821 
2.03710 6.26600 2.51881 
2.17729 6.37000 2.56061 
2.41612 6.16500 2.47821 
2.46760 6.16500 2.47821 
2.47904 6.06700 2.43881 
2.52970 6.06700 2.43881 
2.61477 5.97200 2.40062 
2.62359 5.88000 2.36364 
2.14986 4.44400 1.78640 
2.07229 4.24700 1.70721 
1.89090 3.74700 1.50622 
1.86991 3.67500 1.47728 
1.85769 3.00900 1.20956 
2.02325 3.21200 1.29116 
2.89413 4.15400 1.66982 
2.98199 3.82200 1.53637 
2.94402 3.67500 1.47728 
2.92373 3.53900 1.42261 
2.95791 3.47500 1.39688 
-1.52111 1.64000 0.65240 
-1.46250 1.69100 0.67269 
-1.46123 1.70600 0.67865 
-1.44661 1.71400 0.68184 
-1.43945 1.71400 0.68184 
-1.40152 1.72900 0.68780 
-1.39929 1.82000 0.72400 
-1.38292 1.90200 0.75662 
-1.37104 1.93000 0.76776 
-1.29488 2.01200 0.80038 
-1.27260 2.10000 0.83539 
-1.27089 2.17200 0.86403 
-1.25904 2.24800 0.89426 
-1.25744 2.26200 0.89983 
-1.22767 2.33100 0.92728 
-1.21067 2.37400 0.94439 
-1.19815 2.58200 1.02713 
-1.19299 2.61800 1.04145 
-1.18724 2.65400 1.05577 
-1.16424 2.73000 1.08601 
-1.16316 2.81000 1.11783 
-1.12752 2.96300 1.17869 
-1.11133 2.98600 1.18784 
-1.08220 3.00900 1.19699 
-1.02322 3.05800 1.21649 
-0.92149 3.23900 1.28849 
-0.84676 3.21200 1.27775 
-0.77314 3.18500 1.26701 
-0.72726 3.15900 1.25666 
-0.52096 3.03300 1.20654 
-0.10146 2.98600 1.18784 
-0.08899 2.98600 1.18784 
-0.07652 2.98600 1.18784 
0.01083 3.00900 1.19699 
0.03596 3.00900 1.19699 
0.32244 2.98600 1.18784 
0.33491 2.98600 1.18784 
0.53851 3.00900 1.19699 
0.71384 3.57200 1.42096 
0.92232 4.34300 1.72767 
1.31107 5.62100 2.23606 
1.42058 5.88000 2.33909 
1.64309 6.06700 2.41348 
1.74441 6.06700 2.41348 
1.84981 6.16500 2.45247 
2.07091 6.37000 2.53402 
2.26830 6.47800 2.57698 
2.41667 6.37000 2.53402 
2.42954 6.26600 2.49264 
2.44186 6.16500 2.45247 
2.46760 6.16500 2.45247 
2.49334 6.16500 2.45247 
2.23504 4.15400 1.65248 
2.20467 4.06600 1.61747 
1.61705 2.73000 1.08601 
1.65125 2.73000 1.08601 
2.89413 4.15400 1.65248 
3.01386 4.20000 1.67078 
3.06532 4.24700 1.68948 
3.06941 4.11000 1.63498 
3.02293 3.98100 1.58366 
2.93391 3.60600 1.43448 
2.92373 3.53900 1.40783 
2.93851 3.53900 1.40783 
-1.54189 1.63300 0.64280 
-1.52825 1.63300 0.64280 
-1.51426 1.64000 0.64555 
-1.50741 1.64000 0.64555 
-1.46250 1.69100 0.66563 
-1.44661 1.71400 0.67468 
-1.39430 1.72900 0.68058 
-1.39169 1.75300 0.69003 
-1.39375 1.80300 0.70971 
-1.38355 1.89200 0.74475 
-1.38292 1.90200 0.74868 
-1.34325 1.96000 0.77151 
-1.34043 1.98000 0.77939 
-1.31168 2.01200 0.79198 
-1.27601 2.07700 0.81757 
-1.27260 2.10000 0.82662 
-1.27106 2.11200 0.83134 
-1.26717 2.19700 0.86480 
-1.20089 2.49800 0.98329 
-1.15365 2.87400 1.13129 
-1.09477 3.00900 1.18443 
-1.08220 3.00900 1.18443 
-1.01367 3.10700 1.22301 
-1.01744 3.15900 1.24347 
-0.90040 3.21200 1.26434 
-0.86017 3.21200 1.26434 
-0.83964 3.18500 1.25371 
-0.82634 3.18500 1.25371 
-0.64017 3.05800 1.20372 
-0.54629 3.03300 1.19388 
-0.48297 3.03300 1.19388 
-0.26769 3.03300 1.19388 
-0.20437 3.03300 1.19388 
-0.19170 3.03300 1.19388 
-0.12639 2.98600 1.17538 
-0.08899 2.98600 1.17538 
0.33491 2.98600 1.17538 
0.48567 2.91800 1.14861 
0.58199 3.10700 1.22301 
0.66175 3.38200 1.33125 
0.71384 3.57200 1.40604 
0.83756 4.02300 1.58357 
1.54176 6.06700 2.38815 
1.59240 6.16500 2.42672 
1.69537 6.16500 2.42672 
2.07897 6.47800 2.54993 
2.16011 6.47800 2.54993 
2.37650 6.47800 2.54993 
2.40354 6.47800 2.54993 
2.41667 6.37000 2.50742 
2.44326 6.37000 2.50742 
2.44186 6.16500 2.42672 
2.54482 6.16500 2.42672 
2.20852 4.60500 1.81266 
2.07229 4.24700 1.67174 
1.97574 3.98100 1.56704 
2.17521 3.98100 1.56704 
1.64141 2.83100 1.11436 
1.58316 2.71100 1.06713 
1.65074 2.69200 1.05965 
2.89413 4.15400 1.63514 
2.95476 3.74700 1.47493 
2.93608 3.57200 1.40604 
2.93851 3.53900 1.39305 
-1.50741 1.64000 0.63870 
-1.47906 1.66200 0.64727 
-1.47051 1.68400 0.65584 
-1.46233 1.69900 0.66168 
-1.43898 1.72200 0.67064 
-1.39857 1.82900 0.71231 
-1.37104 1.93000 0.75165 
-1.36897 1.95000 0.75943 
-1.32293 1.99100 0.77540 
-1.32009 2.01200 0.78358 
-1.23911 2.31600 0.90197 
-1.22767 2.33100 0.90782 
-1.22525 2.34500 0.91327 
-1.22272 2.35900 0.91872 
-1.20356 2.48200 0.96662 
-1.16424 2.73000 1.06321 
-1.16653 2.79000 1.08658 
-1.16316 2.81000 1.09437 
-1.13476 2.91800 1.13643 
-1.08220 3.00900 1.17187 
-1.03125 3.08200 1.20030 
-1.00425 3.15900 1.23028 
-0.99922 3.18500 1.24041 
-0.96746 3.21200 1.25093 
-0.81959 3.15900 1.23028 
-0.80640 3.15900 1.23028 
-0.76052 3.13300 1.22016 
-0.62227 3.03300 1.18121 
-0.58428 3.03300 1.18121 
-0.38481 3.05800 1.19095 
-0.36900 3.03300 1.18121 
-0.35633 3.03300 1.18121 
-0.29301 3.03300 1.18121 
-0.17904 3.03300 1.18121 
-0.05159 2.98600 1.16291 
0.08690 3.03300 1.18121 
0.24954 3.00900 1.17187 
0.26211 3.00900 1.17187 
0.27467 3.00900 1.17187 
0.35984 2.98600 1.16291 
0.45767 2.89500 1.12747 
0.61507 3.21200 1.25093 
1.44281 5.97200 2.32582 
1.51518 6.16500 2.40098 
1.80494 6.37000 2.48082 
1.88473 6.37000 2.48082 
2.11491 6.59000 2.56650 
2.14243 6.59000 2.56650 
2.19746 6.59000 2.56650 
2.28001 6.59000 2.56650 
2.33504 6.59000 2.56650 
2.41758 6.59000 2.56650 
2.40354 6.47800 2.52288 
2.45764 6.47800 2.52288 
2.55496 5.62100 2.18912 
2.30908 4.90000 1.90832 
2.10281 4.06600 1.58352 
1.69320 2.96300 1.15395 
3.02123 4.02300 1.56677 
2.96814 3.78400 1.47369 
-1.50780 1.63300 0.62916 
-1.49322 1.64700 0.63455 
-1.48665 1.65500 0.63764 
-1.47906 1.66200 0.64033 
-1.45411 1.70600 0.65728 
-1.44617 1.72200 0.66345 
-1.43898 1.72200 0.66345 
-1.42460 1.72200 0.66345 
-1.41741 1.72200 0.66345 
-1.40303 1.72200 0.66345 
-1.39430 1.72900 0.66615 
-1.39237 1.81100 0.69774 
-1.38747 1.85500 0.71469 
-1.38604 1.87400 0.72201 
-1.37565 1.89200 0.72895 
-1.34043 1.98000 0.76285 
-1.30132 2.02200 0.77903 
-1.27230 2.15900 0.83182 
-1.26487 2.20900 0.85108 
-1.26304 2.22200 0.85609 
-1.23504 2.34500 0.90348 
-1.20089 2.49800 0.96243 
-1.19565 2.60000 1.00172 
-1.19019 2.63600 1.01559 
-1.14482 2.85200 1.09881 
-1.14165 2.87400 1.10729 
-0.99106 3.15900 1.21709 
-0.95932 3.18500 1.22711 
-0.76718 3.10700 1.19706 
-0.71529 3.10700 1.19706 
-0.68380 3.08200 1.18743 
-0.29543 3.05800 1.17818 
-0.24435 3.05800 1.17818 
-0.12737 3.00900 1.15930 
-0.10146 2.98600 1.15044 
-0.06405 2.98600 1.15044 
-0.01418 2.98600 1.15044 
0.02358 3.03300 1.16855 
0.09957 3.03300 1.16855 
0.12490 3.03300 1.16855 
0.24954 3.00900 1.15930 
0.28723 3.00900 1.15930 
0.31236 3.00900 1.15930 
0.33491 2.98600 1.15044 
0.35984 2.98600 1.15044 
0.39113 2.94000 1.13272 
0.48184 2.89500 1.11538 
1.06784 4.83800 1.86398 
1.46576 6.06700 2.33748 
1.69855 6.37000 2.45422 
1.91668 6.47800 2.49583 
2.08740 6.59000 2.53899 
2.40378 6.70500 2.58329 
2.59904 5.88000 2.26544 
2.58388 5.79100 2.23115 
1.99659 4.02300 1.54998 
2.32695 4.39300 1.69253 
2.31860 4.34300 1.67326 
2.06299 3.74700 1.44364 
1.45120 2.45000 0.94393 
3.02293 3.98100 1.53379 
2.99399 3.90000 1.50259 
2.98199 3.82200 1.47253 
2.99795 3.82200 1.47253 
-1.48634 1.64700 0.62768 
-1.46348 1.68400 0.64178 
-1.45377 1.71400 0.65321 
-1.40152 1.72900 0.65893 
-1.39069 1.76100 0.67112 
-1.39169 1.82000 0.69361 
-1.39094 1.82900 0.69704 
-1.39011 1.83800 0.70047 
-1.38747 1.85500 0.70695 
-1.36775 1.89200 0.72105 
-1.32009 2.01200 0.76678 
-1.31168 2.01200 0.76678 
-1.30976 2.02200 0.77059 
-1.29142 2.03300 0.77478 
-1.27601 2.07700 0.79155 
-1.26467 2.27500 0.86701 
-1.25517 2.27500 0.86701 
-1.25084 2.30200 0.87730 
-1.22525 2.34500 0.89369 
-1.21067 2.37400 0.90474 
-1.20834 2.38900 0.91045 
-1.21341 2.41900 0.92189 
-1.17341 2.67300 1.01869 
-1.16653 2.79000 1.06328 
-1.15488 2.79000 1.06328 
-1.14165 2.87400 1.09529 
-1.03125 3.08200 1.17456 
-1.01744 3.15900 1.20390 
-0.92511 3.15900 1.20390 
-0.81907 3.10700 1.18409 
-0.79313 3.10700 1.18409 
-0.74814 3.08200 1.17456 
-0.67093 3.08200 1.17456 
-0.65806 3.08200 1.17456 
-0.58910 3.05800 1.16541 
-0.57633 3.05800 1.16541 
-0.42311 3.05800 1.16541 
-0.35927 3.05800 1.16541 
-0.21882 3.05800 1.16541 
-0.08968 3.00900 1.14674 
0.20088 3.03300 1.15589 
0.21354 3.03300 1.15589 
0.23887 3.03300 1.15589 
0.27467 3.00900 1.14674 
0.28723 3.00900 1.14674 
0.33491 2.98600 1.13797 
0.44558 2.89500 1.10329 
0.45435 2.87400 1.09529 
0.47835 2.87400 1.09529 
0.97380 4.49700 1.71382 
1.83976 6.59000 2.51147 
1.86727 6.59000 2.51147 
1.89479 6.59000 2.51147 
2.43178 6.70500 2.55530 
2.53419 6.26600 2.38799 
2.51908 6.16500 2.34950 
2.54482 6.16500 2.34950 
2.58037 6.06700 2.31215 
2.58983 5.97200 2.27595 
2.54550 5.70500 2.17419 
2.43486 5.30800 2.02290 
2.05456 4.24700 1.61855 
2.32695 4.39300 1.67419 
2.15280 3.94000 1.50155 
2.06299 3.74700 1.42799 
1.50748 2.60000 0.99087 
1.38071 2.33100 0.88835 
1.34251 2.23500 0.85177 
2.87679 4.15400 1.58310 
2.91148 4.15400 1.58310 
2.98199 3.82200 1.45658 
2.97041 3.74700 1.42799 
2.97286 3.71100 1.41427 
2.95936 3.67500 1.40055 
2.97677 3.64000 1.38722 
2.97908 3.60600 1.37426 
-1.46348 1.68400 0.63475 
-1.45411 1.70600 0.64304 
-1.43898 1.72200 0.64907 
-1.39350 1.73700 0.65472 
-1.39069 1.76100 0.66377 
-1.38927 1.77800 0.67018 
-1.38330 1.82900 0.68940 
-1.37864 1.86400 0.70259 
-1.36553 1.91100 0.72031 
-1.29991 2.03300 0.76629 
-1.28293 2.03300 0.76629 
-1.27419 2.14700 0.80926 
-1.27230 2.15900 0.81379 
-1.21593 2.40400 0.90613 
-1.20089 2.49800 0.94157 
-1.19019 2.63600 0.99358 
-1.16746 2.71100 1.02185 
-1.15488 2.79000 1.05163 
-1.14165 2.87400 1.08329 
-1.12258 2.91800 1.09988 
-1.11515 2.96300 1.11684 
-1.04412 3.08200 1.16169 
-1.02664 3.10700 1.17111 
-1.00425 3.15900 1.19071 
-0.96468 3.15900 1.19071 
-0.90442 3.13300 1.18091 
-0.83205 3.10700 1.17111 
-0.72240 3.08200 1.16169 
-0.67093 3.08200 1.16169 
-0.48695 3.05800 1.15265 
-0.43588 3.05800 1.15265 
-0.19480 3.08200 1.16169 
-0.14221 3.05800 1.15265 
-0.09039 3.03300 1.14322 
-0.00174 3.03300 1.14322 
0.15265 3.08200 1.16169 
0.23887 3.03300 1.14322 
0.29980 3.00900 1.13418 
0.34738 2.98600 1.12551 
0.50235 2.87400 1.08329 
1.05460 4.77800 1.80096 
1.33066 5.70500 2.15037 
1.72969 6.59000 2.48395 
1.95585 6.70500 2.52730 
2.06783 6.70500 2.52730 
2.21883 6.82500 2.57253 
2.33281 6.82500 2.57253 
2.31979 6.70500 2.52730 
2.34779 6.70500 2.52730 
2.40378 6.70500 2.52730 
2.47262 6.59000 2.48395 
2.50013 6.59000 2.48395 
2.54482 6.16500 2.32376 
2.55503 6.06700 2.28682 
2.58983 5.97200 2.25101 
2.19645 4.66100 1.75686 
2.08286 4.34300 1.63700 
2.01338 4.02300 1.51638 
1.37098 2.33100 0.87862 
1.28773 2.10000 0.79155 
2.98360 4.11000 1.54917 
2.99399 3.90000 1.47002 
-1.54823 1.64700 0.61392 
-1.54135 1.64700 0.61392 
-1.49322 1.64700 0.61392 
-1.48665 1.65500 0.61690 
-1.47974 1.65500 0.61690 
-1.46348 1.68400 0.62771 
-1.45523 1.69900 0.63331 
-1.44698 1.70600 0.63592 
-1.43898 1.72200 0.64188 
-1.38962 1.76900 0.65940 
-1.38679 1.79400 0.66872 
-1.38481 1.81100 0.67505 
-1.35011 1.97000 0.73432 
-1.32849 2.01200 0.74998 
-1.30132 2.02200 0.75370 
-1.27089 2.17200 0.80962 
-1.26717 2.19700 0.81894 
-1.26304 2.22200 0.82826 
-1.25084 2.30200 0.85808 
-1.18724 2.65400 0.98928 
-1.14821 2.83100 1.05526 
-1.11039 2.91800 1.08769 
-1.08640 2.98600 1.11304 
-1.07393 2.98600 1.11304 
-1.04875 3.05800 1.13988 
-0.93058 3.13300 1.16783 
-0.73527 3.08200 1.14882 
-0.68935 3.10700 1.15814 
-0.67637 3.10700 1.15814 
-0.58085 3.08200 1.14882 
-0.56798 3.08200 1.14882 
-0.42643 3.08200 1.14882 
-0.38783 3.08200 1.14882 
-0.25914 3.08200 1.14882 
-0.23340 3.08200 1.14882 
-0.18193 3.08200 1.14882 
-0.00174 3.03300 1.13056 
0.08831 3.08200 1.14882 
0.10118 3.08200 1.14882 
0.15265 3.08200 1.14882 
0.19126 3.08200 1.14882 
0.47469 2.85200 1.06309 
0.95128 4.39300 1.63750 
1.33066 5.70500 2.12655 
1.41787 5.97200 2.22608 
1.61915 6.47800 2.41469 
1.81587 6.70500 2.49931 
1.93386 6.82500 2.54404 
2.16183 6.82500 2.54404 
2.21883 6.82500 2.54404 
2.30432 6.82500 2.54404 
2.48777 6.70500 2.49931 
2.55516 6.59000 2.45644 
2.52970 6.06700 2.26149 
2.53996 5.97200 2.22608 
2.54993 5.88000 2.19178 
2.33761 5.09600 1.89955 
2.05936 4.29400 1.60060 
2.02691 4.15400 1.54841 
2.26420 4.34300 1.61886 
2.29244 4.29400 1.60060 
2.25979 4.20000 1.56556 
2.13095 3.90000 1.45373 
1.70693 3.00900 1.12161 
1.32385 2.23500 0.83310 
2.86348 4.11000 1.53201 
2.97084 4.02300 1.49958 
3.02470 3.94000 1.46864 
-1.39069 1.76100 0.64906 
-1.37476 1.83800 0.67744 
-1.30840 2.03300 0.74932 
-1.28987 2.04400 0.75337 
-1.27466 2.08900 0.76996 
-1.26467 2.27500 0.83851 
-1.24878 2.31600 0.85362 
-1.23740 2.33100 0.85915 
-1.21832 2.38900 0.88053 
-1.17615 2.65400 0.97820 
-1.16746 2.71100 0.99921 
-1.16424 2.73000 1.00622 
-1.03125 3.08200 1.13595 
-1.02664 3.10700 1.14517 
-0.90442 3.13300 1.15475 
-0.87097 3.10700 1.14517 
-0.70954 3.08200 1.13595 
-0.67637 3.10700 1.14517 
-0.65043 3.10700 1.14517 
-0.62448 3.10700 1.14517 
-0.61151 3.10700 1.14517 
-0.59854 3.10700 1.14517 
-0.54225 3.08200 1.13595 
-0.46504 3.08200 1.13595 
-0.34922 3.08200 1.13595 
-0.28488 3.08200 1.13595 
-0.18193 3.08200 1.13595 
-0.14333 3.08200 1.13595 
0.07544 3.08200 1.13595 
0.17839 3.08200 1.13595 
0.28504 2.98600 1.10057 
0.34470 2.96300 1.09209 
0.48301 2.83100 1.04344 
0.95128 4.39300 1.61916 
1.41787 5.97200 2.20114 
1.67466 6.59000 2.42892 
1.79138 6.82500 2.51554 
1.96236 6.82500 2.51554 
2.01935 6.82500 2.51554 
2.10484 6.82500 2.51554 
2.21883 6.82500 2.51554 
2.50013 6.59000 2.42892 
2.51908 6.16500 2.27228 
2.48716 5.79100 2.13443 
2.04426 4.15400 1.53107 
2.07408 4.11000 1.51485 
2.11363 4.15400 1.53107 
2.21137 4.11000 1.51485 
2.18136 4.02300 1.48279 
2.04317 3.71100 1.36779 
1.70693 3.00900 1.10905 
1.62977 2.85200 1.05118 
3.00825 3.94000 1.45219 
3.02470 3.94000 1.45219 
-1.54884 1.65500 0.60308 
-1.50741 1.64000 0.59762 
-1.50009 1.64700 0.60017 
-1.49322 1.64700 0.60017 
-1.47832 1.66900 0.60819 
-1.47051 1.68400 0.61365 
-1.40874 1.72900 0.63005 
-1.39169 1.75300 0.63880 
-1.38622 1.80300 0.65702 
-1.38481 1.81100 0.65993 
-1.37566 1.82900 0.66649 
-1.34188 1.97000 0.71787 
-1.32009 2.01200 0.73318 
-1.26879 2.18400 0.79585 
-1.26487 2.20900 0.80496 
-1.25084 2.30200 0.83885 
-1.23504 2.34500 0.85452 
-1.19562 2.53100 0.92230 
-1.19301 2.54800 0.92850 
-1.19565 2.60000 0.94744 
-1.15817 2.77000 1.00939 
-1.15143 2.81000 1.02397 
-1.08640 2.98600 1.08810 
-1.07393 2.98600 1.08810 
-0.90442 3.13300 1.14167 
-0.87097 3.10700 1.13220 
-0.85799 3.10700 1.13220 
-0.61663 3.13300 1.14167 
-0.57259 3.10700 1.13220 
-0.52938 3.08200 1.12309 
-0.51651 3.08200 1.12309 
-0.50364 3.08200 1.12309 
-0.47791 3.08200 1.12309 
-0.41356 3.08200 1.12309 
-0.29775 3.08200 1.12309 
-0.23530 3.10700 1.13220 
-0.20935 3.10700 1.13220 
-0.15746 3.10700 1.13220 
-0.11759 3.08200 1.12309 
-0.10472 3.08200 1.12309 
0.06308 3.10700 1.13220 
0.15265 3.08200 1.12309 
0.22621 3.03300 1.10523 
0.45937 2.83100 1.03162 
1.33066 5.70500 2.07891 
1.70389 6.70500 2.44331 
1.79138 6.82500 2.48704 
1.81987 6.82500 2.48704 
1.87687 6.82500 2.48704 
1.96236 6.82500 2.48704 
2.16183 6.82500 2.48704 
2.25914 6.94900 2.53223 
2.28816 6.94900 2.53223 
2.31717 6.94900 2.53223 
2.33281 6.82500 2.48704 
2.41831 6.82500 2.48704 
2.48186 6.26600 2.28334 
2.50437 6.06700 2.21083 
2.43762 5.62100 2.04830 
2.11363 4.15400 1.51372 
2.22472 4.20000 1.53049 
2.11466 3.90000 1.42117 
2.00408 3.64000 1.32642 
1.70693 3.00900 1.09648 
1.64234 2.87400 1.04729 
1.27524 2.12300 0.77362 
2.95166 4.06600 1.48166 
2.98562 4.06600 1.48166 
2.97535 3.94000 1.43574 
3.02470 3.94000 1.43574 
3.02854 3.86100 1.40696 
3.04582 3.82200 1.39274 
-1.45523 1.69900 0.61202 
-1.42460 1.72200 0.62031 
-1.38061 1.78600 0.64336 
-1.37930 1.79400 0.64625 
-1.36803 1.82900 0.65885 
-1.35985 1.89200 0.68155 
-1.33125 1.99100 0.71721 
-1.32009 2.01200 0.72477 
-1.31820 2.02200 0.72838 
-1.27230 2.15900 0.77773 
-1.20061 2.43400 0.87679 
-1.20610 2.46600 0.88832 
-1.19562 2.53100 0.91173 
-1.19026 2.56500 0.92398 
-1.18479 2.60000 0.93659 
-1.17615 2.65400 0.95604 
-1.10649 2.94000 1.05907 
-1.09040 2.96300 1.06735 
-1.04875 3.05800 1.10157 
-1.03125 3.08200 1.11022 
-1.02664 3.10700 1.11922 
-0.92511 3.15900 1.13796 
-0.73527 3.08200 1.11022 
-0.70232 3.10700 1.11922 
-0.60354 3.13300 1.12859 
-0.59046 3.13300 1.12859 
-0.54665 3.10700 1.11922 
-0.45217 3.08200 1.11022 
-0.43930 3.08200 1.11022 
-0.42643 3.08200 1.11022 
-0.41356 3.08200 1.11022 
-0.22232 3.10700 1.11922 
-0.18341 3.10700 1.11922 
-0.17043 3.10700 1.11922 
-0.06611 3.08200 1.11022 
-0.05325 3.08200 1.11022 
-0.04038 3.08200 1.11022 
-0.02751 3.08200 1.11022 
0.06308 3.10700 1.11922 
0.24764 2.98600 1.07564 
0.32975 2.94000 1.05907 
0.35165 2.91800 1.05114 
0.53441 2.91800 1.05114 
0.55502 2.96300 1.06735 
1.70389 6.70500 2.41532 
1.81987 6.82500 2.45854 
1.93386 6.82500 2.45854 
1.96236 6.82500 2.45854 
2.30432 6.82500 2.45854 
2.40378 6.70500 2.41532 
2.53878 6.47800 2.33355 
2.46515 5.97200 2.15127 
2.40206 5.53900 1.99529 
2.39059 5.46000 1.96684 
2.04426 4.15400 1.49638 
2.07894 4.15400 1.49638 
2.09629 4.15400 1.49638 
2.11363 4.15400 1.49638 
2.14832 4.15400 1.49638 
2.16567 4.15400 1.49638 
1.96664 3.57200 1.28673 
1.81035 3.23900 1.16677 
2.96644 4.11000 1.48053 
3.00076 4.11000 1.48053 
3.04285 3.90000 1.40488 
-1.52811 1.65500 0.58926 
-1.50009 1.64700 0.58642 
-1.50047 1.65500 0.58926 
-1.49356 1.65500 0.58926 
-1.48665 1.65500 0.58926 
-1.47832 1.66900 0.59425 
-1.45523 1.69900 0.60493 
-1.43986 1.70600 0.60742 
-1.41741 1.72200 0.61312 
-1.40152 1.72900 0.61561 
-1.39263 1.74500 0.62131 
-1.35529 1.86400 0.66368 
-1.30840 2.03300 0.72385 
-1.27966 2.05500 0.73168 
-1.27599 2.13500 0.76017 
-1.27791 2.18400 0.77761 
