ply
format ascii 1.0
comment pointcloud saved from Realsense Viewer
element vertex 1818
property float32 x
property float32 y
property float32 z
end_header
-1.36083 -0.258308 -1.95 
-1.35962 -0.259633 -1.96 
-1.35833 -0.260958 -1.97 
-1.35696 -0.262282 -1.98 
-1.35619 -0.26374 -1.991 
-1.34787 -0.26374 -1.991 
-1.34629 -0.265064 -2.001 
-1.34529 -0.266521 -2.012 
-1.34353 -0.267846 -2.022 
-1.34235 -0.269303 -2.033 
-1.34108 -0.27076 -2.044 
-1.33255 -0.27076 -2.044 
-1.32401 -0.27076 -2.044 
-1.32256 -0.272217 -2.055 
-1.32101 -0.273674 -2.066 
-1.31937 -0.275132 -2.077 
-1.31827 -0.276721 -2.089 
-1.30955 -0.276721 -2.089 
-1.30768 -0.278178 -2.1 
-1.30633 -0.279768 -2.112 
-1.30427 -0.281225 -2.123 
-1.29541 -0.281225 -2.123 
-1.29381 -0.282815 -2.135 
-1.29212 -0.284404 -2.147 
-1.29033 -0.285994 -2.159 
-1.28131 -0.285994 -2.159 
-1.27996 -0.287716 -2.172 
-1.28552 -0.291027 -2.197 
-1.29087 -0.294339 -2.222 
-1.28909 -0.296061 -2.235 
-1.2872 -0.297783 -2.248 
-1.29316 -0.30136 -2.275 
-1.2989 -0.304936 -2.302 
-1.29713 -0.306791 -2.316 
-1.30358 -0.310632 -2.345 
-1.30151 -0.312487 -2.359 
-1.29166 -0.312487 -2.359 
-1.28181 -0.312487 -2.359 
-1.28005 -0.314474 -2.374 
-1.27816 -0.316461 -2.389 
-1.26819 -0.316461 -2.389 
-1.26611 -0.318448 -2.404 
-1.25608 -0.318448 -2.404 
-1.25381 -0.320435 -2.419 
-1.24371 -0.320435 -2.419 
-1.24126 -0.322422 -2.434 
-1.2311 -0.322422 -2.434 
-1.22094 -0.322422 -2.434 
-1.21873 -0.324541 -2.45 
-1.2164 -0.326661 -2.466 
-1.21393 -0.32878 -2.482 
-1.21132 -0.3309 -2.498 
-1.20906 -0.333152 -2.515 
-1.20619 -0.335271 -2.531 
-1.21168 -0.339775 -2.565 
-1.20893 -0.342027 -2.582 
-1.2065 -0.344411 -2.6 
-1.2122 -0.34918 -2.636 
-1.2094 -0.351564 -2.654 
-1.2069 -0.354081 -2.673 
-1.20423 -0.356598 -2.692 
-1.20141 -0.359115 -2.711 
-1.19844 -0.361632 -2.73 
-1.19573 -0.364281 -2.75 
-1.19286 -0.36693 -2.77 
-1.18983 -0.36958 -2.79 
-1.18662 -0.372229 -2.81 
-1.18367 -0.375011 -2.831 
-1.18054 -0.377793 -2.852 
-1.17765 -0.380707 -2.874 
-1.17417 -0.383489 -2.895 
-1.16208 -0.383489 -2.895 
-1.15913 -0.386535 -2.918 
-1.15559 -0.38945 -2.94 
-1.15226 -0.392496 -2.963 
-1.14874 -0.395543 -2.986 
-1.13627 -0.395543 -2.986 
-1.14149 -0.401769 -3.033 
-1.12883 -0.401769 -3.033 
-1.12536 -0.405081 -3.058 
-1.12133 -0.40826 -3.082 
-1.10846 -0.40826 -3.082 
-1.10448 -0.411571 -3.107 
-1.0915 -0.411571 -3.107 
-1.08756 -0.415016 -3.133 
-1.07448 -0.415016 -3.133 
-1.0702 -0.41846 -3.159 
-1.05701 -0.41846 -3.159 
-1.04382 -0.41846 -3.159 
-1.02215 -0.415016 -3.133 
-1.00069 -0.411571 -3.107 
-0.979774 -0.40826 -3.082 
-0.951533 -0.401769 -3.033 
-0.92432 -0.395543 -2.986 
-0.904829 -0.392496 -2.963 
-0.88553 -0.38945 -2.94 
-0.859888 -0.383489 -2.895 
-0.835208 -0.377793 -2.852 
-0.817238 -0.375011 -2.831 
-0.799443 -0.372229 -2.81 
-0.78771 -0.372229 -2.81 
-0.775977 -0.372229 -2.81 
-0.758805 -0.36958 -2.79 
-0.747156 -0.36958 -2.79 
-0.735507 -0.36958 -2.79 
-0.718669 -0.36693 -2.77 
-0.707103 -0.36693 -2.77 
-0.695537 -0.36693 -2.77 
-0.683971 -0.36693 -2.77 
-0.672406 -0.36693 -2.77 
-0.656068 -0.364281 -2.75 
-0.644586 -0.364281 -2.75 
-0.6285 -0.361632 -2.73 
-0.612806 -0.359115 -2.711 
-0.597271 -0.356598 -2.692 
-0.577759 -0.351564 -2.654 
-0.562834 -0.34918 -2.636 
-0.544291 -0.344411 -2.6 
-0.529742 -0.342027 -2.582 
-0.515545 -0.339775 -2.565 
-0.501489 -0.337523 -2.548 
-0.49085 -0.337523 -2.548 
-0.477008 -0.335271 -2.531 
-0.469573 -0.337523 -2.548 
-0.455872 -0.335271 -2.531 
-0.448295 -0.337523 -2.548 
-0.437656 -0.337523 -2.548 
-0.427017 -0.337523 -2.548 
-0.419157 -0.339775 -2.565 
-0.411154 -0.342027 -2.582 
-0.400373 -0.342027 -2.582 
-0.389592 -0.342027 -2.582 
-0.381452 -0.344411 -2.6 
-0.373162 -0.346796 -2.618 
-0.362231 -0.346796 -2.618 
-0.353715 -0.34918 -2.636 
-0.342709 -0.34918 -2.636 
-0.333968 -0.351564 -2.654 
-0.322886 -0.351564 -2.654 
-0.314037 -0.354081 -2.673 
-0.302877 -0.354081 -2.673 
-0.293789 -0.356598 -2.692 
-0.282549 -0.356598 -2.692 
-0.275139 -0.361632 -2.73 
-0.265672 -0.364281 -2.75 
-0.257888 -0.36958 -2.79 
-0.249857 -0.375011 -2.831 
-0.241652 -0.380707 -2.874 
-0.233168 -0.386535 -2.918 
-0.224392 -0.392496 -2.963 
-0.215312 -0.39859 -3.009 
-0.20605 -0.405081 -3.058 
-0.194799 -0.40826 -3.082 
-0.183406 -0.411571 -3.107 
-0.171859 -0.415016 -3.133 
-0.158778 -0.415016 -3.133 
-0.145697 -0.415016 -3.133 
-0.132615 -0.415016 -3.133 
-0.119534 -0.415016 -3.133 
-0.106452 -0.415016 -3.133 
-0.0918511 -0.40826 -3.082 
-0.0783676 -0.405081 -3.058 
-0.0650631 -0.401769 -3.033 
-0.0519846 -0.39859 -3.009 
-0.0388183 -0.392496 -2.963 
-0.0262414 -0.38945 -2.94 
-0.0138613 -0.386535 -2.918 
-0.00167764 -0.386535 -2.918 
0.0103476 -0.380707 -2.874 
0.0221766 -0.377793 -2.852 
0.0340847 -0.377793 -2.852 
0.0459928 -0.377793 -2.852 
0.0579009 -0.377793 -2.852 
0.069809 -0.377793 -2.852 
0.0823475 -0.380707 -2.874 
0.0943475 -0.380707 -2.874 
0.106347 -0.380707 -2.874 
0.119212 -0.383489 -2.895 
0.1313 -0.383489 -2.895 
0.143388 -0.383489 -2.895 
0.15671 -0.386535 -2.918 
0.170167 -0.38945 -2.94 
0.182443 -0.38945 -2.94 
0.196242 -0.392496 -2.963 
0.208613 -0.392496 -2.963 
0.2227 -0.395543 -2.986 
0.235168 -0.395543 -2.986 
0.247636 -0.395543 -2.986 
0.260103 -0.395543 -2.986 
0.270471 -0.392496 -2.963 
0.280647 -0.38945 -2.94 
0.292923 -0.38945 -2.94 
0.305199 -0.38945 -2.94 
0.315098 -0.386535 -2.918 
0.327282 -0.386535 -2.918 
0.33679 -0.383489 -2.895 
0.348878 -0.383489 -2.895 
0.360965 -0.383489 -2.895 
0.373053 -0.383489 -2.895 
0.385141 -0.383489 -2.895 
0.397228 -0.383489 -2.895 
0.406347 -0.380707 -2.874 
0.418347 -0.380707 -2.874 
0.430347 -0.380707 -2.874 
0.442347 -0.380707 -2.874 
0.457667 -0.383489 -2.895 
0.473486 -0.386535 -2.918 
0.489332 -0.38945 -2.94 
0.501607 -0.38945 -2.94 
0.525943 -0.39859 -3.009 
0.547276 -0.405081 -3.058 
0.578542 -0.41846 -3.159 
0.606717 -0.429057 -3.239 
0.647624 -0.448 -3.382 
0.692465 -0.468797 -3.539 
0.748809 -0.49635 -3.747 
0.812194 -0.527347 -3.981 
0.884196 -0.562582 -4.247 
0.966276 -0.60272 -4.55 
1.06106 -0.649083 -4.9 
1.15568 -0.693591 -5.236 
1.26413 -0.744591 -5.621 
1.368 -0.791086 -5.972 
1.51096 -0.858114 -6.478 
1.64983 -0.920505 -6.949 
1.81052 -0.992699 -7.494 
1.99861 -1.07721 -8.132 
2.17104 -1.1506 -8.686 
2.36892 -1.23485 -9.322 
2.53131 -1.29817 -9.8 
2.71134 -1.36837 -10.33 
2.9118 -1.44653 -10.92 
3.04433 -1.48905 -11.241 
3.18503 -1.53422 -11.582 
3.1382 -1.48905 -11.241 
3.09418 -1.44653 -10.92 
2.81774 -1.29817 -9.8 
2.65447 -1.20544 -9.1 
2.45843 -1.10066 -8.309 
2.29359 -1.01257 -7.644 
2.11407 -0.920505 -6.949 
1.96452 -0.843808 -6.37 
1.83795 -0.778899 -5.88 
1.75449 -0.733728 -5.539 
1.75226 -0.723264 -5.46 
1.80075 -0.733728 -5.539 
1.87853 -0.755718 -5.705 
1.99139 -0.791086 -5.972 
2.1507 -0.843808 -6.37 
2.3752 -0.920505 -6.949 
2.64467 -1.01257 -7.644 
2.97387 -1.12503 -8.493 
3.38563 -1.26571 -9.555 
3.51336 -1.29817 -9.8 
3.7465 -1.36837 -10.33 
3.78963 -1.36837 -10.33 
3.83276 -1.36837 -10.33 
3.98358 -1.40639 -10.617 
4.02791 -1.40639 -10.617 
4.07224 -1.40639 -10.617 
4.23405 -1.44653 -10.92 
4.27964 -1.44653 -10.92 
4.45238 -1.48905 -11.241 
4.37083 -1.44653 -10.92 
4.54625 -1.48905 -11.241 
4.59319 -1.48905 -11.241 
4.64012 -1.48905 -11.241 
4.55321 -1.44653 -10.92 
4.59881 -1.44653 -10.92 
4.6444 -1.44653 -10.92 
4.69 -1.44653 -10.92 
4.60419 -1.40639 -10.617 
4.78119 -1.44653 -10.92 
4.82678 -1.44653 -10.92 
4.87238 -1.44653 -10.92 
4.91797 -1.44653 -10.92 
4.96357 -1.44653 -10.92 
5.00916 -1.44653 -10.92 
5.05476 -1.44653 -10.92 
5.10035 -1.44653 -10.92 
5.14595 -1.44653 -10.92 
5.19154 -1.44653 -10.92 
5.23714 -1.44653 -10.92 
5.28273 -1.44653 -10.92 
5.32833 -1.44653 -10.92 
5.37392 -1.44653 -10.92 
5.41952 -1.44653 -10.92 
5.31347 -1.40639 -10.617 
5.3578 -1.40639 -10.617 
5.40213 -1.40639 -10.617 
5.29923 -1.36837 -10.33 
5.34236 -1.36837 -10.33 
5.24369 -1.33234 -10.058 
5.28568 -1.33234 -10.058 
5.32768 -1.33234 -10.058 
5.36967 -1.33234 -10.058 
5.41167 -1.33234 -10.058 
5.31377 -1.29817 -9.8 
5.35469 -1.29817 -9.8 
5.26072 -1.26571 -9.555 
5.30061 -1.26571 -9.555 
5.0862 -1.20544 -9.1 
4.78239 -1.12503 -8.493 
4.61307 -1.07721 -8.132 
4.4573 -1.03323 -7.8 
4.31373 -0.992699 -7.494 
4.18094 -0.955211 -7.211 
4.05804 -0.920505 -6.949 
3.87591 -0.87295 -6.59 
3.83709 -0.858114 -6.478 
3.73768 -0.830031 -6.266 
3.70317 -0.816652 -6.165 
3.66964 -0.80367 -6.067 
3.63711 -0.791086 -5.972 
3.55106 -0.76711 -5.791 
3.52214 -0.755718 -5.705 
3.44278 -0.733728 -5.539 
3.41648 -0.723264 -5.46 
3.34353 -0.703129 -5.308 
3.27502 -0.684186 -5.165 
3.25255 -0.675046 -5.096 
3.14791 -0.649083 -4.9 
3.08948 -0.632922 -4.778 
3.07104 -0.625106 -4.719 
3.05275 -0.617423 -4.661 
3.0353 -0.610005 -4.605 
3.05453 -0.610005 -4.605 
3.11114 -0.617423 -4.661 
3.1306 -0.617423 -4.661 
3.18926 -0.625106 -4.719 
3.24908 -0.632922 -4.778 
3.39629 -0.657561 -4.964 
3.46176 -0.666171 -5.029 
3.52916 -0.675046 -5.096 
3.59851 -0.684186 -5.165 
3.57171 -0.675046 -5.096 
3.59299 -0.675046 -5.096 
3.56675 -0.666171 -5.029 
3.49571 -0.649083 -4.9 
3.42863 -0.632922 -4.778 
3.36413 -0.617423 -4.661 
3.30301 -0.60272 -4.55 
3.28332 -0.595699 -4.497 
3.26318 -0.588678 -4.444 
3.24407 -0.581923 -4.393 
3.22528 -0.575299 -4.343 
3.20682 -0.568808 -4.294 
3.18945 -0.562582 -4.247 
3.20719 -0.562582 -4.247 
3.18923 -0.556357 -4.2 
3.13805 -0.544435 -4.11 
3.15521 -0.544435 -4.11 
3.17237 -0.544435 -4.11 
3.15539 -0.538606 -4.066 
3.17236 -0.538606 -4.066 
3.18934 -0.538606 -4.066 
3.20632 -0.538606 -4.066 
3.25817 -0.544435 -4.11 
3.3104 -0.550263 -4.154 
3.36459 -0.556357 -4.2 
3.38213 -0.556357 -4.2 
3.39967 -0.556357 -4.2 
3.4172 -0.556357 -4.2 
3.39712 -0.550263 -4.154 
3.3783 -0.544435 -4.11 
3.35911 -0.538606 -4.066 
3.23825 -0.516617 -3.9 
3.15774 -0.501251 -3.784 
3.05277 -0.482176 -3.64 
2.95502 -0.464425 -3.506 
2.9163 -0.45608 -3.443 
2.90514 -0.452106 -3.413 
2.86807 -0.444158 -3.353 
2.83221 -0.436475 -3.295 
2.7976 -0.429057 -3.239 
2.76426 -0.421904 -3.185 
2.77756 -0.421904 -3.185 
2.79086 -0.421904 -3.185 
2.78126 -0.41846 -3.159 
2.81745 -0.421904 -3.185 
2.80764 -0.41846 -3.159 
2.82083 -0.41846 -3.159 
2.83402 -0.41846 -3.159 
2.84721 -0.41846 -3.159 
2.88395 -0.421904 -3.185 
2.89724 -0.421904 -3.185 
2.91054 -0.421904 -3.185 
2.92384 -0.421904 -3.185 
2.93714 -0.421904 -3.185 
2.95044 -0.421904 -3.185 
2.96374 -0.421904 -3.185 
2.97704 -0.421904 -3.185 
3.53911 -0.482176 -3.64 
-1.5217 -0.222179 -1.626 
-1.50932 -0.221359 -1.62 
-1.50812 -0.222179 -1.626 
-1.49579 -0.221359 -1.62 
-1.48903 -0.221359 -1.62 
-1.48226 -0.221359 -1.62 
-1.4755 -0.221359 -1.62 
-1.46874 -0.221359 -1.62 
-1.46739 -0.222179 -1.626 
-1.4606 -0.222179 -1.626 
-1.46007 -0.223135 -1.633 
-1.45948 -0.224092 -1.64 
-1.45883 -0.225048 -1.647 
-1.45195 -0.225048 -1.647 
-1.4521 -0.226141 -1.655 
-1.4513 -0.227098 -1.662 
-1.45044 -0.228054 -1.669 
-1.44953 -0.229011 -1.676 
-1.44942 -0.230104 -1.684 
-1.44239 -0.230104 -1.684 
-1.44132 -0.23106 -1.691 
-1.44105 -0.232153 -1.699 
-1.43986 -0.23311 -1.706 
-1.43274 -0.23311 -1.706 
-1.4323 -0.234203 -1.714 
-1.43179 -0.235296 -1.722 
-1.4246 -0.235296 -1.722 
-1.41741 -0.235296 -1.722 
-1.41596 -0.236253 -1.729 
-1.40874 -0.236253 -1.729 
-1.408 -0.237346 -1.737 
-1.4072 -0.238439 -1.745 
-1.40633 -0.239532 -1.753 
-1.39901 -0.239532 -1.753 
-1.39805 -0.240625 -1.761 
-1.39701 -0.241718 -1.769 
-1.39669 -0.242948 -1.778 
-1.39552 -0.244041 -1.786 
-1.39428 -0.245134 -1.794 
-1.39375 -0.246364 -1.803 
-1.38622 -0.246364 -1.803 
-1.38481 -0.247457 -1.811 
-1.37725 -0.247457 -1.811 
-1.37649 -0.248687 -1.82 
-1.37566 -0.249917 -1.829 
-1.36803 -0.249917 -1.829 
-1.36708 -0.251147 -1.838 
-1.36533 -0.25224 -1.846 
-1.36424 -0.253469 -1.855 
-1.36307 -0.254699 -1.864 
-1.36256 -0.256066 -1.874 
-1.36124 -0.257295 -1.883 
-1.35985 -0.258525 -1.892 
-1.36553 -0.261121 -1.911 
-1.36465 -0.262488 -1.921 
-1.36299 -0.263718 -1.93 
-1.35493 -0.263718 -1.93 
-1.35385 -0.265084 -1.94 
-1.35268 -0.26645 -1.95 
-1.35144 -0.267817 -1.96 
-1.35696 -0.27055 -1.98 
-1.35619 -0.272053 -1.991 
-1.34787 -0.272053 -1.991 
-1.34629 -0.273419 -2.001 
-1.34529 -0.274922 -2.012 
-1.34353 -0.276289 -2.022 
-1.34235 -0.277792 -2.033 
-1.34108 -0.279295 -2.044 
-1.33255 -0.279295 -2.044 
-1.33114 -0.280798 -2.055 
-1.32256 -0.280798 -2.055 
-1.32101 -0.282301 -2.066 
-1.31937 -0.283804 -2.077 
-1.31827 -0.285444 -2.089 
-1.31645 -0.286947 -2.1 
-1.30768 -0.286947 -2.1 
-1.30633 -0.288586 -2.112 
-1.30427 -0.290089 -2.123 
-1.29541 -0.290089 -2.123 
-1.29381 -0.291729 -2.135 
-1.29212 -0.293369 -2.147 
-1.29033 -0.295008 -2.159 
-1.28131 -0.295008 -2.159 
-1.27996 -0.296785 -2.172 
-1.28552 -0.300201 -2.197 
-1.28332 -0.30184 -2.209 
-1.28909 -0.305393 -2.235 
-1.2872 -0.307169 -2.248 
-1.29316 -0.310859 -2.275 
-1.2989 -0.314548 -2.302 
-1.29713 -0.316461 -2.316 
-1.30358 -0.320424 -2.345 
-1.30151 -0.322337 -2.359 
-1.29166 -0.322337 -2.359 
-1.28996 -0.324386 -2.374 
-1.28005 -0.324386 -2.374 
-1.27816 -0.326436 -2.389 
-1.26819 -0.326436 -2.389 
-1.26611 -0.328485 -2.404 
-1.26391 -0.330535 -2.419 
-1.25381 -0.330535 -2.419 
-1.25143 -0.332585 -2.434 
-1.24126 -0.332585 -2.434 
-1.2311 -0.332585 -2.434 
-1.22896 -0.334771 -2.45 
-1.21873 -0.334771 -2.45 
-1.2164 -0.336957 -2.466 
-1.21393 -0.339144 -2.482 
-1.21132 -0.34133 -2.498 
-1.20906 -0.343653 -2.515 
-1.20619 -0.345839 -2.531 
-1.21168 -0.350485 -2.565 
-1.20893 -0.352808 -2.582 
-1.21486 -0.357727 -2.618 
-1.2122 -0.360186 -2.636 
-1.2094 -0.362646 -2.654 
-1.2069 -0.365242 -2.673 
-1.20423 -0.367838 -2.692 
-1.19299 -0.367838 -2.692 
-1.19844 -0.373031 -2.73 
-1.19573 -0.375763 -2.75 
-1.19286 -0.378496 -2.77 
-1.1813 -0.378496 -2.77 
-1.17818 -0.381229 -2.79 
-1.18367 -0.386831 -2.831 
-1.18054 -0.389701 -2.852 
-1.16864 -0.389701 -2.852 
-1.16565 -0.392707 -2.874 
-1.16208 -0.395576 -2.895 
-1.15913 -0.398719 -2.918 
-1.14694 -0.398719 -2.918 
-1.15226 -0.404868 -2.963 
-1.14874 -0.408011 -2.986 
-1.13627 -0.408011 -2.986 
-1.14149 -0.414433 -3.033 
-1.12883 -0.414433 -3.033 
-1.12536 -0.417849 -3.058 
-1.12133 -0.421128 -3.082 
-1.10846 -0.421128 -3.082 
-1.10448 -0.424544 -3.107 
-1.0915 -0.424544 -3.107 
-1.08756 -0.428097 -3.133 
-1.07448 -0.428097 -3.133 
-1.0702 -0.43165 -3.159 
-1.05701 -0.43165 -3.159 
-1.04382 -0.43165 -3.159 
-1.02215 -0.428097 -3.133 
-1.00069 -0.424544 -3.107 
-0.979774 -0.421128 -3.082 
-0.951533 -0.414433 -3.033 
-0.92432 -0.408011 -2.986 
-0.897806 -0.401725 -2.94 
-0.871976 -0.395576 -2.895 
-0.847116 -0.389701 -2.852 
-0.817051 -0.381229 -2.79 
-0.793855 -0.375763 -2.75 
-0.776683 -0.373031 -2.73 
-0.759958 -0.370434 -2.711 
-0.743392 -0.367838 -2.692 
-0.726984 -0.365242 -2.673 
-0.715824 -0.365242 -2.673 
-0.699654 -0.362646 -2.654 
-0.688573 -0.362646 -2.654 
-0.677491 -0.362646 -2.654 
-0.66641 -0.362646 -2.654 
-0.655328 -0.362646 -2.654 
-0.644247 -0.362646 -2.654 
-0.633166 -0.362646 -2.654 
-0.617865 -0.360186 -2.636 
-0.602715 -0.357727 -2.618 
-0.587715 -0.355267 -2.6 
-0.569094 -0.350485 -2.565 
-0.558384 -0.350485 -2.565 
-0.540415 -0.345839 -2.531 
-0.526497 -0.343653 -2.515 
-0.512508 -0.34133 -2.498 
-0.498862 -0.339144 -2.482 
-0.482201 -0.334771 -2.45 
-0.475054 -0.336957 -2.466 
-0.464757 -0.336957 -2.466 
-0.454461 -0.336957 -2.466 
-0.444164 -0.336957 -2.466 
-0.433868 -0.336957 -2.466 
-0.42632 -0.339144 -2.482 
-0.415956 -0.339144 -2.482 
-0.405593 -0.339144 -2.482 
-0.39523 -0.339144 -2.482 
-0.387348 -0.34133 -2.498 
-0.379483 -0.343653 -2.515 
-0.368982 -0.343653 -2.515 
-0.358481 -0.343653 -2.515 
-0.350194 -0.345839 -2.531 
-0.339626 -0.345839 -2.531 
-0.331268 -0.348162 -2.548 
-0.320629 -0.348162 -2.548 
-0.312059 -0.350485 -2.565 
-0.301349 -0.350485 -2.565 
-0.292565 -0.352808 -2.582 
-0.281785 -0.352808 -2.582 
-0.272893 -0.355267 -2.6 
-0.265665 -0.360186 -2.636 
-0.258234 -0.365242 -2.673 
-0.250585 -0.370434 -2.711 
-0.244473 -0.378496 -2.77 
-0.238036 -0.386831 -2.831 
-0.23133 -0.395576 -2.895 
-0.224392 -0.404868 -2.963 
-0.217029 -0.414433 -3.033 
-0.207667 -0.421128 -3.082 
-0.198022 -0.428097 -3.133 
-0.186476 -0.43165 -3.159 
-0.174712 -0.435202 -3.185 
-0.161413 -0.435202 -3.185 
-0.148115 -0.435202 -3.185 
-0.134816 -0.435202 -3.185 
-0.120526 -0.43165 -3.159 
-0.107336 -0.43165 -3.159 
-0.0925962 -0.424544 -3.107 
-0.0789826 -0.421128 -3.082 
-0.0655993 -0.417849 -3.058 
-0.0519846 -0.411153 -3.009 
-0.0388183 -0.404868 -2.963 
-0.0262414 -0.401725 -2.94 
-0.0137521 -0.395576 -2.895 
-0.00165234 -0.392707 -2.874 
0.0102684 -0.389701 -2.852 
0.0221766 -0.389701 -2.852 
0.0338337 -0.386831 -2.831 
0.0456541 -0.386831 -2.831 
0.0574746 -0.386831 -2.831 
0.069809 -0.389701 -2.852 
0.0817172 -0.389701 -2.852 
0.0943475 -0.392707 -2.874 
0.107125 -0.395576 -2.895 
0.119212 -0.395576 -2.895 
0.1313 -0.395576 -2.895 
0.144527 -0.398719 -2.918 
0.15671 -0.398719 -2.918 
0.170167 -0.401725 -2.94 
0.18387 -0.404868 -2.963 
0.196242 -0.404868 -2.963 
0.210233 -0.408011 -2.986 
0.2227 -0.408011 -2.986 
0.235168 -0.408011 -2.986 
0.247636 -0.408011 -2.986 
0.260103 -0.408011 -2.986 
0.272571 -0.408011 -2.986 
0.285039 -0.408011 -2.986 
0.295215 -0.404868 -2.963 
0.305199 -0.401725 -2.94 
0.317474 -0.401725 -2.94 
0.32975 -0.401725 -2.94 
0.342025 -0.401725 -2.94 
0.351649 -0.398719 -2.918 
0.363833 -0.398719 -2.918 
0.376017 -0.398719 -2.918 
0.385141 -0.395576 -2.895 
0.397228 -0.395576 -2.895 
0.409316 -0.395576 -2.895 
0.421404 -0.395576 -2.895 
0.433491 -0.395576 -2.895 
0.449119 -0.398719 -2.918 
0.461303 -0.398719 -2.918 
0.477056 -0.401725 -2.94 
0.489332 -0.401725 -2.94 
0.505531 -0.404868 -2.963 
0.530138 -0.414433 -3.033 
0.551572 -0.421128 -3.082 
0.578542 -0.43165 -3.159 
0.611962 -0.446407 -3.267 
0.653561 -0.466356 -3.413 
0.698922 -0.488082 -3.572 
0.748809 -0.511995 -3.747 
0.820763 -0.549708 -4.023 
0.893981 -0.586737 -4.294 
0.966276 -0.621718 -4.55 
1.06106 -0.669542 -4.9 
1.15568 -0.715453 -5.236 
1.26413 -0.76806 -5.621 
1.368 -0.816021 -5.972 
1.48577 -0.870405 -6.37 
1.62039 -0.932576 -6.825 
1.77573 -1.00431 -7.35 
1.95708 -1.08807 -7.963 
2.1228 -1.16049 -8.493 
2.25864 -1.21447 -8.888 
2.46803 -1.30561 -9.555 
2.63995 -1.37434 -10.058 
2.831 -1.45072 -10.617 
2.95739 -1.49212 -10.92 
3.00299 -1.49212 -10.92 
3.04858 -1.49212 -10.92 
2.927 -1.4115 -10.33 
2.7473 -1.30561 -9.555 
2.59263 -1.21447 -8.888 
2.40606 -1.11117 -8.132 
2.24858 -1.02399 -7.494 
2.07634 -0.932576 -6.825 
1.96452 -0.870405 -6.37 
1.83795 -0.80345 -5.88 
1.75449 -0.756856 -5.539 
1.75226 -0.746061 -5.46 
1.80075 -0.756856 -5.539 
1.87853 -0.779538 -5.705 
1.99139 -0.816021 -5.972 
2.11558 -0.856194 -6.266 
2.33281 -0.932576 -6.825 
2.54295 -1.00431 -7.35 
2.90944 -1.13535 -8.309 
3.30307 -1.27377 -9.322 
3.51336 -1.33908 -9.8 
3.64785 -1.37434 -10.058 
3.78963 -1.4115 -10.33 
3.93925 -1.45072 -10.617 
3.98358 -1.45072 -10.617 
4.02791 -1.45072 -10.617 
4.07224 -1.45072 -10.617 
4.23405 -1.49212 -10.92 
4.27964 -1.49212 -10.92 
4.32524 -1.49212 -10.92 
4.37083 -1.49212 -10.92 
4.41643 -1.49212 -10.92 
4.46202 -1.49212 -10.92 
4.50762 -1.49212 -10.92 
4.55321 -1.49212 -10.92 
4.4712 -1.45072 -10.617 
4.51553 -1.45072 -10.617 
4.55986 -1.45072 -10.617 
4.60419 -1.45072 -10.617 
4.64852 -1.45072 -10.617 
4.69285 -1.45072 -10.617 
4.73718 -1.45072 -10.617 
4.78151 -1.45072 -10.617 
4.82584 -1.45072 -10.617 
4.87017 -1.45072 -10.617 
4.9145 -1.45072 -10.617 
4.95883 -1.45072 -10.617 
5.00316 -1.45072 -10.617 
5.04749 -1.45072 -10.617 
5.09182 -1.45072 -10.617 
5.13615 -1.45072 -10.617 
5.32833 -1.49212 -10.92 
5.22481 -1.45072 -10.617 
5.26914 -1.45072 -10.617 
5.31347 -1.45072 -10.617 
5.3578 -1.45072 -10.617 
5.40213 -1.45072 -10.617 
5.44646 -1.45072 -10.617 
5.34236 -1.4115 -10.33 
5.38549 -1.4115 -10.33 
5.28568 -1.37434 -10.058 
5.32768 -1.37434 -10.058 
5.36967 -1.37434 -10.058 
5.41167 -1.37434 -10.058 
5.31377 -1.33908 -9.8 
5.35469 -1.33908 -9.8 
5.26072 -1.30561 -9.555 
5.17136 -1.27377 -9.322 
5.0862 -1.24344 -9.1 
4.78239 -1.16049 -8.493 
4.61307 -1.11117 -8.132 
4.4573 -1.0658 -7.8 
4.31373 -1.02399 -7.494 
4.18094 -0.98532 -7.211 
4.05804 -0.94952 -6.949 
3.94355 -0.916179 -6.705 
3.83709 -0.885162 -6.478 
3.73768 -0.856194 -6.266 
3.70317 -0.842393 -6.165 
3.66964 -0.829002 -6.067 
3.63711 -0.816021 -5.972 
3.60563 -0.80345 -5.88 
3.52214 -0.779538 -5.705 
3.49375 -0.76806 -5.621 
3.41648 -0.746061 -5.46 
3.39077 -0.73554 -5.383 
3.32004 -0.715453 -5.236 
3.25255 -0.696324 -5.096 
3.18902 -0.678287 -4.964 
3.12828 -0.66107 -4.838 
3.07104 -0.64481 -4.719 
3.05275 -0.636885 -4.661 
3.07221 -0.636885 -4.661 
3.09167 -0.636885 -4.661 
3.11114 -0.636885 -4.661 
3.16955 -0.64481 -4.719 
3.22913 -0.652872 -4.778 
3.28988 -0.66107 -4.838 
3.39629 -0.678287 -4.964 
3.50788 -0.696324 -5.096 
3.52916 -0.696324 -5.096 
3.59851 -0.705752 -5.165 
3.62007 -0.705752 -5.165 
3.59299 -0.696324 -5.096 
3.56675 -0.687169 -5.029 
3.49571 -0.669542 -4.9 
3.47168 -0.66107 -4.838 
3.40599 -0.64481 -4.719 
3.34294 -0.629233 -4.605 
3.32201 -0.621718 -4.55 
3.30209 -0.614476 -4.497 
3.28173 -0.607234 -4.444 
3.26241 -0.600265 -4.393 
3.24341 -0.593433 -4.343 
3.22475 -0.586737 -4.294 
3.20719 -0.580315 -4.247 
3.18923 -0.573893 -4.2 
3.17164 -0.567608 -4.154 
3.18899 -0.567608 -4.154 
3.17237 -0.561595 -4.11 
3.18953 -0.561595 -4.11 
3.20669 -0.561595 -4.11 
3.22385 -0.561595 -4.11 
3.27571 -0.567608 -4.154 
3.29305 -0.567608 -4.154 
3.34706 -0.573893 -4.2 
3.4399 -0.586737 -4.294 
3.41998 -0.580315 -4.247 
3.47575 -0.586737 -4.294 
3.45544 -0.580315 -4.247 
3.43474 -0.573893 -4.2 
3.41447 -0.567608 -4.154 
3.39546 -0.561595 -4.11 
3.27147 -0.538366 -3.94 
3.15774 -0.51705 -3.784 
3.05277 -0.497374 -3.64 
3.01065 -0.488082 -3.572 
2.96966 -0.479064 -3.506 
2.89287 -0.462121 -3.382 
2.85714 -0.454195 -3.324 
2.81113 -0.442581 -3.239 
2.8011 -0.438892 -3.212 
2.79086 -0.435202 -3.185 
2.80416 -0.435202 -3.185 
2.81745 -0.435202 -3.185 
2.80764 -0.43165 -3.159 
2.82083 -0.43165 -3.159 
2.83402 -0.43165 -3.159 
2.84721 -0.43165 -3.159 
2.8604 -0.43165 -3.159 
2.89724 -0.435202 -3.185 
2.91054 -0.435202 -3.185 
2.92384 -0.435202 -3.185 
2.93714 -0.435202 -3.185 
2.95044 -0.435202 -3.185 
3.44091 -0.483573 -3.539 
3.45569 -0.483573 -3.539 
-1.5217 -0.228968 -1.626 
-1.51491 -0.228968 -1.626 
-1.50812 -0.228968 -1.626 
-1.49579 -0.228123 -1.62 
-1.48903 -0.228123 -1.62 
-1.48226 -0.228123 -1.62 
-1.4755 -0.228123 -1.62 
-1.46874 -0.228123 -1.62 
-1.46739 -0.228968 -1.626 
-1.4606 -0.228968 -1.626 
-1.46007 -0.229953 -1.633 
-1.45948 -0.230939 -1.64 
-1.45883 -0.231925 -1.647 
-1.45901 -0.233051 -1.655 
-1.4521 -0.233051 -1.655 
-1.4513 -0.234037 -1.662 
-1.45044 -0.235023 -1.669 
-1.44953 -0.236009 -1.676 
-1.44942 -0.237135 -1.684 
-1.44838 -0.238121 -1.691 
-1.44814 -0.239247 -1.699 
-1.44105 -0.239247 -1.699 
-1.43986 -0.240233 -1.706 
-1.43945 -0.24136 -1.714 
-1.4323 -0.24136 -1.714 
-1.43179 -0.242486 -1.722 
-1.4246 -0.242486 -1.722 
-1.42318 -0.243472 -1.729 
-1.42251 -0.244598 -1.737 
-1.41526 -0.244598 -1.737 
-1.408 -0.244598 -1.737 
-1.4072 -0.245725 -1.745 
-1.40633 -0.246851 -1.753 
-1.39901 -0.246851 -1.753 
-1.39805 -0.247978 -1.761 
-1.39701 -0.249105 -1.769 
-1.39669 -0.250372 -1.778 
-1.39552 -0.251498 -1.786 
-1.39428 -0.252625 -1.794 
-1.39375 -0.253892 -1.803 
-1.38622 -0.253892 -1.803 
-1.38481 -0.255019 -1.811 
-1.37725 -0.255019 -1.811 
-1.37649 -0.256286 -1.82 
-1.37566 -0.257554 -1.829 
-1.36803 -0.257554 -1.829 
-1.36708 -0.258821 -1.838 
-1.36533 -0.259947 -1.846 
-1.36424 -0.261215 -1.855 
-1.35649 -0.261215 -1.855 
-1.35529 -0.262482 -1.864 
-1.36124 -0.265158 -1.883 
-1.35985 -0.266425 -1.892 
-1.3591 -0.267833 -1.902 
-1.35755 -0.2691 -1.911 
-1.35663 -0.270509 -1.921 
-1.35493 -0.271776 -1.93 
-1.35385 -0.273184 -1.94 
-1.35268 -0.274592 -1.95 
-1.35144 -0.276 -1.96 
-1.35011 -0.277409 -1.97 
-1.34869 -0.278817 -1.98 
-1.34787 -0.280366 -1.991 
-1.34629 -0.281774 -2.001 
-1.34529 -0.283323 -2.012 
-1.34353 -0.284731 -2.022 
-1.34235 -0.28628 -2.033 
-1.34108 -0.287829 -2.044 
-1.33255 -0.287829 -2.044 
-1.33114 -0.289378 -2.055 
-1.32256 -0.289378 -2.055 
-1.32101 -0.290927 -2.066 
-1.31937 -0.292476 -2.077 
-1.31827 -0.294166 -2.089 
-1.31645 -0.295715 -2.1 
-1.31515 -0.297405 -2.112 
-1.30633 -0.297405 -2.112 
-1.30427 -0.298954 -2.123 
-1.29541 -0.298954 -2.123 
-1.29381 -0.300643 -2.135 
-1.29212 -0.302333 -2.147 
-1.29033 -0.304023 -2.159 
-1.28131 -0.304023 -2.159 
-1.27996 -0.305854 -2.172 
-1.28552 -0.309374 -2.197 
-1.28332 -0.311064 -2.209 
-1.28909 -0.314725 -2.235 
-1.2872 -0.316556 -2.248 
-1.29316 -0.320358 -2.275 
-1.2989 -0.32416 -2.302 
-1.29713 -0.326131 -2.316 
-1.2958 -0.328243 -2.331 
-1.30151 -0.332186 -2.359 
-1.29166 -0.332186 -2.359 
-1.28996 -0.334299 -2.374 
-1.28005 -0.334299 -2.374 
-1.27816 -0.336411 -2.389 
-1.26819 -0.336411 -2.389 
-1.26611 -0.338523 -2.404 
-1.26391 -0.340635 -2.419 
-1.25381 -0.340635 -2.419 
-1.25143 -0.342748 -2.434 
-1.24126 -0.342748 -2.434 
-1.23919 -0.345001 -2.45 
-1.22896 -0.345001 -2.45 
-1.22669 -0.347254 -2.466 
-1.2164 -0.347254 -2.466 
-1.21393 -0.349507 -2.482 
-1.21132 -0.35176 -2.498 
-1.20906 -0.354154 -2.515 
-1.21429 -0.358801 -2.548 
-1.21168 -0.361195 -2.565 
-1.20893 -0.363588 -2.582 
-1.21486 -0.368658 -2.618 
-1.2122 -0.371192 -2.636 
-1.2094 -0.373727 -2.654 
-1.2069 -0.376403 -2.673 
-1.19573 -0.376403 -2.673 
-1.19299 -0.379078 -2.692 
-1.1901 -0.381754 -2.711 
-1.19573 -0.387246 -2.75 
-1.18425 -0.387246 -2.75 
-1.1813 -0.390062 -2.77 
-1.17818 -0.392878 -2.79 
-1.17489 -0.395695 -2.81 
-1.17185 -0.398652 -2.831 
-1.16864 -0.401609 -2.852 
-1.16565 -0.404707 -2.874 
-1.16208 -0.407664 -2.895 
-1.15913 -0.410903 -2.918 
-1.14694 -0.410903 -2.918 
-1.14332 -0.414001 -2.94 
-1.13989 -0.41724 -2.963 
-1.13627 -0.420478 -2.986 
-1.13246 -0.423717 -3.009 
-1.12883 -0.427097 -3.033 
-1.12536 -0.430617 -3.058 
-1.12133 -0.433997 -3.082 
-1.10846 -0.433997 -3.082 
-1.10448 -0.437517 -3.107 
-1.0915 -0.437517 -3.107 
-1.08756 -0.441178 -3.133 
-1.07448 -0.441178 -3.133 
-1.0702 -0.44484 -3.159 
-1.05701 -0.44484 -3.159 
-1.04382 -0.44484 -3.159 
-1.02215 -0.441178 -3.133 
-1.00069 -0.437517 -3.107 
-0.979774 -0.433997 -3.082 
-0.944004 -0.423717 -3.009 
-0.917201 -0.41724 -2.963 
-0.884064 -0.407664 -2.895 
-0.852699 -0.398652 -2.831 
-0.82276 -0.390062 -2.77 
-0.793916 -0.381754 -2.711 
-0.766142 -0.373727 -2.654 
-0.744819 -0.368658 -2.618 
-0.728842 -0.366123 -2.6 
-0.713015 -0.363588 -2.582 
-0.692988 -0.358801 -2.548 
-0.682349 -0.358801 -2.548 
-0.67171 -0.358801 -2.548 
-0.656661 -0.356407 -2.531 
-0.646093 -0.356407 -2.531 
-0.635525 -0.356407 -2.531 
-0.624957 -0.356407 -2.531 
-0.614389 -0.356407 -2.531 
-0.603822 -0.356407 -2.531 
-0.589503 -0.354154 -2.515 
-0.575089 -0.35176 -2.498 
-0.561042 -0.349507 -2.482 
-0.547129 -0.347254 -2.466 
-0.533349 -0.345001 -2.45 
-0.519703 -0.342748 -2.434 
-0.5064 -0.340635 -2.419 
-0.493223 -0.338523 -2.404 
-0.48017 -0.336411 -2.389 
-0.467243 -0.334299 -2.374 
-0.457331 -0.334299 -2.374 
-0.447418 -0.334299 -2.374 
-0.44027 -0.336411 -2.389 
-0.430296 -0.336411 -2.389 
-0.420321 -0.336411 -2.389 
-0.412922 -0.338523 -2.404 
-0.402885 -0.338523 -2.404 
-0.392847 -0.338523 -2.404 
-0.385198 -0.340635 -2.419 
-0.377424 -0.342748 -2.434 
-0.367261 -0.342748 -2.434 
-0.359445 -0.345001 -2.45 
-0.349216 -0.345001 -2.45 
-0.338986 -0.345001 -2.45 
-0.328757 -0.345001 -2.45 
-0.320607 -0.347254 -2.466 
-0.310311 -0.347254 -2.466 
-0.301961 -0.349507 -2.482 
-0.291598 -0.349507 -2.482 
-0.281234 -0.349507 -2.482 
-0.272617 -0.35176 -2.498 
-0.263972 -0.354154 -2.515 
-0.255083 -0.356407 -2.531 
-0.2478 -0.361195 -2.565 
-0.243653 -0.371192 -2.636 
-0.237589 -0.379078 -2.692 
-0.232907 -0.390062 -2.77 
-0.227894 -0.401609 -2.852 
-0.22265 -0.414001 -2.94 
-0.217029 -0.427097 -3.033 
-0.209352 -0.437517 -3.107 
-0.201309 -0.448501 -3.185 
-0.189604 -0.452303 -3.212 
-0.177674 -0.456105 -3.239 
-0.16415 -0.456105 -3.239 
-0.150626 -0.456105 -3.239 
-0.137102 -0.456105 -3.239 
-0.122548 -0.452303 -3.212 
-0.109137 -0.452303 -3.212 
-0.093371 -0.441178 -3.133 
-0.0796233 -0.437517 -3.107 
-0.0655993 -0.430617 -3.058 
-0.0519846 -0.423717 -3.009 
-0.0388183 -0.41724 -2.963 
-0.026045 -0.410903 -2.918 
-0.0136523 -0.404707 -2.874 
-0.00163969 -0.401609 -2.852 
0.0101928 -0.398652 -2.831 
0.0220133 -0.398652 -2.831 
0.0338337 -0.398652 -2.831 
0.0456541 -0.398652 -2.831 
0.0574746 -0.398652 -2.831 
0.069809 -0.401609 -2.852 
0.0817172 -0.401609 -2.852 
0.0943475 -0.404707 -2.874 
0.107125 -0.407664 -2.895 
0.120159 -0.410903 -2.918 
0.132343 -0.410903 -2.918 
0.145616 -0.414001 -2.94 
0.159127 -0.41724 -2.963 
0.171499 -0.41724 -2.963 
0.185298 -0.420478 -2.986 
0.199288 -0.423717 -3.009 
0.211852 -0.423717 -3.009 
0.224416 -0.423717 -3.009 
0.236979 -0.423717 -3.009 
0.251533 -0.427097 -3.033 
0.262107 -0.423717 -3.009 
0.27467 -0.423717 -3.009 
0.285039 -0.420478 -2.986 
0.297506 -0.420478 -2.986 
0.309974 -0.420478 -2.986 
0.319958 -0.41724 -2.963 
0.332329 -0.41724 -2.963 
0.342025 -0.414001 -2.94 
0.354301 -0.414001 -2.94 
0.366576 -0.414001 -2.94 
0.378852 -0.414001 -2.94 
0.391127 -0.414001 -2.94 
0.403403 -0.414001 -2.94 
0.412568 -0.410903 -2.918 
0.424752 -0.410903 -2.918 
0.436935 -0.410903 -2.918 
0.452505 -0.414001 -2.94 
0.464781 -0.414001 -2.94 
0.477056 -0.414001 -2.94 
0.49316 -0.41724 -2.963 
0.509456 -0.420478 -2.986 
0.530138 -0.427097 -3.033 
0.556046 -0.437517 -3.107 
0.583304 -0.448501 -3.185 
0.617207 -0.463991 -3.295 
0.653561 -0.480607 -3.413 
0.698922 -0.502997 -3.572 
0.748809 -0.52764 -3.747 
0.820763 -0.566505 -4.023 
0.893981 -0.604666 -4.294 
0.966276 -0.640715 -4.55 
1.06106 -0.690001 -4.9 
1.17158 -0.747454 -5.308 
1.26413 -0.79153 -5.621 
1.368 -0.840957 -5.972 
1.48577 -0.897002 -6.37 
1.62039 -0.961073 -6.825 
1.77573 -1.035 -7.35 
1.91702 -1.09837 -7.8 
2.07681 -1.17004 -8.309 
2.2073 -1.22313 -8.686 
2.3505 -1.28143 -9.1 
2.50793 -1.3455 -9.555 
2.75447 -1.45464 -10.33 
2.87533 -1.49505 -10.617 
2.91966 -1.49505 -10.617 
2.96399 -1.49505 -10.617 
2.84993 -1.41633 -10.058 
2.68031 -1.31269 -9.322 
2.53371 -1.22313 -8.686 
2.40606 -1.14512 -8.132 
2.24858 -1.05528 -7.494 
2.03984 -0.944175 -6.705 
1.93244 -0.882357 -6.266 
1.81013 -0.815469 -5.791 
1.72947 -0.768858 -5.46 
1.70348 -0.747454 -5.308 
1.77506 -0.768858 -5.46 
1.82387 -0.779983 -5.539 
1.93103 -0.815469 -5.791 
2.01632 -0.840957 -5.972 
2.21421 -0.91221 -6.478 
2.44884 -0.9967 -7.078 
2.73121 -1.09837 -7.8 
3.07771 -1.22313 -8.686 
3.34199 -1.31269 -9.322 
3.46542 -1.3455 -9.555 
3.68984 -1.41633 -10.058 
3.73184 -1.41633 -10.058 
3.87589 -1.45464 -10.33 
3.91902 -1.45464 -10.33 
3.96215 -1.45464 -10.33 
4.11657 -1.49505 -10.617 
4.16089 -1.49505 -10.617 
4.20522 -1.49505 -10.617 
4.24955 -1.49505 -10.617 
4.17781 -1.45464 -10.33 
4.22094 -1.45464 -10.33 
4.26407 -1.45464 -10.33 
4.19379 -1.41633 -10.058 
4.35034 -1.45464 -10.33 
4.27778 -1.41633 -10.058 
4.31978 -1.41633 -10.058 
4.36178 -1.41633 -10.058 
4.40377 -1.41633 -10.058 
4.44577 -1.41633 -10.058 
4.48776 -1.41633 -10.058 
4.52976 -1.41633 -10.058 
4.57175 -1.41633 -10.058 
4.61375 -1.41633 -10.058 
4.78165 -1.45464 -10.33 
4.82478 -1.45464 -10.33 
4.86791 -1.45464 -10.33 
4.91105 -1.45464 -10.33 
4.95418 -1.45464 -10.33 
4.99731 -1.45464 -10.33 
5.18048 -1.49505 -10.617 
5.22481 -1.49505 -10.617 
5.26914 -1.49505 -10.617 
5.16984 -1.45464 -10.33 
5.3578 -1.49505 -10.617 
5.40213 -1.49505 -10.617 
5.44646 -1.49505 -10.617 
5.49079 -1.49505 -10.617 
5.38549 -1.45464 -10.33 
5.42862 -1.45464 -10.33 
5.32768 -1.41633 -10.058 
5.36967 -1.41633 -10.058 
5.41167 -1.41633 -10.058 
5.31377 -1.38 -9.8 
5.35469 -1.38 -9.8 
5.26072 -1.3455 -9.555 
5.17136 -1.31269 -9.322 
4.96771 -1.25158 -8.888 
4.78239 -1.19596 -8.493 
4.61307 -1.14512 -8.132 
4.4573 -1.09837 -7.8 
4.31373 -1.05528 -7.494 
4.18094 -1.01543 -7.211 
4.05804 -0.978534 -6.949 
3.94355 -0.944175 -6.705 
3.83709 -0.91221 -6.478 
3.73768 -0.882357 -6.266 
3.70317 -0.868134 -6.165 
3.66964 -0.854334 -6.067 
3.58108 -0.828001 -5.88 
3.55106 -0.815469 -5.791 
3.52214 -0.803359 -5.705 
3.49375 -0.79153 -5.621 
3.41648 -0.768858 -5.46 
3.39077 -0.758016 -5.383 
3.32004 -0.737316 -5.236 
3.25255 -0.717601 -5.096 
3.18902 -0.699013 -4.964 
3.12828 -0.681271 -4.838 
3.10943 -0.672822 -4.778 
3.09074 -0.664513 -4.719 
3.11044 -0.664513 -4.719 
3.09167 -0.656346 -4.661 
3.11114 -0.656346 -4.661 
3.16955 -0.664513 -4.719 
3.22913 -0.672822 -4.778 
3.33204 -0.690001 -4.9 
3.39629 -0.699013 -4.964 
3.50788 -0.717601 -5.096 
3.52916 -0.717601 -5.096 
3.59851 -0.727318 -5.165 
3.62007 -0.727318 -5.165 
3.54575 -0.708167 -5.029 
3.56675 -0.708167 -5.029 
3.45148 -0.681271 -4.838 
3.38629 -0.664513 -4.719 
3.36413 -0.656346 -4.661 
3.30301 -0.640715 -4.55 
3.32201 -0.640715 -4.55 
3.30209 -0.633252 -4.497 
3.28173 -0.625789 -4.444 
3.26241 -0.618607 -4.393 
3.24341 -0.611566 -4.343 
3.26155 -0.611566 -4.343 
3.24268 -0.604666 -4.294 
3.22492 -0.598048 -4.247 
3.24265 -0.598048 -4.247 
3.2243 -0.59143 -4.2 
3.20633 -0.584952 -4.154 
3.22368 -0.584952 -4.154 
3.24102 -0.584952 -4.154 
3.25837 -0.584952 -4.154 
3.27571 -0.584952 -4.154 
3.32952 -0.59143 -4.2 
3.38451 -0.598048 -4.247 
3.40225 -0.598048 -4.247 
3.45783 -0.604666 -4.294 
3.43771 -0.598048 -4.247 
3.49368 -0.604666 -4.294 
3.47318 -0.598048 -4.247 
3.41447 -0.584952 -4.154 
3.35911 -0.57256 -4.066 
3.30551 -0.560591 -3.981 
3.18945 -0.538201 -3.822 
3.08212 -0.517501 -3.675 
3.03931 -0.507785 -3.606 
3.02557 -0.502997 -3.572 
2.9843 -0.493703 -3.506 
2.94505 -0.484831 -3.443 
2.90699 -0.476242 -3.382 
2.87102 -0.468074 -3.324 
2.83543 -0.460048 -3.267 
2.82465 -0.456105 -3.239 
2.81452 -0.452303 -3.212 
2.82793 -0.452303 -3.212 
2.81745 -0.448501 -3.185 
2.83075 -0.448501 -3.185 
2.84405 -0.448501 -3.185 
2.85735 -0.448501 -3.185 
2.87065 -0.448501 -3.185 
2.88395 -0.448501 -3.185 
2.89724 -0.448501 -3.185 
2.91054 -0.448501 -3.185 
2.92384 -0.448501 -3.185 
2.93714 -0.448501 -3.185 
2.97545 -0.452303 -3.212 
2.98886 -0.452303 -3.212 
3.00227 -0.452303 -3.212 
3.01568 -0.452303 -3.212 
3.23178 -0.476242 -3.382 
3.31882 -0.484831 -3.443 
3.39419 -0.493703 -3.506 
3.44091 -0.49835 -3.539 
5.27169 -0.747454 -5.308 
-1.51609 -0.234887 -1.62 
-1.5028 -0.233872 -1.613 
-1.49606 -0.233872 -1.613 
-1.48933 -0.233872 -1.613 
-1.48259 -0.233872 -1.613 
-1.47586 -0.233872 -1.613 
-1.4755 -0.234887 -1.62 
-1.46874 -0.234887 -1.62 
-1.46739 -0.235757 -1.626 
-1.4606 -0.235757 -1.626 
-1.46007 -0.236772 -1.633 
-1.45948 -0.237787 -1.64 
-1.45883 -0.238802 -1.647 
-1.45901 -0.239962 -1.655 
-1.45824 -0.240977 -1.662 
-1.45741 -0.241992 -1.669 
-1.45653 -0.243006 -1.676 
-1.45645 -0.244166 -1.684 
-1.44942 -0.244166 -1.684 
-1.44838 -0.245181 -1.691 
-1.44814 -0.246341 -1.699 
-1.44698 -0.247356 -1.706 
-1.44661 -0.248516 -1.714 
-1.44617 -0.249676 -1.722 
-1.43898 -0.249676 -1.722 
-1.43179 -0.249676 -1.722 
-1.43039 -0.250691 -1.729 
-1.42976 -0.251851 -1.737 
-1.42251 -0.251851 -1.737 
-1.41526 -0.251851 -1.737 
-1.41449 -0.253011 -1.745 
-1.4072 -0.253011 -1.745 
-1.40633 -0.254171 -1.753 
-1.39901 -0.254171 -1.753 
-1.39805 -0.255331 -1.761 
-1.39701 -0.256491 -1.769 
-1.39669 -0.257796 -1.778 
-1.39552 -0.258956 -1.786 
-1.39428 -0.260116 -1.794 
-1.39375 -0.26142 -1.803 
-1.38622 -0.26142 -1.803 
-1.38481 -0.26258 -1.811 
-1.38409 -0.263885 -1.82 
-1.37649 -0.263885 -1.82 
-1.37566 -0.26519 -1.829 
-1.37476 -0.266495 -1.838 
-1.36708 -0.266495 -1.838 
-1.36533 -0.267655 -1.846 
-1.36424 -0.26896 -1.855 
-1.35649 -0.26896 -1.855 
-1.35529 -0.270265 -1.864 
-1.35474 -0.271715 -1.874 
-1.35985 -0.274325 -1.892 
-1.3591 -0.275775 -1.902 
-1.35755 -0.27708 -1.911 
-1.35663 -0.27853 -1.921 
-1.34861 -0.27853 -1.921 
-1.34687 -0.279834 -1.93 
-1.35268 -0.282734 -1.95 
-1.35144 -0.284184 -1.96 
-1.35011 -0.285634 -1.97 
-1.34869 -0.287084 -1.98 
-1.34787 -0.288679 -1.991 
-1.34629 -0.290129 -2.001 
-1.34529 -0.291724 -2.012 
-1.34353 -0.293174 -2.022 
-1.34235 -0.294769 -2.033 
-1.34108 -0.296364 -2.044 
-1.33255 -0.296364 -2.044 
-1.33114 -0.297958 -2.055 
-1.32964 -0.299553 -2.066 
-1.32101 -0.299553 -2.066 
-1.31937 -0.301148 -2.077 
-1.31827 -0.302888 -2.089 
-1.31645 -0.304483 -2.1 
-1.31515 -0.306223 -2.112 
-1.31313 -0.307818 -2.123 
-1.30427 -0.307818 -2.123 
-1.30273 -0.309558 -2.135 
-1.29381 -0.309558 -2.135 
-1.29212 -0.311298 -2.147 
-1.29033 -0.313038 -2.159 
-1.28131 -0.313038 -2.159 
-1.27996 -0.314923 -2.172 
-1.28552 -0.318547 -2.197 
-1.28332 -0.320287 -2.209 
-1.28909 -0.324057 -2.235 
-1.2872 -0.325942 -2.248 
-1.29316 -0.329857 -2.275 
-1.2989 -0.333771 -2.302 
-1.29713 -0.335801 -2.316 
-1.2958 -0.337976 -2.331 
-1.29379 -0.340006 -2.345 
-1.29166 -0.342036 -2.359 
-1.28181 -0.342036 -2.359 
-1.28005 -0.344211 -2.374 
-1.27816 -0.346386 -2.389 
-1.26819 -0.346386 -2.389 
-1.26611 -0.348561 -2.404 
-1.26391 -0.350736 -2.419 
-1.25381 -0.350736 -2.419 
-1.25143 -0.35291 -2.434 
-1.24126 -0.35291 -2.434 
-1.23919 -0.35523 -2.45 
-1.22896 -0.35523 -2.45 
-1.22669 -0.35755 -2.466 
-1.2164 -0.35755 -2.466 
-1.21393 -0.35987 -2.482 
-1.21132 -0.36219 -2.498 
-1.21676 -0.366975 -2.531 
-1.21429 -0.369439 -2.548 
-1.21168 -0.371904 -2.565 
-1.20893 -0.374369 -2.582 
-1.21486 -0.379589 -2.618 
-1.2122 -0.382199 -2.636 
-1.2094 -0.384809 -2.654 
-1.2069 -0.387563 -2.673 
-1.19573 -0.387563 -2.673 
-1.19299 -0.390318 -2.692 
-1.1901 -0.393073 -2.711 
-1.18704 -0.395828 -2.73 
-1.18425 -0.398728 -2.75 
-1.1813 -0.401628 -2.77 
-1.17818 -0.404528 -2.79 
-1.17489 -0.407427 -2.81 
-1.17185 -0.410472 -2.831 
-1.16864 -0.413517 -2.852 
-1.16565 -0.416707 -2.874 
-1.16208 -0.419752 -2.895 
-1.14999 -0.419752 -2.895 
-1.14694 -0.423086 -2.918 
-1.14332 -0.426276 -2.94 
-1.13989 -0.429611 -2.963 
-1.13627 -0.432946 -2.986 
-1.13246 -0.436281 -3.009 
-1.12883 -0.439761 -3.033 
-1.12536 -0.443385 -3.058 
-1.12133 -0.446865 -3.082 
-1.10846 -0.446865 -3.082 
-1.10448 -0.45049 -3.107 
-1.0915 -0.45049 -3.107 
-1.08756 -0.45426 -3.133 
-1.07448 -0.45426 -3.133 
-1.0702 -0.45803 -3.159 
-1.05701 -0.45803 -3.159 
-1.04382 -0.45803 -3.159 
-1.02215 -0.45426 -3.133 
-1.00069 -0.45049 -3.107 
-0.972145 -0.443385 -3.058 
-0.936788 -0.432946 -2.986 
-0.903271 -0.423086 -2.918 
-0.870933 -0.413517 -2.852 
-0.84035 -0.404528 -2.79 
-0.805236 -0.393073 -2.711 
-0.771953 -0.382199 -2.636 
-0.745358 -0.374369 -2.582 
-0.720068 -0.366975 -2.531 
-0.700249 -0.36219 -2.498 
-0.685401 -0.35987 -2.482 
-0.666334 -0.35523 -2.45 
-0.65182 -0.35291 -2.434 
-0.641657 -0.35291 -2.434 
-0.631494 -0.35291 -2.434 
-0.621331 -0.35291 -2.434 
-0.611169 -0.35291 -2.434 
-0.601006 -0.35291 -2.434 
-0.587202 -0.350736 -2.419 
-0.577102 -0.350736 -2.419 
-0.567001 -0.350736 -2.419 
-0.553448 -0.348561 -2.404 
-0.54002 -0.346386 -2.389 
-0.526717 -0.344211 -2.374 
-0.513539 -0.342036 -2.359 
-0.503689 -0.342036 -2.359 
-0.490909 -0.340006 -2.345 
-0.481118 -0.340006 -2.345 
-0.468513 -0.337976 -2.331 
-0.455828 -0.335801 -2.316 
-0.446157 -0.335801 -2.316 
-0.439314 -0.337976 -2.331 
-0.429582 -0.337976 -2.331 
-0.419849 -0.337976 -2.331 
-0.410116 -0.337976 -2.331 
-0.402788 -0.340006 -2.345 
-0.392997 -0.340006 -2.345 
-0.385493 -0.342036 -2.359 
-0.375644 -0.342036 -2.359 
-0.36812 -0.344211 -2.374 
-0.355944 -0.342036 -2.359 
-0.348295 -0.344211 -2.374 
-0.338383 -0.344211 -2.374 
-0.328471 -0.344211 -2.374 
-0.318558 -0.344211 -2.374 
-0.310596 -0.346386 -2.389 
-0.300621 -0.346386 -2.389 
-0.290646 -0.346386 -2.389 
-0.282434 -0.348561 -2.404 
-0.272396 -0.348561 -2.404 
-0.263996 -0.350736 -2.419 
-0.25547 -0.35291 -2.434 
-0.24692 -0.35523 -2.45 
-0.239781 -0.35987 -2.482 
-0.235519 -0.369439 -2.548 
-0.232647 -0.382199 -2.636 
-0.229544 -0.395828 -2.73 
-0.224538 -0.407427 -2.81 
-0.220984 -0.423086 -2.918 
-0.217029 -0.439761 -3.033 
-0.211104 -0.45426 -3.133 
-0.203015 -0.465714 -3.212 
-0.191198 -0.469629 -3.239 
-0.17921 -0.473689 -3.267 
-0.165569 -0.473689 -3.267 
-0.151928 -0.473689 -3.267 
-0.138287 -0.473689 -3.267 
-0.123578 -0.469629 -3.239 
-0.109137 -0.465714 -3.212 
-0.0949207 -0.461799 -3.185 
-0.0796233 -0.45049 -3.107 
-0.0661142 -0.446865 -3.082 
-0.0523992 -0.439761 -3.033 
-0.0388183 -0.429611 -2.963 
-0.026045 -0.423086 -2.918 
-0.0137521 -0.419752 -2.895 
-0.00165234 -0.416707 -2.874 
0.0101928 -0.410472 -2.831 
0.0220133 -0.410472 -2.831 
0.0338337 -0.410472 -2.831 
0.0456541 -0.410472 -2.831 
0.0579009 -0.413517 -2.852 
0.069809 -0.413517 -2.852 
0.0829492 -0.419752 -2.895 
0.0950369 -0.419752 -2.895 
0.107976 -0.423086 -2.918 
0.121065 -0.426276 -2.94 
0.134384 -0.429611 -2.963 
0.146756 -0.429611 -2.963 
0.160362 -0.432946 -2.986 
0.17283 -0.432946 -2.986 
0.186725 -0.436281 -3.009 
0.199288 -0.436281 -3.009 
0.213542 -0.439761 -3.033 
0.226206 -0.439761 -3.033 
0.23887 -0.439761 -3.033 
0.251533 -0.439761 -3.033 
0.264197 -0.439761 -3.033 
0.276861 -0.439761 -3.033 
0.289525 -0.439761 -3.033 
0.299798 -0.436281 -3.009 
0.309974 -0.432946 -2.986 
0.322441 -0.432946 -2.986 
0.334909 -0.432946 -2.986 
0.347377 -0.432946 -2.986 
0.357072 -0.429611 -2.963 
0.369444 -0.429611 -2.963 
0.381816 -0.429611 -2.963 
0.391127 -0.426276 -2.94 
0.403403 -0.426276 -2.94 
0.415679 -0.426276 -2.94 
0.427954 -0.426276 -2.94 
0.443674 -0.429611 -2.963 
0.452505 -0.426276 -2.94 
0.468417 -0.429611 -2.963 
0.480788 -0.429611 -2.963 
0.496988 -0.432946 -2.986 
0.51338 -0.436281 -3.009 
0.534508 -0.443385 -3.058 
0.560699 -0.45426 -3.133 
0.588248 -0.465714 -3.212 
0.617207 -0.477748 -3.295 
0.659305 -0.499207 -3.443 
0.698922 -0.517911 -3.572 
0.756203 -0.548649 -3.784 
0.820763 -0.583303 -4.023 
0.893981 -0.622595 -4.294 
0.977956 -0.667688 -4.605 
1.06106 -0.71046 -4.9 
1.17158 -0.769617 -5.308 
1.28302 -0.827179 -5.705 
1.368 -0.865892 -5.972 
1.51096 -0.939258 -6.478 
1.62039 -0.98957 -6.825 
1.74215 -1.04554 -7.211 
1.87867 -1.10832 -7.644 
2.03257 -1.17907 -8.132 
2.15826 -1.23142 -8.493 
2.29575 -1.28869 -8.888 
2.44677 -1.35161 -9.322 
2.61315 -1.42092 -9.8 
2.72394 -1.45833 -10.058 
2.84074 -1.49777 -10.33 
2.88387 -1.49777 -10.33 
2.77682 -1.42092 -9.8 
2.61648 -1.31943 -9.1 
2.47741 -1.23142 -8.493 
2.35606 -1.15457 -7.963 
2.20537 -1.06569 -7.35 
2.03984 -0.972171 -6.705 
1.9013 -0.893875 -6.165 
1.81013 -0.839648 -5.791 
1.72947 -0.791656 -5.46 
1.70348 -0.769617 -5.308 
1.75003 -0.780492 -5.383 
1.79786 -0.791656 -5.46 
1.87434 -0.815 -5.621 
2.14175 -0.90852 -6.266 
2.40421 -1.00755 -6.949 
2.67659 -1.10832 -7.644 
3.00933 -1.23142 -8.493 
3.1864 -1.28869 -8.888 
3.38091 -1.35161 -9.322 
3.50531 -1.3854 -9.555 
3.63611 -1.42092 -9.8 
3.77383 -1.45833 -10.058 
3.81583 -1.45833 -10.058 
3.96215 -1.49777 -10.33 
3.89982 -1.45833 -10.058 
4.04842 -1.49777 -10.33 
3.98381 -1.45833 -10.058 
4.02581 -1.45833 -10.058 
4.06781 -1.45833 -10.058 
4.1098 -1.45833 -10.058 
4.1518 -1.45833 -10.058 
4.19379 -1.45833 -10.058 
4.12713 -1.42092 -9.8 
4.16805 -1.42092 -9.8 
4.20897 -1.42092 -9.8 
4.24989 -1.42092 -9.8 
4.29081 -1.42092 -9.8 
4.33173 -1.42092 -9.8 
4.37265 -1.42092 -9.8 
4.41356 -1.42092 -9.8 
4.45448 -1.42092 -9.8 
4.4954 -1.42092 -9.8 
4.53632 -1.42092 -9.8 
4.69774 -1.45833 -10.058 
4.73974 -1.45833 -10.058 
4.78173 -1.45833 -10.058 
4.82373 -1.45833 -10.058 
4.86572 -1.45833 -10.058 
4.90772 -1.45833 -10.058 
5.08357 -1.49777 -10.33 
5.1267 -1.49777 -10.33 
5.16984 -1.49777 -10.33 
5.21297 -1.49777 -10.33 
5.40213 -1.53938 -10.617 
5.44646 -1.53938 -10.617 
5.49079 -1.53938 -10.617 
5.38549 -1.49777 -10.33 
5.42862 -1.49777 -10.33 
5.32768 -1.45833 -10.058 
5.36967 -1.45833 -10.058 
5.27285 -1.42092 -9.8 
5.31377 -1.42092 -9.8 
5.22082 -1.3854 -9.555 
5.26072 -1.3854 -9.555 
5.17136 -1.35161 -9.322 
4.96771 -1.28869 -8.888 
4.78239 -1.23142 -8.493 
4.61307 -1.17907 -8.132 
4.4573 -1.13094 -7.8 
4.31373 -1.08657 -7.494 
4.18094 -1.04554 -7.211 
4.05804 -1.00755 -6.949 
3.94355 -0.972171 -6.705 
3.83709 -0.939258 -6.478 
3.73768 -0.90852 -6.266 
3.70317 -0.893875 -6.165 
3.66964 -0.879666 -6.067 
3.63711 -0.865892 -5.972 
3.55106 -0.839648 -5.791 
3.57524 -0.839648 -5.791 
3.49375 -0.815 -5.621 
3.41648 -0.791656 -5.46 
3.39077 -0.780492 -5.383 
3.36569 -0.769617 -5.308 
3.29659 -0.748883 -5.165 
3.23078 -0.729164 -5.029 
3.20975 -0.71974 -4.964 
3.14848 -0.701471 -4.838 
3.09074 -0.684217 -4.719 
3.11044 -0.684217 -4.719 
3.13015 -0.684217 -4.719 
3.14985 -0.684217 -4.719 
3.16955 -0.684217 -4.719 
3.22913 -0.692771 -4.778 
3.28988 -0.701471 -4.838 
3.39629 -0.71974 -4.964 
3.41701 -0.71974 -4.964 
3.48276 -0.729164 -5.029 
3.55043 -0.738879 -5.096 
3.52475 -0.729164 -5.029 
3.49992 -0.71974 -4.964 
3.43128 -0.701471 -4.838 
3.40868 -0.692771 -4.778 
3.34467 -0.675807 -4.661 
3.28402 -0.659713 -4.55 
3.30301 -0.659713 -4.55 
3.28332 -0.652029 -4.497 
3.26318 -0.644344 -4.444 
3.24407 -0.63695 -4.393 
3.26241 -0.63695 -4.393 
3.28075 -0.63695 -4.393 
3.26155 -0.6297 -4.343 
3.27968 -0.6297 -4.343 
3.26061 -0.622595 -4.294 
3.24265 -0.615781 -4.247 
3.26038 -0.615781 -4.247 
3.24184 -0.608966 -4.2 
3.25937 -0.608966 -4.2 
3.27691 -0.608966 -4.2 
3.25837 -0.602297 -4.154 
3.31198 -0.608966 -4.2 
3.32952 -0.608966 -4.2 
3.38451 -0.615781 -4.247 
3.40225 -0.615781 -4.247 
3.41998 -0.615781 -4.247 
3.43771 -0.615781 -4.247 
3.45544 -0.615781 -4.247 
3.43474 -0.608966 -4.2 
3.41447 -0.602297 -4.154 
3.35911 -0.589537 -4.066 
3.27147 -0.571268 -3.94 
3.22199 -0.559814 -3.861 
3.11231 -0.538065 -3.711 
3.06796 -0.527771 -3.64 
3.02557 -0.517911 -3.572 
2.9843 -0.508342 -3.506 
2.97242 -0.503847 -3.475 
2.93364 -0.494857 -3.413 
2.89607 -0.486158 -3.353 
2.85973 -0.477748 -3.295 
2.84907 -0.473689 -3.267 
2.83817 -0.469629 -3.239 
2.8517 -0.469629 -3.239 
2.84134 -0.465714 -3.212 
2.85475 -0.465714 -3.212 
2.86816 -0.465714 -3.212 
2.88157 -0.465714 -3.212 
2.89498 -0.465714 -3.212 
2.90839 -0.465714 -3.212 
2.92181 -0.465714 -3.212 
2.93522 -0.465714 -3.212 
2.94863 -0.465714 -3.212 
2.96204 -0.465714 -3.212 
3.00046 -0.469629 -3.239 
3.01399 -0.469629 -3.239 
3.02751 -0.469629 -3.239 
3.04103 -0.469629 -3.239 
3.05456 -0.469629 -3.239 
3.06808 -0.469629 -3.239 
3.10825 -0.473689 -3.267 
3.23178 -0.490363 -3.382 
3.33516 -0.503847 -3.475 
3.34967 -0.503847 -3.475 
3.39419 -0.508342 -3.506 
3.44091 -0.513126 -3.539 
3.48791 -0.517911 -3.572 
-1.51627 -0.240607 -1.613 
-1.50953 -0.240607 -1.613 
-1.5028 -0.240607 -1.613 
-1.49606 -0.240607 -1.613 
-1.48933 -0.240607 -1.613 
-1.48903 -0.241651 -1.62 
-1.47586 -0.240607 -1.613 
-1.4755 -0.241651 -1.62 
-1.46874 -0.241651 -1.62 
-1.46739 -0.242546 -1.626 
-1.4606 -0.242546 -1.626 
-1.46007 -0.24359 -1.633 
-1.45948 -0.244634 -1.64 
-1.45883 -0.245679 -1.647 
-1.45901 -0.246872 -1.655 
-1.45824 -0.247916 -1.662 
-1.46352 -0.250004 -1.676 
-1.45653 -0.250004 -1.676 
-1.45645 -0.251198 -1.684 
-1.45544 -0.252242 -1.691 
-1.45523 -0.253435 -1.699 
-1.45411 -0.254479 -1.706 
-1.45377 -0.255673 -1.714 
-1.45336 -0.256866 -1.722 
-1.44617 -0.256866 -1.722 
-1.43898 -0.256866 -1.722 
-1.43761 -0.25791 -1.729 
-1.43701 -0.259104 -1.737 
-1.42976 -0.259104 -1.737 
-1.42251 -0.259104 -1.737 
-1.42177 -0.260297 -1.745 
-1.41449 -0.260297 -1.745 
-1.4072 -0.260297 -1.745 
-1.40633 -0.26149 -1.753 
-1.4054 -0.262684 -1.761 
-1.39805 -0.262684 -1.761 
-1.39701 -0.263877 -1.769 
-1.39669 -0.265219 -1.778 
-1.39552 -0.266413 -1.786 
-1.39428 -0.267606 -1.794 
-1.39375 -0.268949 -1.803 
-1.38622 -0.268949 -1.803 
-1.38481 -0.270142 -1.811 
-1.38409 -0.271484 -1.82 
-1.37649 -0.271484 -1.82 
-1.37566 -0.272827 -1.829 
-1.37476 -0.274169 -1.838 
-1.36708 -0.274169 -1.838 
-1.36533 -0.275363 -1.846 
-1.36424 -0.276705 -1.855 
-1.36307 -0.278048 -1.864 
-1.35529 -0.278048 -1.864 
-1.35474 -0.279539 -1.874 
-1.35985 -0.282225 -1.892 
-1.3591 -0.283716 -1.902 
-1.35755 -0.285059 -1.911 
-1.34957 -0.285059 -1.911 
-1.34861 -0.28655 -1.921 
-1.34687 -0.287893 -1.93 
-1.34575 -0.289385 -1.94 
-1.34454 -0.290876 -1.95 
-1.34325 -0.292368 -1.96 
-1.34869 -0.295351 -1.98 
-1.34787 -0.296992 -1.991 
-1.34629 -0.298484 -2.001 
