ply
format ascii 1.0
comment pointcloud saved from Realsense Viewer
element vertex 1810
property float32 x
property float32 y
property float32 z
end_header
1.99922 2.94000 -0.05341 
2.04403 2.98300 -0.05419 
2.18365 3.10400 -0.05639 
2.20305 3.12000 -0.05668 
2.35982 2.94000 -0.05341 
2.48257 2.94000 -0.05341 
-1.62617 2.13100 -0.04427 
-1.74387 2.32500 -0.04830 
-1.77804 2.45600 -0.05102 
-1.69125 2.37900 -0.04942 
-1.43100 2.06600 -0.04292 
-1.23860 1.96600 -0.04084 
-1.18659 1.94800 -0.04047 
-1.12315 1.87600 -0.03897 
-1.10613 1.92300 -0.03995 
-1.04375 2.65900 -0.05524 
-1.06951 2.89800 -0.06021 
-1.05948 2.91200 -0.06050 
-1.04166 2.92600 -0.06079 
-1.01726 3.01200 -0.06257 
-0.58379 2.27300 -0.04722 
-0.54035 2.29000 -0.04757 
-0.46105 2.28200 -0.04741 
-0.42333 2.24000 -0.04654 
-0.34734 2.24000 -0.04654 
-0.34150 2.24000 -0.04654 
-0.32396 2.24000 -0.04654 
-0.28304 2.24000 -0.04654 
-0.17581 2.29000 -0.04757 
0.10623 2.79200 -0.05800 
0.11303 2.78000 -0.05775 
0.16799 2.73000 -0.05672 
0.08790 0.65300 -0.01357 
0.09509 0.64400 -0.01338 
0.10758 0.56800 -0.01180 
0.12440 0.50400 -0.01047 
0.14270 0.43200 -0.00897 
0.14349 0.43100 -0.00895 
0.15051 0.37800 -0.00785 
1.65934 2.84400 -0.05908 
1.80690 2.83100 -0.05881 
2.02669 2.96900 -0.06168 
2.05431 2.99800 -0.06228 
2.25418 3.16900 -0.06584 
2.26609 3.07300 -0.06384 
2.27757 2.98300 -0.06197 
2.28626 2.95400 -0.06137 
2.39440 2.92600 -0.06079 
-1.64906 2.16100 -0.05053 
-1.69765 2.24000 -0.05238 
-1.72957 2.29000 -0.05355 
-1.81548 2.44600 -0.05720 
-1.26228 1.97900 -0.04628 
-1.08540 1.87000 -0.04373 
-1.10613 1.92300 -0.04497 
-1.42200 2.60200 -0.06085 
-1.44719 2.76700 -0.06471 
-1.43948 2.78000 -0.06501 
-1.41771 2.78000 -0.06501 
-1.14269 2.42700 -0.05675 
-1.03399 2.51700 -0.05886 
-1.02621 2.58000 -0.06033 
-1.05948 2.91200 -0.06810 
-1.02850 2.95400 -0.06908 
-1.01309 2.95400 -0.06908 
-1.05636 3.20200 -0.07488 
-1.07063 3.49400 -0.08171 
-0.98857 3.49400 -0.08171 
-0.94189 3.36000 -0.07857 
-0.59356 2.26500 -0.05297 
-0.52078 2.25700 -0.05278 
-0.32966 2.20000 -0.05145 
-0.19466 2.23200 -0.05219 
-0.13354 2.38900 -0.05587 
-0.11335 3.01200 -0.07043 
0.02018 2.99800 -0.07011 
0.09166 2.79200 -0.06529 
0.12694 2.76700 -0.06471 
0.10696 0.62500 -0.01462 
0.11969 0.51200 -0.01197 
0.12032 0.50900 -0.01190 
0.12707 0.49900 -0.01167 
0.13363 0.47600 -0.01113 
0.15700 0.35900 -0.00840 
0.15669 0.35200 -0.00823 
0.16206 0.34200 -0.00800 
0.16409 0.33700 -0.00788 
1.66653 2.83100 -0.06620 
1.70347 2.83100 -0.06620 
1.90912 2.88500 -0.06746 
1.92529 2.89800 -0.06777 
2.14085 3.08900 -0.07224 
2.27275 3.10400 -0.07259 
2.26301 3.05800 -0.07151 
2.30611 2.94000 -0.06875 
2.44021 2.92600 -0.06842 
2.44785 2.92600 -0.06842 
-1.81404 2.42700 -0.06309 
-1.38309 2.01200 -0.05230 
-1.34335 1.99200 -0.05178 
-1.31273 1.98500 -0.05160 
-1.28165 1.98500 -0.05160 
-1.27129 1.98500 -0.05160 
-1.26611 1.98500 -0.05160 
-1.08004 1.83600 -0.04773 
-1.09034 1.88700 -0.04905 
-1.36785 2.45600 -0.06384 
-1.40579 2.54800 -0.06623 
-1.42119 2.61300 -0.06792 
-1.44673 2.78000 -0.07226 
-1.37687 2.74200 -0.07128 
-0.99044 2.17600 -0.05656 
-0.97594 2.16900 -0.05638 
-1.02398 2.44600 -0.06358 
-1.06471 2.88500 -0.07499 
-1.01309 2.95400 -0.07679 
-1.04277 3.13600 -0.08152 
-0.53060 2.20000 -0.05719 
-0.50948 2.20800 -0.05740 
-0.47319 2.20000 -0.05719 
-0.43555 2.18400 -0.05677 
-0.18039 2.20000 -0.05719 
-0.15857 2.21600 -0.05760 
-0.11011 2.92600 -0.07606 
0.07077 2.83100 -0.07359 
0.15374 2.73000 -0.07096 
0.08790 0.65300 -0.01697 
0.08960 0.65300 -0.01697 
0.10086 0.63800 -0.01658 
0.11418 0.56400 -0.01466 
0.11609 0.55900 -0.01453 
0.13544 0.46100 -0.01198 
0.14696 0.42800 -0.01113 
0.15168 0.37600 -0.00977 
0.16247 0.34100 -0.00886 
0.16486 0.33500 -0.00871 
0.16757 0.32500 -0.00845 
0.17064 0.31500 -0.00819 
1.59255 2.84400 -0.07393 
2.10341 3.05800 -0.07949 
2.13279 3.08900 -0.08030 
2.19274 3.15200 -0.08193 
2.26983 3.08900 -0.08030 
2.30168 2.95400 -0.07679 
2.44785 2.92600 -0.07606 
2.48257 2.94000 -0.07642 
-1.61437 2.08700 -0.05970 
-1.64267 2.13800 -0.06116 
-1.26397 1.99800 -0.05715 
-1.23939 1.99200 -0.05698 
-1.16133 1.92300 -0.05501 
-1.38916 2.50600 -0.07168 
-1.37687 2.74200 -0.07843 
-1.36372 2.73000 -0.07809 
-1.33167 2.69400 -0.07706 
-1.31284 2.67000 -0.07637 
-1.30050 2.65900 -0.07606 
-1.27017 2.62500 -0.07509 
-1.05656 2.28200 -0.06527 
-0.97234 2.16100 -0.06181 
-1.03151 2.52700 -0.07228 
-1.04428 2.91200 -0.08329 
-1.03403 2.92600 -0.08369 
-1.09130 3.41600 -0.09771 
-0.58227 2.20000 -0.06293 
-0.35690 2.12300 -0.06073 
0.10577 2.78000 -0.07952 
0.16015 2.71800 -0.07775 
0.09102 0.65100 -0.01862 
0.12837 0.49400 -0.01413 
0.12887 0.49100 -0.01404 
0.14471 0.40600 -0.01161 
0.15011 0.37700 -0.01078 
0.16486 0.33500 -0.00958 
0.16706 0.32900 -0.00941 
0.16855 0.32200 -0.00921 
0.17228 0.31500 -0.00901 
1.90159 2.88500 -0.08252 
1.91773 2.89800 -0.08289 
2.08446 3.04200 -0.08701 
2.18451 3.15200 -0.09016 
2.28085 3.10400 -0.08879 
2.26377 3.02700 -0.08658 
2.26555 2.99800 -0.08575 
2.29397 2.95400 -0.08450 
2.31804 2.92600 -0.08369 
2.45189 2.94000 -0.08410 
2.47490 2.94000 -0.08410 
-1.82731 2.50600 -0.07822 
-1.40214 2.03200 -0.06343 
-1.32256 1.99200 -0.06218 
-1.30696 1.99200 -0.06218 
-1.27962 1.99800 -0.06236 
-1.21859 1.99200 -0.06218 
-1.07232 1.83100 -0.05715 
-1.20909 2.13100 -0.06652 
-1.42119 2.61300 -0.08156 
-1.44810 2.75500 -0.08599 
-1.14693 2.43600 -0.07604 
-1.05075 3.18500 -0.09941 
-1.07059 3.32400 -0.10375 
-0.55844 2.13100 -0.06652 
-0.52311 2.12300 -0.06627 
-0.47168 2.11600 -0.06605 
-0.39858 2.10900 -0.06583 
-0.39307 2.10900 -0.06583 
-0.36124 2.11600 -0.06605 
-0.31052 2.10900 -0.06583 
-0.24355 2.10100 -0.06558 
-0.17407 2.12300 -0.06627 
0.04930 2.87100 -0.08961 
0.16015 2.71800 -0.08484 
0.16651 2.70600 -0.08446 
0.10609 0.57600 -0.01798 
0.13661 0.46500 -0.01451 
0.14779 0.40000 -0.01249 
0.15758 0.35400 -0.01105 
0.15761 0.35200 -0.01099 
0.15899 0.34700 -0.01083 
0.16548 0.33100 -0.01033 
0.16809 0.32600 -0.01018 
0.16842 0.32500 -0.01014 
0.16977 0.31800 -0.00993 
0.17118 0.31600 -0.00986 
0.17228 0.31500 -0.00983 
1.58527 2.83100 -0.08837 
1.68131 2.83100 -0.08837 
1.84651 2.85800 -0.08921 
1.91773 2.89800 -0.09046 
2.27613 3.01200 -0.09401 
2.31710 2.95400 -0.09220 
2.43654 2.94000 -0.09177 
-1.82713 2.43600 -0.08239 
-1.84190 2.51700 -0.08513 
-1.82876 2.51700 -0.08513 
-1.29526 1.99800 -0.06758 
-1.29004 1.99800 -0.06758 
-1.28483 1.99800 -0.06758 
-1.24833 1.99800 -0.06758 
-1.24312 1.99800 -0.06758 
-1.23790 1.99800 -0.06758 
-1.16857 1.93500 -0.06545 
-1.10624 1.86400 -0.06305 
-1.06881 1.82500 -0.06173 
-1.36228 2.44600 -0.08273 
-1.32574 2.68200 -0.09071 
-1.02758 2.23200 -0.07549 
-1.00345 2.19200 -0.07414 
-1.01640 2.39800 -0.08111 
-1.01309 2.95400 -0.09991 
-1.04800 3.20200 -0.10830 
-0.87656 3.04200 -0.10289 
-0.38481 2.09400 -0.07083 
-0.31482 2.10100 -0.07106 
-0.29289 2.10100 -0.07106 
-0.23727 2.09400 -0.07083 
-0.15249 2.13100 -0.07208 
-0.13625 2.13800 -0.07231 
0.07045 2.81800 -0.09531 
0.09166 2.79200 -0.09443 
0.18063 2.70600 -0.09153 
0.09662 0.64300 -0.02175 
0.10651 0.61300 -0.02073 
0.11163 0.56600 -0.01914 
0.11609 0.55900 -0.01891 
0.11887 0.54500 -0.01843 
0.11905 0.51500 -0.01742 
0.14619 0.42900 -0.01451 
0.14968 0.39400 -0.01333 
0.14932 0.38000 -0.01285 
0.15709 0.36800 -0.01245 
0.15805 0.36800 -0.01245 
0.16343 0.34300 -0.01160 
0.16377 0.34000 -0.01150 
1.54875 2.80500 -0.09487 
1.61476 2.81800 -0.09531 
1.63698 2.83100 -0.09575 
1.67392 2.83100 -0.09575 
1.71086 2.83100 -0.09575 
1.85397 2.85800 -0.09667 
1.94219 2.91200 -0.09849 
2.19907 3.18500 -0.10773 
2.40758 3.36000 -0.11365 
2.31207 3.16900 -0.10719 
2.42120 2.94000 -0.09944 
-1.64285 2.13100 -0.07764 
-1.24312 1.99800 -0.07279 
-1.22379 1.99200 -0.07257 
-1.18879 1.96000 -0.07141 
-1.11826 1.87600 -0.06835 
-1.43112 2.79200 -0.10172 
-1.29463 2.64700 -0.09644 
-1.00145 2.33400 -0.08503 
-1.03926 2.89800 -0.10558 
-1.02759 3.27000 -0.11914 
-0.53782 2.09400 -0.07629 
-0.45433 2.08700 -0.07603 
-0.42165 2.08700 -0.07603 
-0.25282 2.08700 -0.07603 
-0.22014 2.08700 -0.07603 
-0.11438 2.25700 -0.08223 
-0.10382 2.58000 -0.09400 
-0.09778 2.79200 -0.10172 
0.00441 2.91200 -0.10609 
0.01951 2.89800 -0.10558 
0.12694 2.76700 -0.10081 
0.10647 0.57000 -0.02077 
0.11794 0.55400 -0.02018 
0.11822 0.54200 -0.01975 
0.11905 0.51500 -0.01876 
0.11992 0.51300 -0.01869 
0.12728 0.50500 -0.01840 
0.12863 0.50000 -0.01822 
0.15110 0.37700 -0.01374 
0.15394 0.37200 -0.01355 
0.16775 0.32700 -0.01191 
0.17089 0.31700 -0.01155 
1.59269 2.81800 -0.10267 
1.68131 2.83100 -0.10314 
1.77067 2.84400 -0.10361 
1.77809 2.84400 -0.10361 
1.80035 2.84400 -0.10361 
1.81520 2.84400 -0.10361 
1.83905 2.85800 -0.10412 
1.93459 2.91200 -0.10609 
2.41238 3.37900 -0.12311 
2.33680 2.94000 -0.10711 
2.38284 2.94000 -0.10711 
-1.67231 2.18400 -0.08527 
-1.81241 2.40800 -0.09401 
-1.85165 2.48600 -0.09706 
-1.27283 2.01200 -0.07855 
-1.07232 1.83100 -0.07149 
-1.39420 2.52700 -0.09866 
-1.42087 2.62500 -0.10249 
-1.25225 2.60200 -0.10159 
-1.24019 2.59100 -0.10116 
-1.14693 2.43600 -0.09511 
-1.02758 2.23200 -0.08714 
-1.03007 2.47600 -0.09667 
-1.05469 2.81800 -0.11002 
-0.94789 3.12000 -0.12181 
-0.45433 2.08700 -0.08148 
-0.40938 2.08000 -0.08121 
-0.33563 2.09400 -0.08175 
-0.32470 2.09400 -0.08175 
-0.30284 2.09400 -0.08175 
-0.28645 2.09400 -0.08175 
-0.26371 2.08700 -0.08148 
-0.20925 2.08700 -0.08148 
-0.14693 2.13100 -0.08320 
-0.13116 2.14600 -0.08378 
-0.03375 2.92600 -0.11424 
0.01942 2.88500 -0.11264 
0.07045 2.81800 -0.11002 
0.08437 2.79200 -0.10901 
0.11250 2.76700 -0.10803 
0.09201 0.64600 -0.02522 
0.10611 0.62000 -0.02421 
0.10666 0.57100 -0.02229 
0.11609 0.55900 -0.02182 
0.12321 0.51000 -0.01991 
0.13100 0.48000 -0.01874 
0.13170 0.47800 -0.01866 
0.15698 0.37000 -0.01445 
0.16457 0.33800 -0.01320 
0.17060 0.31800 -0.01242 
1.57071 2.80500 -0.10951 
1.70347 2.83100 -0.11053 
2.10861 3.08900 -0.12060 
2.36457 3.28800 -0.12837 
2.26555 2.99800 -0.11705 
2.31710 2.95400 -0.11533 
2.46723 2.94000 -0.11478 
-1.78319 2.36100 -0.09834 
-1.84319 2.46600 -0.10271 
-1.85259 2.49600 -0.10396 
-1.86316 2.53700 -0.10567 
-1.27887 2.00500 -0.08351 
-1.26840 2.00500 -0.08351 
-1.21064 1.97900 -0.08243 
-1.40923 2.59100 -0.10792 
-1.43574 2.71800 -0.11321 
-1.43840 2.79200 -0.11629 
-1.25225 2.60200 -0.10838 
-1.14693 2.43600 -0.10146 
-1.02182 3.07300 -0.12800 
-0.54691 2.08700 -0.08693 
-0.52879 2.08000 -0.08664 
-0.48156 2.08700 -0.08693 
-0.40938 2.08000 -0.08664 
-0.32362 2.08700 -0.08693 
-0.20925 2.08700 -0.08693 
-0.18393 2.10900 -0.08784 
-0.14183 2.13800 -0.08905 
-0.10815 2.37900 -0.09909 
-0.09519 2.71800 -0.11321 
0.01933 2.87100 -0.11958 
0.12694 2.76700 -0.11525 
0.20361 2.73000 -0.11371 
0.09617 0.64000 -0.02666 
0.09873 0.63500 -0.02645 
0.09991 0.63200 -0.02632 
0.10337 0.62300 -0.02595 
0.11163 0.56600 -0.02357 
0.13127 0.48100 -0.02003 
0.13678 0.47400 -0.01974 
0.14428 0.43000 -0.01791 
0.14739 0.42600 -0.01774 
0.14992 0.37900 -0.01579 
0.15899 0.35100 -0.01462 
0.16384 0.34200 -0.01424 
1.57071 2.79200 -0.11629 
1.67359 2.81800 -0.11738 
1.76324 2.84400 -0.11846 
1.80035 2.84400 -0.11846 
2.37711 3.37900 -0.14074 
2.29553 3.16900 -0.13200 
2.27981 3.13600 -0.13062 
2.25255 3.01200 -0.12546 
2.42120 2.94000 -0.12246 
2.46723 2.94000 -0.12246 
-1.63681 2.11600 -0.09366 
-1.64285 2.13100 -0.09432 
-1.35008 1.97900 -0.08759 
-1.33697 1.99800 -0.08843 
-1.17361 2.05900 -0.09113 
-1.00711 2.20000 -0.09738 
-0.99408 2.18400 -0.09667 
-0.99632 2.30800 -0.10216 
-1.04478 2.83100 -0.12530 
-1.01596 2.94000 -0.13013 
-1.02117 3.12000 -0.13810 
-0.51619 2.07300 -0.09175 
-0.37681 2.08000 -0.09206 
-0.28005 2.08700 -0.09237 
-0.27460 2.08700 -0.09237 
-0.25282 2.08700 -0.09237 
-0.19420 2.10100 -0.09299 
-0.11051 2.29900 -0.10176 
-0.10438 2.43600 -0.10782 
0.07012 2.80500 -0.12415 
0.13358 2.75500 -0.12194 
0.18224 2.73000 -0.12083 
0.19648 2.73000 -0.12083 
0.09312 0.64200 -0.02842 
0.11658 0.51600 -0.02284 
0.13391 0.47700 -0.02111 
0.13894 0.44900 -0.01987 
0.14968 0.39400 -0.01744 
0.15698 0.37000 -0.01638 
0.15945 0.34800 -0.01540 
0.16842 0.32500 -0.01439 
1.59999 2.80500 -0.12415 
1.61463 2.80500 -0.12415 
1.62195 2.80500 -0.12415 
1.74780 2.83100 -0.12530 
1.83159 2.85800 -0.12650 
1.91016 2.89800 -0.12827 
2.36374 3.36000 -0.14872 
2.36444 3.32400 -0.14713 
2.25005 3.07300 -0.13602 
2.26555 2.99800 -0.13270 
2.30562 2.96900 -0.13141 
-1.34335 1.99200 -0.09337 
-1.34218 1.99800 -0.09365 
-1.30047 1.99800 -0.09365 
-1.08228 1.84800 -0.08662 
-1.42865 2.71800 -0.12740 
-1.40386 2.76700 -0.12969 
-1.34467 2.70600 -0.12683 
-1.26332 2.62500 -0.12304 
-1.03188 2.49600 -0.11699 
-1.03121 2.55900 -0.11994 
-0.96569 3.07300 -0.14404 
-0.91405 2.98300 -0.13982 
-0.89746 2.95400 -0.13846 
-0.40800 2.07300 -0.09716 
-0.37013 2.07300 -0.09716 
-0.32362 2.08700 -0.09782 
-0.23103 2.08700 -0.09782 
-0.10692 2.35200 -0.11024 
-0.10357 2.41700 -0.11329 
-0.06896 2.80500 -0.13147 
-0.01805 2.85800 -0.13396 
0.04122 2.83100 -0.13269 
0.06280 2.80500 -0.13147 
0.11972 2.76700 -0.12969 
0.11725 0.51300 -0.02404 
0.12702 0.50400 -0.02362 
0.12966 0.49400 -0.02315 
0.13322 0.47900 -0.02245 
0.13928 0.43900 -0.02058 
0.15037 0.40700 -0.01908 
0.15643 0.37100 -0.01739 
0.16512 0.33200 -0.01556 
0.16655 0.32800 -0.01537 
0.16991 0.32300 -0.01514 
0.17084 0.32000 -0.01500 
1.60731 2.80500 -0.13147 
1.66623 2.81800 -0.13208 
1.81667 2.85800 -0.13396 
2.00511 2.98300 -0.13982 
2.21415 3.21900 -0.15088 
2.24203 3.07300 -0.14404 
2.29787 2.96900 -0.13916 
2.41352 2.94000 -0.13780 
-1.69713 2.22400 -0.11005 
-1.28483 1.99800 -0.09886 
-1.26397 1.99800 -0.09886 
-1.17096 2.04500 -0.10119 
-1.36228 2.44600 -0.12103 
-1.34467 2.70600 -0.13390 
-1.28772 2.64700 -0.13098 
-0.62245 2.20000 -0.10886 
-0.56919 2.10900 -0.10436 
-0.52701 2.07300 -0.10257 
-0.48537 2.08000 -0.10292 
-0.45823 2.08000 -0.10292 
-0.35931 2.07300 -0.10257 
-0.32906 2.08700 -0.10327 
-0.28645 2.09400 -0.10361 
-0.18872 2.10100 -0.10396 
-0.13676 2.14600 -0.10619 
-0.11312 2.23200 -0.11044 
-0.09964 2.47600 -0.12251 
-0.04700 2.80500 -0.13879 
0.01172 2.84400 -0.14072 
0.03368 2.81800 -0.13944 
0.09677 0.63300 -0.03132 
0.10190 0.62400 -0.03088 
0.12055 0.51000 -0.02524 
0.13896 0.47300 -0.02340 
0.15698 0.37000 -0.01831 
0.15991 0.34900 -0.01727 
0.17114 0.31900 -0.01578 
0.17365 0.31600 -0.01564 
1.54945 2.78000 -0.13756 
1.74041 2.83100 -0.14008 
1.98795 2.96900 -0.14691 
2.14069 3.13600 -0.15517 
2.27877 3.28800 -0.16269 
2.32575 3.30600 -0.16358 
2.29815 3.21900 -0.15928 
2.23109 3.05800 -0.15131 
2.22735 3.04200 -0.15052 
2.23425 2.99800 -0.14834 
2.25138 2.96900 -0.14691 
2.40189 2.95400 -0.14617 
2.43613 2.88500 -0.14275 
-1.85654 2.53700 -0.13215 
-1.27058 1.99200 -0.10376 
-1.22756 1.97300 -0.10277 
-1.11110 1.86400 -0.09710 
-1.09728 1.88200 -0.09803 
-1.28881 2.28200 -0.11887 
-1.40756 2.61300 -0.13611 
-1.39833 2.74200 -0.14283 
-0.98510 2.28200 -0.11887 
-0.99152 2.32500 -0.12111 
-1.03600 2.73000 -0.14221 
-1.03001 2.83100 -0.14747 
-0.97182 3.04200 -0.15846 
-0.95438 3.01200 -0.15690 
-0.63962 2.24000 -0.11668 
-0.51794 2.08000 -0.10835 
-0.45128 2.07300 -0.10798 
-0.18872 2.10100 -0.10944 
-0.12644 2.16100 -0.11257 
-0.03236 2.80500 -0.14611 
-0.01780 2.81800 -0.14679 
0.10528 2.76700 -0.14413 
0.10550 0.58100 -0.03026 
0.13992 0.44100 -0.02297 
0.14011 0.43800 -0.02282 
0.14061 0.43600 -0.02271 
0.14328 0.42700 -0.02224 
0.15031 0.38000 -0.01979 
0.15954 0.36700 -0.01912 
0.15990 0.35300 -0.01839 
0.17365 0.31600 -0.01646 
1.54220 2.78000 -0.14481 
1.57800 2.79200 -0.14544 
1.68131 2.83100 -0.14747 
1.69608 2.83100 -0.14747 
1.74041 2.83100 -0.14747 
1.89504 2.89800 -0.15096 
1.97020 2.95400 -0.15388 
2.29340 3.23600 -0.16856 
2.22599 3.07300 -0.16007 
2.23589 2.96900 -0.15466 
2.25138 2.96900 -0.15466 
2.30939 2.95400 -0.15388 
2.35564 2.95400 -0.15388 
2.42107 2.88500 -0.15028 
-1.28165 1.98500 -0.10858 
-1.27261 1.97900 -0.10825 
-1.11110 1.86400 -0.10196 
-1.20303 2.10100 -0.11492 
-1.39310 2.53700 -0.13877 
-1.12278 2.39800 -0.13117 
-1.03495 2.24800 -0.12297 
-0.97028 2.16900 -0.11864 
-1.02454 2.55900 -0.13998 
-1.03263 2.81800 -0.15414 
-1.00746 2.98300 -0.16317 
-0.79395 2.65900 -0.14545 
-0.59375 2.13800 -0.11695 
-0.48700 2.08700 -0.11416 
-0.46909 2.08000 -0.11378 
-0.42964 2.07300 -0.11339 
-0.34424 2.08000 -0.11378 
-0.24355 2.10100 -0.11492 
-0.23806 2.10100 -0.11492 
-0.13676 2.14600 -0.11739 
-0.02504 2.80500 -0.15343 
0.04065 2.79200 -0.15272 
0.04794 2.79200 -0.15272 
0.09044 2.75500 -0.15070 
0.20450 2.74200 -0.14999 
0.11946 0.51100 -0.02795 
0.12164 0.50900 -0.02784 
0.13069 0.49300 -0.02697 
0.17084 0.32000 -0.01750 
1.74780 2.83100 -0.15486 
1.77067 2.84400 -0.15557 
1.79293 2.84400 -0.15557 
2.28495 3.23600 -0.17701 
2.23225 3.10400 -0.16979 
2.37106 2.95400 -0.16158 
2.40585 2.94000 -0.16082 
2.40602 2.88500 -0.15781 
2.41682 2.87100 -0.15704 
-0.38511 0.55600 -0.03186 
-1.25712 1.97900 -0.11342 
-1.23860 1.96600 -0.11267 
-1.15309 1.89300 -0.10849 
-1.09192 1.84800 -0.10591 
-1.39651 2.58000 -0.14786 
-1.40032 2.62500 -0.15044 
-1.35173 2.70600 -0.15508 
-1.26700 2.64700 -0.15170 
-1.13636 2.42700 -0.13909 
-1.03495 2.24800 -0.12883 
-0.99044 2.17600 -0.12471 
-1.01121 2.44600 -0.14018 
-1.02988 2.65900 -0.15239 
-1.01745 2.85800 -0.16379 
-0.98283 3.02700 -0.17348 
-0.93740 2.98300 -0.17095 
-0.49790 2.08700 -0.11961 
-0.46909 2.08000 -0.11920 
-0.44587 2.07300 -0.11880 
-0.20517 2.10100 -0.12041 
-0.15249 2.13100 -0.12213 
-0.01035 2.79200 -0.16001 
0.00422 2.79200 -0.16001 
0.01156 2.80500 -0.16075 
0.10486 0.63200 -0.03622 
0.11725 0.51300 -0.02940 
0.11835 0.51200 -0.02934 
0.12677 0.50300 -0.02883 
0.13572 0.47900 -0.02745 
0.14566 0.42100 -0.02413 
0.14971 0.41700 -0.02390 
0.15255 0.41000 -0.02350 
0.15347 0.37800 -0.02166 
0.16670 0.33000 -0.01891 
1.66653 2.83100 -0.16224 
1.76324 2.84400 -0.16299 
2.21081 3.20200 -0.18351 
2.20996 3.07300 -0.17611 
2.29397 2.95400 -0.16929 
2.37877 2.95400 -0.16929 
-1.27062 1.96000 -0.11744 
-1.25912 1.96600 -0.11780 
-1.21709 1.94800 -0.11672 
-1.11783 1.85900 -0.11139 
-1.14350 1.97900 -0.11858 
-1.39726 2.56900 -0.15393 
-1.38089 2.69400 -0.16142 
-0.98726 2.16900 -0.12996 
-1.00893 2.45600 -0.14716 
-1.02621 2.58000 -0.15459 
-1.00746 2.98300 -0.17874 
-0.98770 3.04200 -0.18227 
-0.95438 3.01200 -0.18048 
-0.93740 2.98300 -0.17874 
-0.55968 2.09400 -0.12547 
-0.50334 2.08700 -0.12505 
-0.37138 2.08000 -0.12463 
-0.36053 2.08000 -0.12463 
-0.30728 2.08700 -0.12505 
-0.30183 2.08700 -0.12505 
-0.29094 2.08700 -0.12505 
-0.25451 2.10100 -0.12589 
-0.24903 2.10100 -0.12589 
-0.22710 2.10100 -0.12589 
-0.20517 2.10100 -0.12589 
-0.09317 2.47600 -0.14836 
-0.00305 2.78000 -0.16658 
0.04029 2.76700 -0.16580 
0.18224 2.73000 -0.16358 
0.21166 2.74200 -0.16430 
0.22597 2.74200 -0.16430 
0.10550 0.58100 -0.03481 
0.11818 0.56200 -0.03367 
0.14566 0.42100 -0.02523 
0.14898 0.41800 -0.02505 
0.15837 0.37100 -0.02223 
0.16336 0.34100 -0.02043 
0.16670 0.33000 -0.01977 
0.16991 0.32300 -0.01935 
1.57071 2.79200 -0.16729 
1.92699 2.91200 -0.17448 
2.17976 3.16900 -0.18988 
2.21917 3.20200 -0.19186 
2.23387 3.15200 -0.18887 
2.23086 2.98300 -0.17874 
2.26313 2.95400 -0.17700 
2.31710 2.95400 -0.17700 
2.33251 2.95400 -0.17700 
-0.38511 0.55600 -0.03477 
-1.24505 1.96000 -0.12256 
-1.10639 1.84800 -0.11555 
-1.38648 2.53700 -0.15864 
-1.03495 2.24800 -0.14056 
-0.98362 2.16100 -0.13512 
-0.99388 2.38900 -0.14938 
-0.53057 2.08700 -0.13050 
-0.51423 2.08700 -0.13050 
-0.33339 2.08000 -0.13006 
-0.32253 2.08000 -0.13006 
-0.21065 2.10100 -0.13137 
-0.20517 2.10100 -0.13137 
-0.16798 2.11600 -0.13231 
-0.12124 2.16900 -0.13563 
-0.08327 2.56900 -0.16064 
0.13237 2.73000 -0.17070 
0.18224 2.73000 -0.17070 
0.10701 0.58100 -0.03633 
0.12321 0.51000 -0.03189 
0.12596 0.50500 -0.03158 
0.12967 0.49900 -0.03120 
0.13765 0.47700 -0.02983 
0.14414 0.42300 -0.02645 
0.15428 0.38000 -0.02376 
0.16036 0.34800 -0.02176 
0.16425 0.34100 -0.02132 
0.16721 0.33100 -0.02070 
0.16826 0.32800 -0.02051 
0.16894 0.32600 -0.02038 
0.17197 0.31900 -0.01995 
0.17337 0.31700 -0.01982 
0.17530 0.31600 -0.01976 
1.55671 2.78000 -0.17383 
1.84651 2.85800 -0.17871 
1.94389 2.92600 -0.18296 
2.18803 3.16900 -0.19815 
2.23232 3.18500 -0.19915 
2.19560 3.04200 -0.19021 
2.20057 3.02700 -0.18927 
2.20539 3.01200 -0.18834 
2.21529 2.98300 -0.18652 
2.22308 2.98300 -0.18652 
2.35564 2.95400 -0.18471 
2.37877 2.95400 -0.18471 
2.38284 2.94000 -0.18383 
2.39440 2.92600 -0.18296 
2.40183 2.87100 -0.17952 
2.41682 2.87100 -0.17952 
-0.38522 0.55200 -0.03596 
-1.23743 1.94800 -0.12689 
-1.16791 1.89300 -0.12331 
-1.14396 1.87000 -0.12181 
-1.10760 1.84200 -0.11999 
-1.26185 2.22400 -0.14487 
-1.39056 2.56900 -0.16734 
-1.38894 2.59100 -0.16877 
-1.38252 2.67000 -0.17392 
-1.27274 2.65900 -0.17320 
-1.00345 2.19200 -0.14278 
-0.96199 2.13800 -0.13927 
-0.95544 2.20000 -0.14330 
-0.96593 2.26500 -0.14754 
-0.97939 2.32500 -0.15145 
-1.01429 2.51700 -0.16395 
-1.02690 2.70600 -0.17626 
-0.38636 2.07300 -0.13503 
-0.36595 2.08000 -0.13549 
-0.35510 2.08000 -0.13549 
-0.20517 2.10100 -0.13686 
-0.15745 2.12300 -0.13829 
-0.10849 2.25700 -0.14702 
0.10387 2.73000 -0.17783 
0.11812 2.73000 -0.17783 
0.12524 2.73000 -0.17783 
0.16725 2.71800 -0.17705 
0.11860 0.56400 -0.03674 
0.12039 0.51500 -0.03355 
0.12621 0.50600 -0.03296 
0.13373 0.49000 -0.03192 
0.13657 0.48200 -0.03140 
0.14116 0.46800 -0.03048 
0.14338 0.42400 -0.02762 
0.14676 0.42100 -0.02742 
0.15250 0.40700 -0.02651 
0.14989 0.38400 -0.02501 
0.16457 0.33800 -0.02202 
0.16648 0.33300 -0.02169 
0.16685 0.33200 -0.02163 
0.16792 0.32900 -0.02143 
1.57122 2.78000 -0.18108 
1.64417 2.81800 -0.18356 
1.74955 2.85800 -0.18617 
1.79430 2.85800 -0.18617 
1.79293 2.84400 -0.18525 
1.87901 2.88500 -0.18792 
2.19560 3.04200 -0.19815 
2.24363 2.96900 -0.19340 
2.41334 2.91200 -0.18968 
2.41682 2.87100 -0.18701 
-0.38816 0.54600 -0.03699 
-0.38442 0.55500 -0.03760 
-0.38156 0.56800 -0.03848 
-1.27675 1.92300 -0.13028 
-1.25153 2.21600 -0.15013 
-1.34536 2.42700 -0.16442 
-1.37555 2.51700 -0.17052 
-1.38028 2.61300 -0.17703 
-1.36683 2.69400 -0.18251 
-1.33761 2.70600 -0.18333 
-1.27800 2.67000 -0.18089 
-1.19448 2.53700 -0.17188 
-0.95542 2.16100 -0.14640 
-0.97223 2.30800 -0.15636 
-0.98764 2.38900 -0.16185 
-0.22710 2.10100 -0.14234 
-0.14693 2.13100 -0.14437 
-0.11638 2.18400 -0.14796 
-0.10849 2.25700 -0.15291 
-0.10040 2.34300 -0.15873 
0.06139 2.74200 -0.18577 
0.22597 2.74200 -0.18577 
0.10604 0.58400 -0.03956 
0.11004 0.58100 -0.03936 
0.11860 0.56400 -0.03821 
0.11814 0.52900 -0.03584 
0.13251 0.49500 -0.03354 
0.13955 0.47500 -0.03218 
0.14525 0.42300 -0.02866 
0.15222 0.41200 -0.02791 
0.15250 0.38300 -0.02595 
0.15585 0.37900 -0.02568 
0.16343 0.34300 -0.02324 
0.16584 0.33700 -0.02283 
0.16623 0.33600 -0.02276 
0.16661 0.33500 -0.02270 
0.16698 0.33400 -0.02263 
0.16721 0.33100 -0.02242 
0.16894 0.32600 -0.02209 
1.59257 2.79200 -0.18915 
1.83905 2.85800 -0.19362 
2.01290 2.98300 -0.20209 
2.10570 3.07300 -0.20819 
2.24643 2.98300 -0.20209 
2.35985 2.96900 -0.20114 
2.37535 2.96900 -0.20114 
2.39418 2.95400 -0.20013 
2.39440 2.92600 -0.19823 
2.40967 2.92600 -0.19823 
2.40930 2.89800 -0.19633 
-0.38529 0.54800 -0.03856 
-0.38418 0.56100 -0.03947 
-0.38397 0.56500 -0.03975 
-1.22774 1.91700 -0.13488 
-1.14515 1.86400 -0.13115 
-1.25025 2.22400 -0.15648 
-1.31876 2.37900 -0.16738 
-1.38385 2.56900 -0.18075 
-1.38305 2.58000 -0.18152 
-1.37682 2.65900 -0.18708 
-1.35173 2.70600 -0.19039 
-1.32348 2.70600 -0.19039 
-0.08996 0.37300 -0.02624 
-0.08033 0.36900 -0.02596 
-0.31272 2.08700 -0.14684 
-0.23806 2.10100 -0.14782 
-0.22162 2.10100 -0.14782 
-0.19968 2.10100 -0.14782 
-0.13625 2.13800 -0.15042 
-0.09205 2.44600 -0.17209 
-0.05816 2.64700 -0.18624 
0.02561 2.74200 -0.19292 
0.09674 2.73000 -0.19208 
0.13237 2.73000 -0.19208 
0.23312 2.74200 -0.19292 
0.10442 0.60100 -0.04228 
0.10405 0.59000 -0.04151 
0.10622 0.58500 -0.04116 
0.11875 0.53800 -0.03785 
0.12753 0.50600 -0.03560 
0.13380 0.49500 -0.03483 
0.14053 0.45800 -0.03222 
0.14107 0.44100 -0.03103 
0.14061 0.43600 -0.03068 
0.15756 0.37600 -0.02645 
0.16093 0.36800 -0.02589 
0.16300 0.34400 -0.02420 
0.16506 0.33900 -0.02385 
0.17160 0.32300 -0.02273 
1.52827 2.74200 -0.19292 
1.70387 2.84400 -0.20010 
1.80922 2.85800 -0.20108 
2.01290 2.98300 -0.20988 
2.19392 3.07300 -0.21621 
2.18967 3.01200 -0.21192 
2.21861 2.99800 -0.21093 
2.26200 2.98300 -0.20988 
2.35210 2.96900 -0.20889 
-0.38504 0.55800 -0.04072 
-0.38397 0.56500 -0.04123 
-1.13356 1.85300 -0.13521 
-1.09441 1.83600 -0.13397 
-1.08483 1.83600 -0.13397 
-1.08520 1.85300 -0.13521 
-1.33270 2.42700 -0.17709 
-1.35374 2.68200 -0.19570 
-1.30355 2.69400 -0.19657 
-1.27104 2.67000 -0.19482 
-0.09313 0.37400 -0.02729 
-0.08441 0.37000 -0.02700 
-0.08225 0.36900 -0.02692 
-0.31272 2.08700 -0.15228 
-0.28549 2.08700 -0.15228 
-0.17843 2.10900 -0.15389 
-0.15693 2.11600 -0.15440 
-0.04455 2.65900 -0.19402 
-0.01007 2.71800 -0.19832 
0.01846 2.74200 -0.20008 
0.03293 2.75500 -0.20102 
0.19019 2.74200 -0.20008 
0.19735 2.74200 -0.20008 
0.21166 2.74200 -0.20008 
0.21881 2.74200 -0.20008 
0.23312 2.74200 -0.20008 
0.26537 2.70600 -0.19745 
0.10387 0.58900 -0.04298 
0.10469 0.58500 -0.04269 
0.11917 0.55300 -0.04035 
0.12588 0.51000 -0.03721 
0.12859 0.50500 -0.03685 
0.13482 0.49400 -0.03605 
0.14075 0.44000 -0.03211 
0.15148 0.41000 -0.02992 
0.15020 0.39000 -0.02846 
0.15044 0.38800 -0.02831 
0.16254 0.36300 -0.02649 
0.16174 0.35300 -0.02576 
1.75701 2.85800 -0.20854 
1.84651 2.85800 -0.20854 
1.96854 2.94000 -0.21452 
2.02068 2.98300 -0.21766 
2.08446 3.04200 -0.22197 
2.19392 3.07300 -0.22423 
2.24990 2.99800 -0.21876 
2.30870 2.98300 -0.21766 
2.42853 2.91200 -0.21248 
-0.38957 0.54400 -0.04111 
-0.38601 0.54700 -0.04134 
-0.38504 0.55800 -0.04217 
-0.38397 0.56500 -0.04270 
-1.25189 1.89300 -0.14307 
-1.24201 1.89300 -0.14307 
-1.08838 1.84200 -0.13921 
-0.12224 0.38900 -0.02940 
-0.11920 0.38900 -0.02940 
-0.38767 2.08000 -0.15720 
-0.33563 2.09400 -0.15826 
-0.28645 2.09400 -0.15826 
-0.18872 2.10100 -0.15879 
-0.12080 2.16100 -0.16332 
-0.03777 2.67000 -0.20179 
-0.02405 2.69400 -0.20360 
-0.01709 2.70600 -0.20451 
-0.00299 2.73000 -0.20632 
0.19019 2.74200 -0.20723 
0.25946 2.71800 -0.20542 
0.10425 0.60000 -0.04535 
0.10405 0.59000 -0.04459 
0.11023 0.58200 -0.04399 
0.12721 0.51000 -0.03854 
0.12803 0.50800 -0.03839 
0.13407 0.49600 -0.03749 
0.15410 0.38200 -0.02887 
0.15756 0.37600 -0.02842 
0.15868 0.37400 -0.02827 
0.15923 0.37300 -0.02819 
0.16084 0.37000 -0.02796 
0.16514 0.34100 -0.02577 
0.16554 0.34000 -0.02570 
0.17044 0.32400 -0.02449 
0.17221 0.32100 -0.02426 
0.17530 0.31600 -0.02388 
1.68869 2.83100 -0.21396 
2.35541 2.98300 -0.22545 
2.39818 2.94000 -0.22220 
2.41352 2.94000 -0.22220 
2.43613 2.91200 -0.22008 
-1.21024 1.88200 -0.14715 
-1.09920 1.83600 -0.14355 
-1.08520 1.85300 -0.14488 
-1.09381 1.89300 -0.14801 
-1.37292 2.62500 -0.20524 
-0.37138 2.08000 -0.16263 
-0.31482 2.10100 -0.16427 
-0.28099 2.09400 -0.16372 
0.11148 2.74200 -0.21439 
0.11812 2.73000 -0.21345 
0.11922 0.56000 -0.04378 
0.14107 0.44100 -0.03448 
0.14815 0.42500 -0.03323 
0.14895 0.42100 -0.03292 
0.15106 0.40600 -0.03174 
0.15509 0.38200 -0.02987 
0.15756 0.37600 -0.02940 
0.15923 0.37300 -0.02916 
0.16594 0.33900 -0.02651 
0.16822 0.33300 -0.02604 
0.17012 0.32500 -0.02541 
0.17503 0.31700 -0.02479 
1.83159 2.85800 -0.22346 
1.94389 2.92600 -0.22877 
2.25255 3.01200 -0.23550 
2.43198 2.89800 -0.22658 
-0.38529 0.54800 -0.04428 
-0.38517 0.55400 -0.04476 
-1.08838 1.84200 -0.14883 
-0.12224 0.38900 -0.03143 
-0.12021 0.38900 -0.03143 
-0.10076 0.37700 -0.03046 
-0.35202 2.09400 -0.16919 
-0.28099 2.09400 -0.16919 
-0.13625 2.13800 -0.17274 
-0.10768 2.24000 -0.18098 
-0.10374 2.28200 -0.18438 
-0.05768 2.62500 -0.21209 
-0.01007 2.71800 -0.21960 
0.03307 2.76700 -0.22356 
0.06195 2.76700 -0.22356 
0.19019 2.74200 -0.22154 
0.22597 2.74200 -0.22154 
0.24028 2.74200 -0.22154 
0.25946 2.71800 -0.21960 
0.26537 2.70600 -0.21863 
0.11137 0.58000 -0.04686 
0.12018 0.55100 -0.04452 
0.12110 0.53600 -0.04331 
0.12771 0.51200 -0.04137 
0.13358 0.49900 -0.04032 
0.13869 0.48500 -0.03919 
0.15043 0.41300 -0.03337 
0.15643 0.37800 -0.03054 
0.16393 0.36400 -0.02941 
1.62172 2.79200 -0.22558 
1.74209 2.85800 -0.23091 
1.77192 2.85800 -0.23091 
1.96854 2.94000 -0.23754 
2.21637 3.02700 -0.24457 
2.32329 3.01200 -0.24336 
2.33901 3.01200 -0.24336 
2.40189 2.95400 -0.23867 
-1.09920 1.83600 -0.15313 
-1.13444 2.01800 -0.16831 
-1.18684 2.13100 -0.17774 
-0.12529 0.38900 -0.03244 
-0.12294 0.38800 -0.03236 
-0.33675 2.10100 -0.17524 
-0.29837 2.10100 -0.17524 
-0.27006 2.09400 -0.17465 
-0.15191 2.12300 -0.17707 
-0.14136 2.13100 -0.17774 
-0.12597 2.15300 -0.17957 
-0.11596 2.17600 -0.18149 
0.00417 2.75500 -0.22978 
0.05499 2.78000 -0.23187 
0.09806 2.76700 -0.23078 
0.16873 2.74200 -0.22870 
0.23312 2.74200 -0.22870 
0.10407 0.59900 -0.04996 
0.12025 0.55800 -0.04654 
0.13556 0.49200 -0.04104 
0.15137 0.40400 -0.03370 
0.15174 0.39400 -0.03286 
0.16031 0.37100 -0.03094 
0.16137 0.36900 -0.03078 
0.16388 0.36600 -0.03053 
0.16722 0.33800 -0.02819 
2.04649 2.99800 -0.25005 
2.16503 3.08900 -0.25764 
2.20534 3.08900 -0.25764 
2.20715 3.05800 -0.25505 
2.21637 3.02700 -0.25247 
2.31116 3.02700 -0.25247 
2.32329 3.01200 -0.25122 
2.33115 3.01200 -0.25122 
2.33901 3.01200 -0.25122 
2.37535 2.96900 -0.24763 
2.38647 2.95400 -0.24638 
2.39818 2.94000 -0.24521 
2.42094 2.91200 -0.24288 
-0.38573 0.55900 -0.04808 
-1.09080 1.90500 -0.16386 
-0.13853 0.34600 -0.02976 
-0.12021 0.38900 -0.03346 
-0.09657 0.37600 -0.03234 
-0.09534 0.37500 -0.03226 
-0.26459 2.09400 -0.18012 
-0.25913 2.09400 -0.18012 
-0.24737 2.08700 -0.17951 
-0.15745 2.12300 -0.18261 
-0.12597 2.15300 -0.18519 
0.17588 2.74200 -0.23585 
0.18304 2.74200 -0.23585 
0.10756 0.58400 -0.05023 
0.11491 0.57500 -0.04946 
0.12674 0.51900 -0.04464 
0.12845 0.51500 -0.04430 
0.13094 0.50900 -0.04378 
0.14239 0.43800 -0.03767 
0.14563 0.43400 -0.03733 
0.15004 0.40900 -0.03518 
0.15301 0.39200 -0.03372 
0.15325 0.39000 -0.03355 
0.15470 0.38600 -0.03320 
0.16337 0.36700 -0.03157 
0.16449 0.35900 -0.03088 
0.16359 0.35500 -0.03054 
0.16722 0.33800 -0.02907 
0.16798 0.33600 -0.02890 
0.17012 0.32500 -0.02795 
0.17160 0.32300 -0.02778 
0.17221 0.32100 -0.02761 
0.17392 0.31800 -0.02735 
1.70347 2.83100 -0.24351 
1.78684 2.85800 -0.24583 
1.87901 2.88500 -0.24815 
2.14580 3.07300 -0.26432 
2.16503 3.08900 -0.26570 
2.27167 3.02700 -0.26037 
2.35985 2.96900 -0.25538 
2.36760 2.96900 -0.25538 
2.38647 2.95400 -0.25409 
-0.38456 0.54900 -0.04865 
-0.38425 0.57200 -0.05069 
-0.08731 0.37000 -0.03279 
-0.08277 0.36700 -0.03253 
-0.08041 0.36500 -0.03235 
-0.07808 0.36300 -0.03217 
-0.40120 2.09400 -0.18558 
-0.38481 2.09400 -0.18558 
-0.37513 2.10100 -0.18620 
-0.13116 2.14600 -0.19019 
-0.00301 2.74200 -0.24301 
0.00419 2.76700 -0.24522 
0.01146 2.78000 -0.24638 
0.04794 2.79200 -0.24744 
0.10528 2.76700 -0.24522 
0.11201 2.75500 -0.24416 
0.25716 2.69400 -0.23876 
0.10440 0.59200 -0.05247 
0.11230 0.57700 -0.05114 
0.11600 0.57300 -0.05078 
0.14055 0.46200 -0.04094 
0.14321 0.43700 -0.03873 
0.14834 0.43200 -0.03829 
0.15466 0.39100 -0.03465 
0.15700 0.37700 -0.03341 
0.16473 0.34200 -0.03031 
0.16683 0.33900 -0.03004 
0.16722 0.33800 -0.02996 
0.16894 0.33100 -0.02933 
0.16912 0.32800 -0.02907 
0.17503 0.31700 -0.02809 
1.59257 2.79200 -0.24744 
1.84651 2.85800 -0.25329 
2.04649 2.99800 -0.26570 
2.21797 3.07300 -0.27234 
2.23109 3.05800 -0.27101 
2.24323 3.04200 -0.26960 
2.40930 2.89800 -0.25683 
-0.38692 0.56500 -0.05155 
-0.38681 0.56700 -0.05173 
-0.12800 0.38800 -0.03540 
-0.12092 0.38800 -0.03540 
-0.11849 0.39000 -0.03558 
-0.39158 2.10100 -0.19168 
-0.36005 2.10900 -0.19241 
-0.14741 2.13800 -0.19506 
-0.12597 2.15300 -0.19643 
-0.02405 2.69400 -0.24579 
0.00419 2.76700 -0.25245 
0.04794 2.79200 -0.25473 
0.05523 2.79200 -0.25473 
0.09126 2.78000 -0.25363 
0.14010 2.74200 -0.25016 
0.14726 2.74200 -0.25016 
0.19019 2.74200 -0.25016 
0.12635 0.52300 -0.04772 
0.14055 0.46600 -0.04252 
0.14755 0.43300 -0.03950 
0.14920 0.42800 -0.03905 
0.14934 0.41900 -0.03823 
0.15609 0.38200 -0.03485 
0.16084 0.37000 -0.03376 
0.16432 0.34300 -0.03129 
1.84651 2.85800 -0.26075 
1.97621 2.94000 -0.26823 
2.22415 3.10400 -0.28319 
2.22952 3.08900 -0.28182 
2.26705 3.04200 -0.27753 
2.29086 3.04200 -0.27753 
2.32696 3.02700 -0.27617 
2.35541 2.98300 -0.27215 
2.37106 2.95400 -0.26951 
2.39818 2.94000 -0.26823 
2.40585 2.94000 -0.26823 
-0.38531 0.54400 -0.05105 
-0.38388 0.54600 -0.05124 
-0.38669 0.56900 -0.05340 
-0.14173 0.34500 -0.03238 
-0.09486 0.37700 -0.03538 
-0.35455 2.10900 -0.19792 
-0.34354 2.10900 -0.19792 
-0.32703 2.10900 -0.19792 
-0.28193 2.10100 -0.19717 
-0.06424 2.61300 -0.24521 
-0.05768 2.62500 -0.24634 
0.21690 2.71800 -0.25507 
0.12192 0.55900 -0.05246 
0.12250 0.55500 -0.05208 
0.12314 0.54500 -0.05114 
0.12390 0.53600 -0.05030 
0.12980 0.51500 -0.04833 
0.13601 0.48000 -0.04505 
0.14111 0.45600 -0.04279 
0.14286 0.44300 -0.04157 
0.14468 0.43800 -0.04110 
0.14549 0.43700 -0.04101 
0.15212 0.40600 -0.03810 
0.16810 0.33800 -0.03172 
0.16836 0.33500 -0.03144 
0.16894 0.33100 -0.03106 
0.17031 0.32700 -0.03069 
0.17160 0.32300 -0.03031 
0.17221 0.32100 -0.03012 
0.17503 0.31700 -0.02975 
1.57799 2.81800 -0.26445 
1.58535 2.80500 -0.26323 
1.71825 2.83100 -0.26567 
1.77067 2.84400 -0.26689 
1.86989 2.87100 -0.26943 
2.04649 2.99800 -0.28134 
2.07177 3.01200 -0.28266 
2.10828 3.04200 -0.28547 
2.24705 3.05800 -0.28697 
2.27167 3.02700 -0.28407 
2.35161 2.99800 -0.28134 
2.37106 2.95400 -0.27722 
-0.38461 0.54300 -0.05237 
-0.38312 0.54900 -0.05295 
-0.38447 0.55300 -0.05334 
-0.13388 0.34800 -0.03357 
-0.13297 0.34800 -0.03357 
-0.33253 2.10900 -0.20342 
-0.28193 2.10100 -0.20265 
-0.26459 2.09400 -0.20197 
-0.19968 2.10100 -0.20265 
-0.03108 2.69400 -0.25985 
0.06280 2.80500 -0.27055 
0.15441 2.74200 -0.26448 
0.10613 0.59300 -0.05720 
0.11729 0.57200 -0.05517 
0.13504 0.48100 -0.04639 
0.14055 0.46600 -0.04495 
0.14191 0.45100 -0.04350 
0.14370 0.44200 -0.04263 
0.14501 0.43900 -0.04234 
0.14789 0.43400 -0.04186 
0.14920 0.42800 -0.04128 
0.15111 0.40900 -0.03945 
0.15668 0.38100 -0.03675 
0.16031 0.37100 -0.03578 
0.16292 0.36600 -0.03530 
0.16894 0.33100 -0.03193 
0.17031 0.32700 -0.03154 
0.17275 0.32200 -0.03106 
0.17668 0.31700 -0.03058 
1.60743 2.83100 -0.27306 
1.62927 2.80500 -0.27055 
1.78474 2.83100 -0.27306 
2.01120 2.96900 -0.28637 
2.19985 3.10400 -0.29939 
2.29086 3.04200 -0.29341 
2.40602 2.88500 -0.27827 
2.42107 2.88500 -0.27827 
2.41682 2.87100 -0.27692 
-0.38389 0.54400 -0.05389 
-0.38442 0.55500 -0.05498 
-0.38681 0.56700 -0.05617 
-0.38574 0.57200 -0.05666 
-0.13388 0.34800 -0.03447 
-0.12247 0.34400 -0.03408 
-0.35572 2.11600 -0.20962 
-0.24737 2.08700 -0.20674 
-0.19420 2.10100 -0.20813 
-0.18393 2.10900 -0.20892 
-0.01021 2.75500 -0.27292 
-0.00305 2.78000 -0.27540 
0.06280 2.80500 -0.27787 
0.12639 2.75500 -0.27292 
0.13295 2.74200 -0.27163 
0.21690 2.71800 -0.26925 
0.12387 0.54200 -0.05369 
0.12723 0.52100 -0.05161 
0.14199 0.45500 -0.04507 
0.14223 0.45200 -0.04478 
0.14582 0.43800 -0.04339 
0.15640 0.39800 -0.03943 
0.15726 0.38000 -0.03764 
0.15868 0.37400 -0.03705 
0.17447 0.31900 -0.03160 
0.17558 0.31800 -0.03150 
1.62946 2.81800 -0.27916 
1.67319 2.80500 -0.27787 
1.79951 2.83100 -0.28045 
1.91016 2.89800 -0.28709 
2.15382 3.07300 -0.30442 
2.18116 3.08900 -0.30601 
2.31543 3.01200 -0.29838 
2.39859 2.96900 -0.29412 
2.41686 2.89800 -0.28709 
-0.11919 0.24500 -0.02491 
-0.13983 0.34700 -0.03528 
-0.13893 0.34700 -0.03528 
-0.13078 0.34700 -0.03528 
-0.12552 0.34500 -0.03508 
-0.10084 0.38100 -0.03874 
-0.05104 2.63600 -0.26801 
0.05574 2.81800 -0.28651 
0.13038 0.51200 -0.05206 
0.13254 0.50000 -0.05084 
0.16848 0.33700 -0.03426 
0.17418 0.32000 -0.03254 
1.63682 2.81800 -0.28651 
1.64391 2.80500 -0.28519 
1.79951 2.83100 -0.28784 
2.20795 3.10400 -0.31559 
2.21605 3.10400 -0.31559 
2.23758 3.08900 -0.31407 
2.28746 3.02700 -0.30776 
2.42887 2.94000 -0.29892 
2.43654 2.94000 -0.29892 
2.43955 2.89800 -0.29465 
-0.12460 0.22800 -0.02378 
-0.12336 0.22900 -0.02388 
-0.12075 0.24300 -0.02534 
-0.11870 0.24400 -0.02544 
-0.09863 0.38400 -0.04004 
-0.09788 0.38500 -0.04015 
-0.39717 2.13100 -0.22223 
-0.39161 2.13100 -0.22223 
-0.36798 2.12300 -0.22139 
-0.36244 2.12300 -0.22139 
-0.35572 2.11600 -0.22066 
-0.28099 2.09400 -0.21837 
-0.13676 2.14600 -0.22379 
-0.11596 2.17600 -0.22692 
-0.09740 2.27300 -0.23703 
-0.09288 2.30800 -0.24068 
-0.07379 2.47600 -0.25820 
0.09894 2.79200 -0.29116 
0.10577 2.78000 -0.28991 
0.10965 0.58700 -0.06121 
0.11900 0.57300 -0.05975 
0.12635 0.52300 -0.05454 
0.13254 0.50000 -0.05214 
0.13353 0.49400 -0.05152 
0.14025 0.46500 -0.04849 
0.14086 0.46300 -0.04828 
0.14467 0.44500 -0.04641 
0.14834 0.43200 -0.04505 
0.14877 0.43000 -0.04484 
0.14920 0.42800 -0.04463 
0.15750 0.38300 -0.03994 
0.16343 0.36500 -0.03806 
0.17015 0.33000 -0.03441 
0.17530 0.31900 -0.03327 
1.61476 2.81800 -0.29387 
1.65123 2.80500 -0.29251 
1.65855 2.80500 -0.29251 
2.25503 3.05800 -0.31890 
-0.12473 0.22500 -0.02405 
-0.11727 0.24500 -0.02619 
-0.14033 0.34600 -0.03698 
-0.12912 0.34500 -0.03688 
-0.12569 0.34300 -0.03666 
-0.12479 0.34300 -0.03666 
-0.12358 0.39000 -0.04169 
-0.42079 2.13800 -0.22854 
-0.39014 2.12300 -0.22693 
-0.35572 2.11600 -0.22618 
-0.23181 2.09400 -0.22383 
-0.21065 2.10100 -0.22458 
-0.18393 2.10900 -0.22544 
-0.15745 2.12300 -0.22693 
0.07780 2.81800 -0.30122 
0.11941 0.57500 -0.06146 
0.12028 0.57200 -0.06114 
0.13532 0.48200 -0.05152 
0.15115 0.42100 -0.04500 
0.15965 0.37400 -0.03998 
0.16189 0.36800 -0.03934 
0.16398 0.36200 -0.03869 
0.16486 0.34600 -0.03698 
0.16570 0.34400 -0.03677 
0.16936 0.33700 -0.03602 
0.17275 0.32200 -0.03442 
1.65123 2.80500 -0.29983 
1.76183 2.81800 -0.30122 
1.79212 2.83100 -0.30261 
1.96854 2.94000 -0.31426 
1.99333 2.95400 -0.31576 
2.11622 3.04200 -0.32517 
2.28399 3.01200 -0.32196 
2.44421 2.94000 -0.31426 
-0.12597 0.21900 -0.02398 
-0.12482 0.22000 -0.02409 
-0.12469 0.22600 -0.02475 
-0.13582 0.34600 -0.03789 
-0.12965 0.34400 -0.03767 
-0.12154 0.39000 -0.04271 
-0.09532 0.39100 -0.04282 
-0.37229 2.11600 -0.23171 
-0.36124 2.11600 -0.23171 
-0.35572 2.11600 -0.23171 
-0.17902 2.11600 -0.23171 
-0.16299 2.12300 -0.23247 
-0.14693 2.13100 -0.23335 
-0.13116 2.14600 -0.23499 
-0.10110 2.22400 -0.24353 
-0.09599 2.24000 -0.24528 
-0.03845 2.71800 -0.29763 
0.11271 0.58700 -0.06428 
0.13123 0.50500 -0.05530 
0.13601 0.48000 -0.05256 
0.14697 0.43800 -0.04796 
0.14877 0.43000 -0.04709 
0.15151 0.42200 -0.04621 
0.15370 0.41600 -0.04555 
0.15437 0.41200 -0.04511 
0.15559 0.40400 -0.04424 
0.16074 0.37200 -0.04073 
0.16570 0.34400 -0.03767 
0.17359 0.32200 -0.03526 
0.17501 0.32000 -0.03504 
1.66587 2.80500 -0.30715 
1.67319 2.80500 -0.30715 
1.83159 2.85800 -0.31296 
1.97791 2.95400 -0.32347 
2.11622 3.04200 -0.33310 
2.23225 3.10400 -0.33989 
2.23758 3.08900 -0.33825 
2.23401 3.07300 -0.33650 
2.25005 3.07300 -0.33650 
2.26827 3.01200 -0.32982 
2.30870 2.98300 -0.32664 
2.32427 2.98300 -0.32664 
2.36335 2.95400 -0.32347 
2.39418 2.95400 -0.32347 
-0.12478 0.22300 -0.02500 
-0.12410 0.22600 -0.02534 
-0.12163 0.22800 -0.02556 
-0.12265 0.24300 -0.02724 
-0.12202 0.24300 -0.02724 
-0.11727 0.24500 -0.02747 
-0.10900 0.24800 -0.02780 
-0.12496 0.34100 -0.03823 
-0.12281 0.34000 -0.03812 
-0.12491 0.39100 -0.04384 
-0.09889 0.38900 -0.04361 
-0.09711 0.39000 -0.04372 
-0.30501 2.10900 -0.23644 
-0.28193 2.10100 -0.23555 
-0.25366 2.09400 -0.23476 
-0.19968 2.10100 -0.23555 
-0.16299 2.12300 -0.23801 
-0.15745 2.12300 -0.23801 
-0.01756 2.78000 -0.31167 
-0.00309 2.81800 -0.31593 
0.10577 2.78000 -0.31167 
0.17671 2.75500 -0.30887 
0.21073 2.73000 -0.30606 
0.10904 0.59200 -0.06637 
0.13960 0.47100 -0.05280 
0.15187 0.42300 -0.04742 
0.15691 0.38400 -0.04305 
0.16451 0.35700 -0.04002 
1.80777 2.84400 -0.31884 
1.99570 2.96900 -0.33286 
2.26827 3.01200 -0.33768 
2.29314 2.98300 -0.33443 
2.43654 2.94000 -0.32961 
-0.12480 0.22200 -0.02547 
-0.11984 0.22800 -0.02616 
-0.11679 0.24400 -0.02799 
-0.11599 0.24500 -0.02811 
-0.11325 0.24600 -0.02822 
-0.11178 0.24700 -0.02834 
-0.11049 0.24700 -0.02834 
-0.10900 0.24800 -0.02845 
-0.14132 0.34400 -0.03946 
-0.12889 0.34200 -0.03923 
-0.11909 0.33700 -0.03866 
-0.12593 0.39100 -0.04486 
-0.11849 0.39000 -0.04474 
-0.10370 0.38800 -0.04451 
-0.10093 0.38900 -0.04463 
-0.09838 0.39100 -0.04486 
-0.40273 2.13100 -0.24447 
-0.38333 2.11600 -0.24275 
-0.35455 2.10900 -0.24195 
-0.30501 2.10900 -0.24195 
-0.24820 2.09400 -0.24023 
-0.23727 2.09400 -0.24023 
-0.13067 2.13800 -0.24527 
-0.08083 2.30800 -0.26478 
-0.07147 2.39800 -0.27510 
0.02657 2.84400 -0.32627 
0.05600 2.83100 -0.32477 
0.18471 2.76700 -0.31743 
0.21166 2.74200 -0.31456 
0.23713 2.70600 -0.31043 
0.11463 0.58900 -0.06757 
0.13278 0.49600 -0.05690 
0.17135 0.32900 -0.03774 
0.17202 0.32700 -0.03751 
1.57800 2.79200 -0.32030 
1.61443 2.79200 -0.32030 
1.73242 2.81800 -0.32328 
1.74712 2.81800 -0.32328 
1.86395 2.88500 -0.33097 
1.92862 2.92600 -0.33567 
1.94552 2.94000 -0.33728 
2.16184 3.07300 -0.35254 
2.18922 3.08900 -0.35437 
2.30562 2.96900 -0.34061 
2.31040 2.92600 -0.33567 
2.32567 2.92600 -0.33567 
2.44785 2.92600 -0.33567 
2.46312 2.92600 -0.33567 
-0.12824 0.21800 -0.02558 
-0.11471 0.24500 -0.02875 
-0.10791 0.24700 -0.02898 
-0.12585 0.34100 -0.04001 
-0.12157 0.33900 -0.03977 
-0.11821 0.33700 -0.03954 
-0.12185 0.39100 -0.04588 
-0.11747 0.39000 -0.04576 
-0.10296 0.38900 -0.04564 
-0.09502 0.39400 -0.04623 
-0.09344 0.39600 -0.04646 
-0.42375 2.15300 -0.25261 
-0.31155 2.11600 -0.24827 
-0.28300 2.10900 -0.24745 
-0.26548 2.10100 -0.24651 
-0.24903 2.10100 -0.24651 
-0.24355 2.10100 -0.24651 
-0.19968 2.10100 -0.24651 
-0.07565 2.33400 -0.27385 
-0.04435 2.64700 -0.31057 
0.01172 2.84400 -0.33369 
0.13479 2.78000 -0.32618 
0.22498 2.73000 -0.32031 
0.13794 0.47800 -0.05608 
0.14868 0.43300 -0.05080 
0.15371 0.42200 -0.04951 
0.15624 0.41700 -0.04893 
0.15658 0.41500 -0.04869 
0.15674 0.40700 -0.04775 
0.16117 0.37300 -0.04376 
0.16348 0.36300 -0.04259 
0.16581 0.34800 -0.04083 
0.17697 0.31900 -0.03743 
1.62172 2.79200 -0.32759 
1.80035 2.84400 -0.33369 
2.02302 2.99800 -0.35176 
2.22146 3.08900 -0.36243 
2.27337 2.99800 -0.35176 
2.31193 2.87100 -0.33686 
-0.12115 0.22600 -0.02711 
-0.12152 0.24200 -0.02903 
-0.11885 0.24300 -0.02915 
-0.13723 0.34500 -0.04138 
-0.13414 0.34400 -0.04126 
-0.12800 0.34200 -0.04102 
-0.12459 0.34000 -0.04078 
-0.11981 0.39100 -0.04690 
-0.10498 0.38900 -0.04666 
-0.09471 0.39700 -0.04762 
-0.40964 2.13800 -0.25643 
-0.32259 2.11600 -0.25379 
-0.31155 2.11600 -0.25379 
-0.27096 2.10100 -0.25199 
-0.12509 2.13800 -0.25643 
-0.11473 2.15300 -0.25823 
-0.10498 2.18400 -0.26195 
-0.07536 2.32500 -0.27886 
-0.01030 2.78000 -0.33343 
0.12294 0.55700 -0.06681 
0.15445 0.42100 -0.05049 
0.15767 0.38100 -0.04570 
0.16181 0.37000 -0.04438 
0.16189 0.36800 -0.04414 
0.16588 0.35200 -0.04222 
0.16659 0.34400 -0.04126 
0.17187 0.33000 -0.03958 
1.70300 2.81800 -0.33799 
1.73977 2.81800 -0.33799 
1.80035 2.84400 -0.34111 
2.03084 2.99800 -0.35958 
2.17310 3.08900 -0.37049 
2.29175 2.91200 -0.34927 
2.28829 2.89800 -0.34759 
2.38661 2.89800 -0.34759 
-0.12366 0.22100 -0.02708 
-0.11768 0.22500 -0.02757 
-0.10555 0.24600 -0.03015 
-0.10405 0.24700 -0.03027 
-0.13773 0.34400 -0.04216 
-0.13195 0.34300 -0.04203 
-0.12548 0.34000 -0.04167 
-0.12593 0.39100 -0.04792 
-0.11981 0.39100 -0.04792 
-0.10803 0.38900 -0.04767 
-0.09991 0.39300 -0.04816 
-0.09438 0.40000 -0.04902 
-0.36965 2.10100 -0.25748 
-0.35868 2.10100 -0.25748 
-0.23258 2.10100 -0.25748 
-0.07992 2.28200 -0.27966 
0.07780 2.81800 -0.34534 
0.13537 2.79200 -0.34216 
0.16452 2.79200 -0.34216 
0.27340 2.64700 -0.32439 
0.11924 0.58900 -0.07218 
0.12370 0.57400 -0.07034 
0.14292 0.45800 -0.05613 
0.15183 0.42600 -0.05221 
0.15804 0.41600 -0.05098 
0.15609 0.38200 -0.04681 
0.15825 0.38000 -0.04657 
0.16588 0.35200 -0.04314 
0.16652 0.34200 -0.04191 
0.17098 0.33500 -0.04105 
1.75518 2.83100 -0.34694 
1.76257 2.83100 -0.34694 
1.81667 2.85800 -0.35025 
1.86479 2.89800 -0.35515 
1.88899 2.91200 -0.35686 
1.95478 2.95400 -0.36201 
2.22415 3.10400 -0.38039 
2.23401 3.07300 -0.37659 
2.25773 2.99800 -0.36740 
2.26555 2.99800 -0.36740 
2.28829 2.89800 -0.35515 
2.28276 2.84400 -0.34853 
2.42494 2.92600 -0.35858 
-0.11891 0.22400 -0.02804 
-0.11106 0.24400 -0.03054 
-0.13862 0.34400 -0.04305 
-0.13375 0.34300 -0.04293 
-0.11699 0.33600 -0.04205 
-0.33364 2.11600 -0.26484 
-0.26649 2.10900 -0.26396 
-0.11473 2.15300 -0.26947 
-0.07992 2.28200 -0.28561 
-0.03777 2.67000 -0.33418 
0.00428 2.83100 -0.35433 
0.09894 2.79200 -0.34944 
0.23006 2.70600 -0.33868 
0.28031 2.64700 -0.33130 
0.11924 0.58900 -0.07372 
0.12058 0.58800 -0.07359 
0.12336 0.54600 -0.06834 
0.12460 0.53300 -0.06671 
0.12642 0.52900 -0.06621 
0.13545 0.48700 -0.06095 
0.14147 0.46500 -0.05820 
0.14317 0.45500 -0.05695 
0.14831 0.44200 -0.05532 
0.15733 0.41700 -0.05219 
0.16635 0.35300 -0.04418 
0.16659 0.34400 -0.04305 
1.69565 2.81800 -0.35270 
1.75518 2.83100 -0.35433 
1.97246 2.96900 -0.37160 
2.05839 3.02700 -0.37886 
2.11139 3.05800 -0.38274 
2.18922 3.08900 -0.38662 
2.22415 3.10400 -0.38849 
2.22952 3.08900 -0.38662 
2.26555 2.99800 -0.37523 
2.27757 2.98300 -0.37335 
2.29314 2.98300 -0.37335 
2.27447 2.87100 -0.35933 
2.45956 2.94000 -0.36797 
-0.12824 0.21800 -0.02785 
-0.12797 0.39100 -0.04996 
-0.12491 0.39100 -0.04996 
-0.12185 0.39100 -0.04996 
-0.10729 0.39000 -0.04983 
-0.10477 0.39200 -0.05009 
-0.10299 0.39300 -0.05021 
-0.32920 2.12300 -0.27125 
-0.29951 2.10900 -0.26946 
-0.29401 2.10900 -0.26946 
-0.26649 2.10900 -0.26946 
-0.24447 2.10900 -0.26946 
-0.22710 2.10100 -0.26844 
-0.07063 2.37000 -0.30281 
0.17180 2.79200 -0.35673 
0.21166 2.74200 -0.35034 
0.11791 0.59000 -0.07538 
0.12169 0.58600 -0.07487 
0.12456 0.57800 -0.07385 
0.12870 0.52700 -0.06733 
0.13353 0.49400 -0.06312 
0.14286 0.45400 -0.05801 
0.14925 0.43800 -0.05596 
0.15143 0.42800 -0.05469 
0.15866 0.38100 -0.04868 
0.16204 0.37500 -0.04791 
0.17011 0.33500 -0.04280 
0.17187 0.33000 -0.04216 
0.17443 0.32200 -0.04114 
0.17585 0.32000 -0.04089 
1.56387 2.76700 -0.35354 
1.67319 2.80500 -0.35839 
1.70300 2.81800 -0.36005 
1.72506 2.81800 -0.36005 
1.91335 2.92600 -0.37385 
1.93017 2.94000 -0.37564 
2.08446 3.04200 -0.38867 
2.15697 3.08900 -0.39468 
2.22415 3.10400 -0.39659 
2.24705 3.05800 -0.39072 
2.25117 3.04200 -0.38867 
2.28415 2.91200 -0.37206 
2.33826 2.88500 -0.36861 
2.43654 2.94000 -0.37564 
2.48669 2.95400 -0.37743 
-0.12190 0.22200 -0.02894 
-0.11314 0.24300 -0.03168 
-0.10257 0.24500 -0.03194 
-0.13683 0.34400 -0.04485 
-0.13593 0.34400 -0.04485 
-0.12797 0.39100 -0.05098 
-0.12287 0.39100 -0.05098 
-0.11879 0.39100 -0.05098 
-0.09720 0.40300 -0.05254 
-0.23897 2.10900 -0.27497 
-0.15582 2.10100 -0.27393 
-0.13990 2.10900 -0.27497 
0.24202 2.68200 -0.34967 
0.12390 0.58200 -0.07588 
0.14341 0.45200 -0.05893 
0.15259 0.42500 -0.05541 
0.15966 0.38100 -0.04967 
0.16636 0.35500 -0.04628 
0.17472 0.32100 -0.04185 
2.02302 2.99800 -0.39087 
2.06628 3.02700 -0.39466 
2.07418 3.02700 -0.39466 
2.19985 3.10400 -0.40469 
2.22952 3.08900 -0.40274 
2.25911 3.04200 -0.39661 
2.28073 2.89800 -0.37784 
2.36774 2.91200 -0.37966 
2.46832 2.96900 -0.38709 
2.49157 2.96900 -0.38709 
-0.12367 0.22000 -0.02926 
-0.12253 0.22000 -0.02926 
-0.12135 0.22100 -0.02939 
-0.12016 0.22200 -0.02952 
-0.11015 0.24200 -0.03218 
-0.10257 0.24500 -0.03258 
-0.12287 0.39100 -0.05200 
-0.10557 0.39500 -0.05253 
-0.09662 0.40500 -0.05386 
-0.38206 2.10900 -0.28047 
-0.23258 2.10100 -0.27941 
0.02062 0.54200 -0.07208 
0.02200 0.54100 -0.07195 
0.24202 2.68200 -0.35667 
0.24791 2.67000 -0.35508 
0.12301 0.58500 -0.07780 
0.12433 0.58400 -0.07766 
0.13229 0.50400 -0.06703 
0.13994 0.46800 -0.06224 
