ply
format ascii 1.0
comment pointcloud saved from Realsense Viewer
element vertex 1806
property float32 x
property float32 y
property float32 z
end_header
-1.01554 -0.343112 -1.62 
-1.01252 -0.344383 -1.626 
-1.01006 -0.345866 -1.633 
-1.00754 -0.347348 -1.64 
-1.00069 -0.347348 -1.64 
-0.998085 -0.348831 -1.647 
-0.991208 -0.348831 -1.647 
-0.989113 -0.350525 -1.655 
-0.986357 -0.352008 -1.662 
-0.983542 -0.35349 -1.669 
-0.976574 -0.35349 -1.669 
-0.973672 -0.354973 -1.676 
-0.971288 -0.356667 -1.684 
-0.968265 -0.35815 -1.691 
-0.961204 -0.35815 -1.691 
-0.958658 -0.359844 -1.699 
-0.955484 -0.361327 -1.706 
-0.952808 -0.363021 -1.714 
-0.950066 -0.364716 -1.722 
-0.946709 -0.366198 -1.729 
-0.939489 -0.366198 -1.729 
-0.940897 -0.369587 -1.745 
-0.933611 -0.369587 -1.745 
-0.930572 -0.371281 -1.753 
-0.923253 -0.371281 -1.753 
-0.915933 -0.371281 -1.753 
-0.91276 -0.372976 -1.761 
-0.905407 -0.372976 -1.761 
-0.898055 -0.372976 -1.761 
-0.894748 -0.37467 -1.769 
-0.887362 -0.37467 -1.769 
-0.884453 -0.376576 -1.778 
-0.880975 -0.378271 -1.786 
-0.877431 -0.379965 -1.794 
-0.86994 -0.379965 -1.794 
-0.866776 -0.381871 -1.803 
-0.863061 -0.383566 -1.811 
-0.85975 -0.385472 -1.82 
-0.860579 -0.389284 -1.838 
-0.856617 -0.390978 -1.846 
-0.853048 -0.392885 -1.855 
-0.849404 -0.394791 -1.864 
-0.846136 -0.396909 -1.874 
-0.842338 -0.398815 -1.883 
-0.838464 -0.400721 -1.892 
-0.838905 -0.404745 -1.911 
-0.835274 -0.406863 -1.921 
-0.831129 -0.408769 -1.93 
-0.823071 -0.408769 -1.93 
-0.819235 -0.410887 -1.94 
-0.815316 -0.413005 -1.95 
-0.811313 -0.415123 -1.96 
-0.807227 -0.417241 -1.97 
-0.803058 -0.419359 -1.98 
-0.79479 -0.419359 -1.98 
-0.790893 -0.421689 -1.991 
-0.78258 -0.421689 -1.991 
-0.778155 -0.423807 -2.001 
-0.7698 -0.423807 -2.001 
-0.765631 -0.426137 -2.012 
-0.757231 -0.426137 -2.012 
-0.752551 -0.428255 -2.022 
-0.744109 -0.428255 -2.022 
-0.735666 -0.428255 -2.022 
-0.73118 -0.430585 -2.033 
-0.722691 -0.430585 -2.033 
-0.718067 -0.432914 -2.044 
-0.709533 -0.432914 -2.044 
-0.704771 -0.435244 -2.055 
-0.699917 -0.437574 -2.066 
-0.694972 -0.439904 -2.077 
-0.686299 -0.439904 -2.077 
-0.681542 -0.442445 -2.089 
-0.676363 -0.444775 -2.1 
-0.674906 -0.449646 -2.123 
-0.669807 -0.452188 -2.135 
-0.664607 -0.45473 -2.147 
-0.659307 -0.457271 -2.159 
-0.654208 -0.460025 -2.172 
-0.648703 -0.462566 -2.184 
-0.643391 -0.465319 -2.197 
-0.637682 -0.467861 -2.209 
-0.632157 -0.470614 -2.222 
-0.626524 -0.473368 -2.235 
-0.620782 -0.476121 -2.248 
-0.618739 -0.48184 -2.275 
-0.612989 -0.484805 -2.289 
-0.603432 -0.484805 -2.289 
-0.597247 -0.487558 -2.302 
-0.591209 -0.490523 -2.316 
-0.585306 -0.4937 -2.331 
-0.57903 -0.496666 -2.345 
-0.569239 -0.496666 -2.345 
-0.562787 -0.499631 -2.359 
-0.552938 -0.499631 -2.359 
-0.546541 -0.502808 -2.374 
-0.536629 -0.502808 -2.374 
-0.530045 -0.505985 -2.389 
-0.52007 -0.505985 -2.389 
-0.513298 -0.509162 -2.404 
-0.5064 -0.512339 -2.419 
-0.4963 -0.512339 -2.419 
-0.489215 -0.515516 -2.434 
-0.482201 -0.518904 -2.45 
-0.475054 -0.522293 -2.466 
-0.464757 -0.522293 -2.466 
-0.457409 -0.525682 -2.482 
-0.447046 -0.525682 -2.482 
-0.439498 -0.529071 -2.498 
-0.431988 -0.532671 -2.515 
-0.421487 -0.532671 -2.515 
-0.413601 -0.53606 -2.531 
-0.40574 -0.53966 -2.548 
-0.397737 -0.543261 -2.565 
-0.392308 -0.550674 -2.6 
-0.386734 -0.558299 -2.636 
-0.378293 -0.562111 -2.654 
-0.37247 -0.570159 -2.692 
-0.363779 -0.574183 -2.711 
-0.35753 -0.582444 -2.75 
-0.348565 -0.58668 -2.77 
-0.339432 -0.590916 -2.79 
-0.330133 -0.595151 -2.81 
-0.3184 -0.595151 -2.81 
-0.308959 -0.599599 -2.831 
-0.297139 -0.599599 -2.831 
-0.287435 -0.604047 -2.852 
-0.275526 -0.604047 -2.852 
-0.263618 -0.604047 -2.852 
-0.253652 -0.608706 -2.874 
-0.241652 -0.608706 -2.874 
-0.23133 -0.613154 -2.895 
-0.219242 -0.613154 -2.895 
-0.2088 -0.618026 -2.918 
-0.196617 -0.618026 -2.918 
-0.184433 -0.618026 -2.918 
-0.173548 -0.622685 -2.94 
-0.162534 -0.627556 -2.963 
-0.150163 -0.627556 -2.963 
-0.137791 -0.627556 -2.963 
-0.126393 -0.632428 -2.986 
-0.114803 -0.637299 -3.009 
-0.102239 -0.637299 -3.009 
-0.0903908 -0.642382 -3.033 
-0.0777269 -0.642382 -3.033 
-0.0655993 -0.647677 -3.058 
-0.0532457 -0.65276 -3.082 
-0.0403773 -0.65276 -3.082 
-0.0275088 -0.65276 -3.082 
-0.0147591 -0.658055 -3.107 
-0.00180125 -0.663562 -3.133 
0.0112801 -0.663562 -3.133 
0.0243615 -0.663562 -3.133 
0.0374429 -0.663562 -3.133 
0.0509436 -0.669069 -3.159 
0.0641336 -0.669069 -3.159 
0.0779599 -0.674576 -3.185 
0.0912585 -0.674576 -3.185 
0.104557 -0.674576 -3.185 
0.117855 -0.674576 -3.185 
0.130083 -0.669069 -3.159 
0.139781 -0.65276 -3.082 
0.149034 -0.637299 -3.009 
0.15671 -0.618026 -2.918 
0.163859 -0.599599 -2.831 
0.170652 -0.582444 -2.75 
0.175777 -0.562111 -2.654 
0.180592 -0.543261 -2.565 
0.185111 -0.525682 -2.482 
0.191694 -0.515516 -2.434 
0.198125 -0.505985 -2.389 
0.205487 -0.499631 -2.359 
0.212781 -0.4937 -2.331 
0.219745 -0.487558 -2.302 
0.228061 -0.484805 -2.289 
0.234816 -0.479086 -2.262 
0.242749 -0.476121 -2.248 
0.250677 -0.473368 -2.235 
0.258497 -0.470614 -2.222 
0.266208 -0.467861 -2.209 
0.273935 -0.465319 -2.197 
0.283108 -0.465319 -2.197 
0.290552 -0.462566 -2.184 
0.299671 -0.462566 -2.184 
0.307093 -0.460025 -2.172 
0.316162 -0.460025 -2.172 
0.325231 -0.460025 -2.172 
0.332299 -0.457271 -2.159 
0.341313 -0.457271 -2.159 
0.348381 -0.45473 -2.147 
0.357345 -0.45473 -2.147 
0.36631 -0.45473 -2.147 
0.375274 -0.45473 -2.147 
0.382091 -0.452188 -2.135 
0.388808 -0.449646 -2.123 
0.395612 -0.447317 -2.112 
0.40443 -0.447317 -2.112 
0.4109 -0.444775 -2.1 
0.41747 -0.442445 -2.089 
0.423745 -0.439904 -2.077 
0.430127 -0.437574 -2.066 
0.438753 -0.437574 -2.066 
0.444997 -0.435244 -2.055 
0.45115 -0.432914 -2.044 
0.459684 -0.432914 -2.044 
0.465699 -0.430585 -2.033 
0.474187 -0.430585 -2.033 
0.480064 -0.428255 -2.022 
0.488507 -0.428255 -2.022 
0.496949 -0.428255 -2.022 
0.505392 -0.428255 -2.022 
0.511293 -0.426137 -2.012 
0.519694 -0.426137 -2.012 
0.528095 -0.426137 -2.012 
0.536496 -0.426137 -2.012 
0.544897 -0.426137 -2.012 
0.553297 -0.426137 -2.012 
0.56449 -0.428255 -2.022 
0.576049 -0.430585 -2.033 
0.584538 -0.430585 -2.033 
0.596235 -0.432914 -2.044 
0.611279 -0.437574 -2.066 
0.630107 -0.444775 -2.1 
0.649523 -0.452188 -2.135 
0.665839 -0.457271 -2.159 
0.690482 -0.467861 -2.209 
0.716494 -0.479086 -2.262 
0.743268 -0.490523 -2.316 
0.776671 -0.505985 -2.389 
0.801463 -0.515516 -2.434 
0.827632 -0.525682 -2.482 
0.843397 -0.529071 -2.498 
0.859638 -0.532671 -2.515 
0.870139 -0.532671 -2.515 
0.886243 -0.53606 -2.531 
0.891141 -0.532671 -2.515 
0.901642 -0.532671 -2.515 
0.912143 -0.532671 -2.515 
0.916408 -0.529071 -2.498 
0.926838 -0.529071 -2.498 
0.937268 -0.529071 -2.498 
0.947698 -0.529071 -2.498 
0.958128 -0.529071 -2.498 
0.968558 -0.529071 -2.498 
0.978988 -0.529071 -2.498 
0.983081 -0.525682 -2.482 
0.999848 -0.529071 -2.498 
1.01028 -0.529071 -2.498 
1.01417 -0.525682 -2.482 
1.03114 -0.529071 -2.498 
1.04157 -0.529071 -2.498 
1.052 -0.529071 -2.498 
1.06243 -0.529071 -2.498 
1.07286 -0.529071 -2.498 
1.08329 -0.529071 -2.498 
1.10116 -0.532671 -2.515 
1.10415 -0.529071 -2.498 
1.12216 -0.532671 -2.515 
1.13987 -0.53606 -2.531 
1.15817 -0.53966 -2.548 
1.1688 -0.53966 -2.548 
1.17944 -0.53966 -2.548 
1.19008 -0.53966 -2.548 
1.20072 -0.53966 -2.548 
1.21136 -0.53966 -2.548 
1.21385 -0.53606 -2.531 
1.22441 -0.53606 -2.531 
1.22717 -0.532671 -2.515 
1.22931 -0.529071 -2.498 
1.23974 -0.529071 -2.498 
1.23415 -0.522293 -2.466 
1.23638 -0.518904 -2.45 
1.24661 -0.518904 -2.45 
1.24863 -0.515516 -2.434 
1.25103 -0.512339 -2.419 
1.25331 -0.509162 -2.404 
1.25547 -0.505985 -2.389 
1.2575 -0.502808 -2.374 
1.2594 -0.499631 -2.359 
1.26172 -0.496666 -2.345 
1.27151 -0.496666 -2.345 
1.27365 -0.4937 -2.331 
1.28338 -0.4937 -2.331 
1.29312 -0.4937 -2.331 
1.29447 -0.490523 -2.316 
1.30414 -0.490523 -2.316 
1.31381 -0.490523 -2.316 
1.32348 -0.490523 -2.316 
1.33315 -0.490523 -2.316 
1.34282 -0.490523 -2.316 
1.36125 -0.4937 -2.331 
1.37921 -0.496666 -2.345 
1.389 -0.496666 -2.345 
1.40715 -0.499631 -2.359 
1.42601 -0.502808 -2.374 
1.45406 -0.509162 -2.404 
1.49212 -0.518904 -2.45 
1.53178 -0.529071 -2.498 
1.58357 -0.543261 -2.565 
1.63841 -0.558299 -2.636 
1.68446 -0.570159 -2.692 
1.74483 -0.58668 -2.77 
1.82234 -0.608706 -2.874 
1.92051 -0.637299 -3.009 
2.01273 -0.663562 -3.133 
2.13057 -0.697873 -3.295 
2.28164 -0.742563 -3.506 
2.40696 -0.778356 -3.675 
2.57061 -0.826011 -3.9 
2.78589 -0.88955 -4.2 
3.00167 -0.952454 -4.497 
3.16955 -0.999473 -4.719 
3.39876 -1.06513 -5.029 
3.66049 -1.14011 -5.383 
3.8458 -1.19051 -5.621 
3.98629 -1.22652 -5.791 
4.13582 -1.26486 -5.972 
4.29522 -1.30573 -6.165 
4.39175 -1.32712 -6.266 
4.56738 -1.37203 -6.478 
4.75543 -1.4201 -6.705 
4.86903 -1.44552 -6.825 
4.89753 -1.44552 -6.825 
5.10863 -1.4991 -7.078 
5.13818 -1.4991 -7.078 
5.26484 -1.52727 -7.211 
5.39702 -1.55671 -7.35 
5.42771 -1.55671 -7.35 
5.56533 -1.58721 -7.494 
5.59662 -1.58721 -7.494 
5.74056 -1.61898 -7.644 
5.89029 -1.65202 -7.8 
5.8044 -1.61898 -7.644 
5.83631 -1.61898 -7.644 
5.64253 -1.55671 -7.35 
5.26799 -1.44552 -6.825 
4.94339 -1.34915 -6.37 
4.58768 -1.24537 -5.88 
4.28278 -1.15642 -5.46 
4.01854 -1.07932 -5.096 
3.74095 -0.999473 -4.719 
3.50086 -0.930427 -4.393 
3.2925 -0.870488 -4.11 
3.20578 -0.843167 -3.981 
3.12527 -0.817751 -3.861 
3.10966 -0.809491 -3.822 
3.09454 -0.801442 -3.784 
3.14157 -0.809491 -3.822 
3.22197 -0.826011 -3.9 
3.34038 -0.852062 -4.023 
3.50489 -0.88955 -4.2 
3.72706 -0.941229 -4.444 
3.9774 -0.999473 -4.719 
4.31643 -1.07932 -5.096 
4.64754 -1.15642 -5.46 
4.95347 -1.22652 -5.791 
5.29912 -1.30573 -6.165 
5.5952 -1.37203 -6.478 
5.81927 -1.4201 -6.705 
6.06005 -1.47178 -6.949 
6.2021 -1.4991 -7.078 
6.47113 -1.55671 -7.35 
6.6292 -1.58721 -7.494 
6.66049 -1.58721 -7.494 
6.82572 -1.61898 -7.644 
6.99759 -1.65202 -7.8 
7.03016 -1.65202 -7.8 
7.21032 -1.68654 -7.963 
7.24357 -1.68654 -7.963 
7.43125 -1.72234 -8.132 
7.46521 -1.72234 -8.132 
7.49916 -1.72234 -8.132 
7.53311 -1.72234 -8.132 
7.56707 -1.72234 -8.132 
7.60102 -1.72234 -8.132 
7.63498 -1.72234 -8.132 
7.66893 -1.72234 -8.132 
7.70288 -1.72234 -8.132 
7.57605 -1.68654 -7.963 
7.6093 -1.68654 -7.963 
7.64255 -1.68654 -7.963 
7.51868 -1.65202 -7.8 
7.55124 -1.65202 -7.8 
7.43214 -1.61898 -7.644 
7.46405 -1.61898 -7.644 
7.64895 -1.65202 -7.8 
7.68151 -1.65202 -7.8 
8.21747 -1.75983 -8.309 
9.03776 -1.92736 -9.1 
9.29716 -1.97438 -9.322 
9.56944 -2.02373 -9.555 
10.1152 -2.13026 -10.058 
10.7217 -2.24866 -10.617 
-1.25306 -0.29178 -1.351 
-1.24742 -0.29178 -1.351 
-1.24178 -0.29178 -1.351 
-1.23614 -0.29178 -1.351 
-1.23049 -0.29178 -1.351 
-1.22485 -0.29178 -1.351 
-1.21921 -0.29178 -1.351 
-1.21357 -0.29178 -1.351 
-1.20793 -0.29178 -1.351 
-1.20585 -0.292643 -1.355 
-1.20019 -0.292643 -1.355 
-1.19453 -0.292643 -1.355 
-1.18888 -0.292643 -1.355 
-1.18759 -0.293723 -1.36 
-1.18191 -0.293723 -1.36 
-1.18055 -0.294803 -1.365 
-1.17916 -0.295883 -1.37 
-1.17344 -0.295883 -1.37 
-1.17198 -0.296963 -1.375 
-1.17048 -0.298043 -1.38 
-1.16894 -0.299123 -1.385 
-1.16735 -0.300202 -1.39 
-1.16573 -0.301282 -1.395 
-1.16406 -0.302362 -1.4 
-1.16235 -0.303442 -1.405 
-1.1606 -0.304522 -1.41 
-1.15963 -0.305818 -1.416 
-1.15779 -0.306898 -1.421 
-1.15185 -0.306898 -1.421 
-1.14995 -0.307978 -1.426 
-1.14801 -0.309057 -1.431 
-1.14682 -0.310353 -1.437 
-1.14082 -0.310353 -1.437 
-1.13877 -0.311433 -1.442 
-1.13747 -0.312729 -1.448 
-1.13533 -0.313809 -1.453 
-1.13392 -0.315105 -1.459 
-1.1317 -0.316184 -1.464 
-1.12558 -0.316184 -1.464 
-1.12406 -0.31748 -1.47 
-1.12248 -0.318776 -1.476 
-1.1201 -0.319856 -1.481 
-1.11843 -0.321152 -1.487 
-1.11671 -0.322448 -1.493 
-1.11048 -0.322448 -1.493 
-1.11312 -0.325039 -1.505 
-1.10683 -0.325039 -1.505 
-1.10494 -0.326335 -1.511 
-1.10299 -0.327631 -1.517 
-1.10099 -0.328927 -1.523 
-1.09464 -0.328927 -1.523 
-1.09256 -0.330223 -1.529 
-1.08618 -0.330223 -1.529 
-1.08403 -0.331519 -1.535 
-1.07762 -0.331519 -1.535 
-1.0754 -0.332814 -1.541 
-1.06897 -0.332814 -1.541 
-1.06667 -0.33411 -1.547 
-1.06501 -0.335622 -1.554 
-1.06261 -0.336918 -1.56 
-1.06016 -0.338214 -1.566 
-1.05362 -0.338214 -1.566 
-1.05176 -0.339726 -1.573 
-1.04918 -0.341021 -1.579 
-1.04721 -0.342533 -1.586 
-1.04058 -0.342533 -1.586 
-1.03853 -0.344045 -1.593 
-1.03576 -0.345341 -1.599 
-1.03359 -0.346853 -1.606 
-1.03136 -0.348364 -1.613 
-1.02907 -0.349876 -1.62 
-1.02231 -0.349876 -1.62 
-1.0193 -0.351172 -1.626 
-1.01687 -0.352684 -1.633 
-1.01439 -0.354196 -1.64 
-1.00754 -0.354196 -1.64 
-1.00496 -0.355708 -1.647 
-0.998085 -0.355708 -1.647 
-0.996023 -0.357435 -1.655 
-0.993296 -0.358947 -1.662 
-0.986357 -0.358947 -1.662 
-0.983542 -0.360459 -1.669 
-0.980669 -0.361971 -1.676 
-0.978319 -0.363699 -1.684 
-0.971288 -0.363699 -1.684 
-0.968265 -0.36521 -1.691 
-0.961204 -0.36521 -1.691 
-0.958658 -0.366938 -1.699 
-0.955484 -0.36845 -1.706 
-0.952808 -0.370178 -1.714 
-0.950066 -0.371906 -1.722 
-0.946709 -0.373417 -1.729 
-0.939489 -0.373417 -1.729 
-0.936584 -0.375145 -1.737 
-0.933611 -0.376873 -1.745 
-0.930572 -0.378601 -1.753 
-0.923253 -0.378601 -1.753 
-0.915933 -0.378601 -1.753 
-0.908614 -0.378601 -1.753 
-0.905407 -0.380328 -1.761 
-0.898055 -0.380328 -1.761 
-0.890702 -0.380328 -1.761 
-0.883349 -0.380328 -1.761 
-0.879976 -0.382056 -1.769 
-0.877029 -0.384 -1.778 
-0.873518 -0.385728 -1.786 
-0.86994 -0.387456 -1.794 
-0.866776 -0.389399 -1.803 
-0.863061 -0.391127 -1.811 
-0.85975 -0.393071 -1.82 
-0.856365 -0.395015 -1.829 
-0.852905 -0.396958 -1.838 
-0.853048 -0.40063 -1.855 
-0.849404 -0.402574 -1.864 
-0.846136 -0.404733 -1.874 
-0.842338 -0.406677 -1.883 
-0.838464 -0.408621 -1.892 
-0.838905 -0.412724 -1.911 
-0.835274 -0.414884 -1.921 
-0.831129 -0.416828 -1.93 
-0.827335 -0.418988 -1.94 
-0.819235 -0.418988 -1.94 
-0.815316 -0.421147 -1.95 
-0.811313 -0.423307 -1.96 
-0.807227 -0.425467 -1.97 
-0.803058 -0.427627 -1.98 
-0.79479 -0.427627 -1.98 
-0.790893 -0.430002 -1.991 
-0.78258 -0.430002 -1.991 
-0.778155 -0.432162 -2.001 
-0.7698 -0.432162 -2.001 
-0.765631 -0.434538 -2.012 
-0.757231 -0.434538 -2.012 
-0.752551 -0.436697 -2.022 
-0.744109 -0.436697 -2.022 
-0.735666 -0.436697 -2.022 
-0.727224 -0.436697 -2.022 
-0.722691 -0.439073 -2.033 
-0.718067 -0.441449 -2.044 
-0.709533 -0.441449 -2.044 
-0.704771 -0.443825 -2.055 
-0.699917 -0.4462 -2.066 
-0.691291 -0.4462 -2.066 
-0.686299 -0.448576 -2.077 
-0.681542 -0.451168 -2.089 
-0.676363 -0.453543 -2.1 
-0.674906 -0.458511 -2.123 
-0.669807 -0.461102 -2.135 
-0.664607 -0.463694 -2.147 
-0.659307 -0.466286 -2.159 
-0.654208 -0.469093 -2.172 
-0.648703 -0.471685 -2.184 
-0.643391 -0.474493 -2.197 
-0.637682 -0.477084 -2.209 
-0.632157 -0.479892 -2.222 
-0.626524 -0.4827 -2.235 
-0.624648 -0.488531 -2.262 
-0.618739 -0.491339 -2.275 
-0.612989 -0.494362 -2.289 
-0.606859 -0.49717 -2.302 
-0.597247 -0.49717 -2.302 
-0.591209 -0.500194 -2.316 
-0.585306 -0.503433 -2.331 
-0.57903 -0.506457 -2.345 
-0.569239 -0.506457 -2.345 
-0.562787 -0.50948 -2.359 
-0.552938 -0.50948 -2.359 
-0.546541 -0.51272 -2.374 
-0.536629 -0.51272 -2.374 
-0.530045 -0.51596 -2.389 
-0.52007 -0.51596 -2.389 
-0.513298 -0.519199 -2.404 
-0.5064 -0.522439 -2.419 
-0.4963 -0.522439 -2.419 
-0.489215 -0.525678 -2.434 
-0.482201 -0.529134 -2.45 
-0.475054 -0.532589 -2.466 
-0.464757 -0.532589 -2.466 
-0.454461 -0.532589 -2.466 
-0.447046 -0.536045 -2.482 
-0.439498 -0.539501 -2.498 
-0.429068 -0.539501 -2.498 
-0.421487 -0.543172 -2.515 
-0.410986 -0.543172 -2.515 
-0.403033 -0.546628 -2.531 
-0.397737 -0.553971 -2.565 
-0.392308 -0.56153 -2.6 
-0.384093 -0.565417 -2.618 
-0.378293 -0.573192 -2.654 
-0.37247 -0.581399 -2.692 
-0.363779 -0.585503 -2.711 
-0.35753 -0.593926 -2.75 
-0.348565 -0.598245 -2.77 
-0.339432 -0.602565 -2.79 
-0.330133 -0.606884 -2.81 
-0.320779 -0.61142 -2.831 
-0.308959 -0.61142 -2.831 
-0.297139 -0.61142 -2.831 
-0.287435 -0.615955 -2.852 
-0.275526 -0.615955 -2.852 
-0.263618 -0.615955 -2.852 
-0.253652 -0.620706 -2.874 
-0.241652 -0.620706 -2.874 
-0.23133 -0.625242 -2.895 
-0.220984 -0.630209 -2.918 
-0.2088 -0.630209 -2.918 
-0.196617 -0.630209 -2.918 
-0.185824 -0.634961 -2.94 
-0.173548 -0.634961 -2.94 
-0.162534 -0.639928 -2.963 
-0.150163 -0.639928 -2.963 
-0.137791 -0.639928 -2.963 
-0.126393 -0.644895 -2.986 
-0.114803 -0.649863 -3.009 
-0.102239 -0.649863 -3.009 
-0.0903908 -0.655046 -3.033 
-0.0783676 -0.660445 -3.058 
-0.0655993 -0.660445 -3.058 
-0.0532457 -0.665629 -3.082 
-0.0403773 -0.665629 -3.082 
-0.0275088 -0.665629 -3.082 
-0.0147591 -0.671028 -3.107 
-0.00180125 -0.676643 -3.133 
0.0112801 -0.676643 -3.133 
0.0243615 -0.676643 -3.133 
0.0374429 -0.676643 -3.133 
0.0509436 -0.682259 -3.159 
0.0641336 -0.682259 -3.159 
0.0779599 -0.687874 -3.185 
0.0912585 -0.687874 -3.185 
0.104557 -0.687874 -3.185 
0.116893 -0.682259 -3.159 
0.129013 -0.676643 -3.133 
0.139781 -0.665629 -3.082 
0.147895 -0.644895 -2.986 
0.15671 -0.630209 -2.918 
0.163859 -0.61142 -2.831 
0.169411 -0.589606 -2.73 
0.174584 -0.569305 -2.636 
0.180592 -0.553971 -2.565 
0.185111 -0.536045 -2.482 
0.190513 -0.522439 -2.419 
0.196881 -0.51272 -2.374 
0.204267 -0.506457 -2.345 
0.212781 -0.503433 -2.331 
0.219745 -0.49717 -2.302 
0.226667 -0.491339 -2.275 
0.234816 -0.488531 -2.262 
0.242749 -0.485507 -2.248 
0.250677 -0.4827 -2.235 
0.258497 -0.479892 -2.222 
0.266208 -0.477084 -2.209 
0.273935 -0.474493 -2.197 
0.283108 -0.474493 -2.197 
0.290552 -0.471685 -2.184 
0.299671 -0.471685 -2.184 
0.307093 -0.469093 -2.172 
0.316162 -0.469093 -2.172 
0.323284 -0.466286 -2.159 
0.332299 -0.466286 -2.159 
0.341313 -0.466286 -2.159 
0.350328 -0.466286 -2.159 
0.357345 -0.463694 -2.147 
0.36631 -0.463694 -2.147 
0.373177 -0.461102 -2.135 
0.382091 -0.461102 -2.135 
0.388808 -0.458511 -2.123 
0.395612 -0.456135 -2.112 
0.40443 -0.456135 -2.112 
0.4109 -0.453543 -2.1 
0.41747 -0.451168 -2.089 
0.423745 -0.448576 -2.077 
0.430127 -0.4462 -2.066 
0.436417 -0.443825 -2.055 
0.442615 -0.441449 -2.044 
0.45115 -0.441449 -2.044 
0.45721 -0.439073 -2.033 
0.465699 -0.439073 -2.033 
0.471622 -0.436697 -2.022 
0.480064 -0.436697 -2.022 
0.488507 -0.436697 -2.022 
0.496949 -0.436697 -2.022 
0.502892 -0.434538 -2.012 
0.511293 -0.434538 -2.012 
0.519694 -0.434538 -2.012 
0.528095 -0.434538 -2.012 
0.536496 -0.434538 -2.012 
0.544897 -0.434538 -2.012 
0.553297 -0.434538 -2.012 
0.56449 -0.436697 -2.022 
0.572932 -0.436697 -2.022 
0.584538 -0.439073 -2.033 
0.596235 -0.441449 -2.044 
0.611279 -0.4462 -2.066 
0.626806 -0.451168 -2.089 
0.642526 -0.456135 -2.112 
0.662138 -0.463694 -2.147 
0.682668 -0.471685 -2.184 
0.712059 -0.485507 -2.248 
0.734603 -0.494362 -2.289 
0.762366 -0.506457 -2.345 
0.791585 -0.519199 -2.404 
0.811626 -0.525678 -2.434 
0.832593 -0.532589 -2.466 
0.848359 -0.536045 -2.482 
0.864257 -0.539501 -2.498 
0.874688 -0.539501 -2.498 
0.885118 -0.539501 -2.498 
0.895548 -0.539501 -2.498 
0.905978 -0.539501 -2.498 
0.916408 -0.539501 -2.498 
0.920901 -0.536045 -2.482 
0.937268 -0.539501 -2.498 
0.947698 -0.539501 -2.498 
0.951991 -0.536045 -2.482 
0.962354 -0.536045 -2.482 
0.972717 -0.536045 -2.482 
0.989418 -0.539501 -2.498 
0.993444 -0.536045 -2.482 
1.01028 -0.539501 -2.498 
1.02071 -0.539501 -2.498 
1.03114 -0.539501 -2.498 
1.0349 -0.536045 -2.482 
1.04526 -0.536045 -2.482 
1.05562 -0.536045 -2.482 
1.06599 -0.536045 -2.482 
1.07635 -0.536045 -2.482 
1.08671 -0.536045 -2.482 
1.09708 -0.536045 -2.482 
1.10744 -0.536045 -2.482 
1.12501 -0.539501 -2.498 
1.14317 -0.543172 -2.515 
1.16101 -0.546628 -2.531 
1.17157 -0.546628 -2.531 
1.18214 -0.546628 -2.531 
1.19271 -0.546628 -2.531 
1.20328 -0.546628 -2.531 
1.222 -0.550299 -2.548 
1.22441 -0.546628 -2.531 
1.22717 -0.543172 -2.515 
1.22931 -0.539501 -2.498 
1.2318 -0.536045 -2.482 
1.23415 -0.532589 -2.466 
1.23638 -0.529134 -2.45 
1.24661 -0.529134 -2.45 
1.24863 -0.525678 -2.434 
1.25103 -0.522439 -2.419 
1.25331 -0.519199 -2.404 
1.25547 -0.51596 -2.389 
1.2575 -0.51272 -2.374 
1.2594 -0.50948 -2.359 
1.26925 -0.50948 -2.359 
1.27151 -0.506457 -2.345 
1.27365 -0.503433 -2.331 
1.28338 -0.503433 -2.331 
1.29312 -0.503433 -2.331 
1.29447 -0.500194 -2.316 
1.30414 -0.500194 -2.316 
1.31381 -0.500194 -2.316 
1.32348 -0.500194 -2.316 
1.33315 -0.500194 -2.316 
1.35151 -0.503433 -2.331 
1.36125 -0.503433 -2.331 
1.37098 -0.503433 -2.331 
1.389 -0.506457 -2.345 
1.40715 -0.50948 -2.359 
1.417 -0.50948 -2.359 
1.44499 -0.51596 -2.389 
1.48237 -0.525678 -2.434 
1.5422 -0.543172 -2.515 
1.59407 -0.557642 -2.582 
1.6496 -0.573192 -2.654 
1.70824 -0.589606 -2.73 
1.77003 -0.606884 -2.81 
1.85024 -0.630209 -2.918 
1.95178 -0.660445 -3.058 
2.04614 -0.687874 -3.185 
2.16807 -0.724158 -3.353 
2.30311 -0.764329 -3.539 
2.43054 -0.801476 -3.711 
2.59698 -0.850934 -3.94 
2.78589 -0.907087 -4.2 
3.00167 -0.971231 -4.497 
3.16955 -1.01918 -4.719 
3.39876 -1.08613 -5.029 
3.66049 -1.16258 -5.383 
3.78969 -1.19627 -5.539 
3.92709 -1.23213 -5.705 
4.0721 -1.26992 -5.88 
4.16075 -1.28979 -5.972 
4.32096 -1.33147 -6.165 
4.49124 -1.37575 -6.37 
4.59443 -1.39907 -6.478 
4.70138 -1.42326 -6.59 
4.81142 -1.4481 -6.705 
4.83941 -1.4481 -6.705 
4.95452 -1.47402 -6.825 
5.07355 -1.5008 -6.949 
5.19729 -1.52866 -7.078 
5.22684 -1.52866 -7.078 
5.35517 -1.55738 -7.211 
5.48908 -1.5874 -7.35 
5.51977 -1.5874 -7.35 
5.65921 -1.6185 -7.494 
5.6905 -1.6185 -7.494 
5.72179 -1.6185 -7.494 
5.53582 -1.55738 -7.211 
5.17536 -1.4481 -6.705 
4.86268 -1.35329 -6.266 
4.58768 -1.26992 -5.88 
4.28278 -1.17921 -5.46 
4.01854 -1.1006 -5.096 
3.74095 -1.01918 -4.719 
3.46102 -0.937971 -4.343 
3.2925 -0.887649 -4.11 
3.20578 -0.859789 -3.981 
3.12527 -0.833872 -3.861 
3.10966 -0.825449 -3.822 
3.09454 -0.817242 -3.784 
3.11034 -0.817242 -3.784 
3.15753 -0.825449 -3.822 
3.27147 -0.850934 -3.94 
3.39306 -0.878146 -4.066 
3.60126 -0.927388 -4.294 
3.83496 -0.982677 -4.55 
4.0979 -1.04488 -4.838 
4.45687 -1.13083 -5.236 
4.73791 -1.19627 -5.539 
4.97765 -1.2507 -5.791 
5.32486 -1.33147 -6.165 
5.62225 -1.39907 -6.478 
5.84726 -1.4481 -6.705 
6.08906 -1.5008 -6.949 
6.23165 -1.52866 -7.078 
6.50182 -1.5874 -7.35 
6.53251 -1.5874 -7.35 
6.69178 -1.6185 -7.494 
6.85764 -1.6509 -7.644 
6.88956 -1.6509 -7.644 
6.92147 -1.6509 -7.644 
7.09529 -1.68459 -7.8 
6.9853 -1.6509 -7.644 
7.01722 -1.6509 -7.644 
7.193 -1.68459 -7.8 
7.08105 -1.6509 -7.644 
7.11297 -1.6509 -7.644 
7.14489 -1.6509 -7.644 
7.1768 -1.6509 -7.644 
7.20872 -1.6509 -7.644 
7.24064 -1.6509 -7.644 
7.12984 -1.6185 -7.494 
7.16113 -1.6185 -7.494 
7.19242 -1.6185 -7.494 
7.22371 -1.6185 -7.494 
7.255 -1.6185 -7.494 
7.28629 -1.6185 -7.494 
7.31758 -1.6185 -7.494 
7.49597 -1.6509 -7.644 
7.68151 -1.68459 -7.8 
8.21747 -1.79452 -8.309 
9.03776 -1.96535 -9.1 
9.29716 -2.0133 -9.322 
9.81481 -2.11654 -9.8 
10.1152 -2.17226 -10.058 
11.0277 -2.35843 -10.92 
-1.24742 -0.29742 -1.351 
-1.24178 -0.29742 -1.351 
-1.23614 -0.29742 -1.351 
-1.23049 -0.29742 -1.351 
-1.22485 -0.29742 -1.351 
-1.21921 -0.29742 -1.351 
-1.21357 -0.29742 -1.351 
-1.20793 -0.29742 -1.351 
-1.20585 -0.298301 -1.355 
-1.20019 -0.298301 -1.355 
-1.19453 -0.298301 -1.355 
-1.18888 -0.298301 -1.355 
-1.18759 -0.299402 -1.36 
-1.18191 -0.299402 -1.36 
-1.18055 -0.300503 -1.365 
-1.17916 -0.301603 -1.37 
-1.17772 -0.302704 -1.375 
-1.17198 -0.302704 -1.375 
-1.17048 -0.303805 -1.38 
-1.16894 -0.304906 -1.385 
-1.17155 -0.307107 -1.395 
-1.16573 -0.307107 -1.395 
-1.16406 -0.308208 -1.4 
-1.16235 -0.309308 -1.405 
-1.1606 -0.310409 -1.41 
-1.15963 -0.31173 -1.416 
-1.15779 -0.312831 -1.421 
-1.15591 -0.313932 -1.426 
-1.14995 -0.313932 -1.426 
-1.14801 -0.315032 -1.431 
-1.14682 -0.316353 -1.437 
-1.14082 -0.316353 -1.437 
-1.13877 -0.317454 -1.442 
-1.13747 -0.318775 -1.448 
-1.13533 -0.319876 -1.453 
-1.13392 -0.321196 -1.459 
-1.1317 -0.322297 -1.464 
-1.1302 -0.323618 -1.47 
-1.12406 -0.323618 -1.47 
-1.12248 -0.324939 -1.476 
-1.1201 -0.32604 -1.481 
-1.11843 -0.327361 -1.487 
-1.11671 -0.328682 -1.493 
-1.11048 -0.328682 -1.493 
-1.11312 -0.331323 -1.505 
-1.10683 -0.331323 -1.505 
-1.10494 -0.332644 -1.511 
-1.10299 -0.333965 -1.517 
-1.10099 -0.335286 -1.523 
-1.09464 -0.335286 -1.523 
-1.08828 -0.335286 -1.523 
-1.08618 -0.336607 -1.529 
-1.08403 -0.337928 -1.535 
-1.07762 -0.337928 -1.535 
-1.07121 -0.337928 -1.535 
-1.06897 -0.339249 -1.541 
-1.06667 -0.34057 -1.547 
-1.06501 -0.342111 -1.554 
-1.06261 -0.343431 -1.56 
-1.06016 -0.344752 -1.566 
-1.05833 -0.346293 -1.573 
-1.05176 -0.346293 -1.573 
-1.04918 -0.347614 -1.579 
-1.04721 -0.349155 -1.586 
-1.04518 -0.350696 -1.593 
-1.04244 -0.352017 -1.599 
-1.0403 -0.353558 -1.606 
-1.03809 -0.355099 -1.613 
-1.03584 -0.35664 -1.62 
-1.02907 -0.35664 -1.62 
-1.02609 -0.357961 -1.626 
-1.02369 -0.359502 -1.633 
-1.02123 -0.361043 -1.64 
-1.01439 -0.361043 -1.64 
-1.01184 -0.362584 -1.647 
-1.00496 -0.362584 -1.647 
-1.00293 -0.364346 -1.655 
-1.00024 -0.365887 -1.662 
-0.993296 -0.365887 -1.662 
-0.990511 -0.367428 -1.669 
-0.987667 -0.368969 -1.676 
-0.980669 -0.368969 -1.676 
-0.978319 -0.37073 -1.684 
-0.975325 -0.372271 -1.691 
-0.968265 -0.372271 -1.691 
-0.965752 -0.374032 -1.699 
-0.962608 -0.375573 -1.706 
-0.955484 -0.375573 -1.706 
-0.952808 -0.377334 -1.714 
-0.950066 -0.379096 -1.722 
-0.946709 -0.380637 -1.729 
-0.939489 -0.380637 -1.729 
-0.940897 -0.384159 -1.745 
-0.933611 -0.384159 -1.745 
-0.926325 -0.384159 -1.745 
-0.923253 -0.38592 -1.753 
-0.915933 -0.38592 -1.753 
-0.908614 -0.38592 -1.753 
-0.905407 -0.387681 -1.761 
-0.898055 -0.387681 -1.761 
-0.890702 -0.387681 -1.761 
-0.883349 -0.387681 -1.761 
-0.879976 -0.389442 -1.769 
-0.877029 -0.391424 -1.778 
-0.873518 -0.393185 -1.786 
-0.86994 -0.394946 -1.794 
-0.862449 -0.394946 -1.794 
-0.863061 -0.398689 -1.811 
-0.85975 -0.40067 -1.82 
-0.856365 -0.402651 -1.829 
-0.852905 -0.404633 -1.838 
-0.853048 -0.408375 -1.855 
-0.849404 -0.410357 -1.864 
-0.846136 -0.412558 -1.874 
-0.842338 -0.414539 -1.883 
-0.842896 -0.418722 -1.902 
-0.838905 -0.420704 -1.911 
-0.835274 -0.422905 -1.921 
-0.831129 -0.424886 -1.93 
-0.827335 -0.427088 -1.94 
-0.823458 -0.429289 -1.95 
-0.815316 -0.429289 -1.95 
-0.811313 -0.431491 -1.96 
-0.807227 -0.433692 -1.97 
-0.803058 -0.435894 -1.98 
-0.79479 -0.435894 -1.98 
-0.790893 -0.438315 -1.991 
-0.78258 -0.438315 -1.991 
-0.778155 -0.440517 -2.001 
-0.7698 -0.440517 -2.001 
-0.765631 -0.442939 -2.012 
-0.757231 -0.442939 -2.012 
-0.74883 -0.442939 -2.012 
-0.744109 -0.44514 -2.022 
-0.735666 -0.44514 -2.022 
-0.727224 -0.44514 -2.022 
-0.722691 -0.447562 -2.033 
-0.714203 -0.447562 -2.033 
-0.709533 -0.449983 -2.044 
-0.700999 -0.449983 -2.044 
-0.696191 -0.452405 -2.055 
-0.691291 -0.454827 -2.066 
-0.686299 -0.457248 -2.077 
-0.681542 -0.45989 -2.089 
-0.676363 -0.462312 -2.1 
-0.674906 -0.467375 -2.123 
-0.669807 -0.470017 -2.135 
-0.664607 -0.472659 -2.147 
-0.659307 -0.4753 -2.159 
-0.657822 -0.480804 -2.184 
-0.652565 -0.483666 -2.197 
-0.646906 -0.486308 -2.209 
-0.641435 -0.48917 -2.222 
-0.635856 -0.492032 -2.235 
-0.630168 -0.494894 -2.248 
-0.624648 -0.497976 -2.262 
-0.618739 -0.500838 -2.275 
-0.612989 -0.50392 -2.289 
-0.606859 -0.506782 -2.302 
-0.60088 -0.509864 -2.316 
-0.591209 -0.509864 -2.316 
-0.585306 -0.513166 -2.331 
-0.57903 -0.516248 -2.345 
-0.569239 -0.516248 -2.345 
-0.559447 -0.516248 -2.345 
-0.552938 -0.51933 -2.359 
-0.546541 -0.522632 -2.374 
-0.536629 -0.522632 -2.374 
-0.530045 -0.525935 -2.389 
-0.52007 -0.525935 -2.389 
-0.513298 -0.529237 -2.404 
-0.5064 -0.532539 -2.419 
-0.4963 -0.532539 -2.419 
-0.489215 -0.535841 -2.434 
-0.482201 -0.539364 -2.45 
-0.471971 -0.539364 -2.45 
-0.464757 -0.542886 -2.466 
-0.454461 -0.542886 -2.466 
-0.447046 -0.546408 -2.482 
-0.436683 -0.546408 -2.482 
-0.429068 -0.549931 -2.498 
-0.421487 -0.553673 -2.515 
-0.410986 -0.553673 -2.515 
-0.403033 -0.557196 -2.531 
-0.397737 -0.564681 -2.565 
-0.389592 -0.568423 -2.582 
-0.384093 -0.576348 -2.618 
-0.378293 -0.584274 -2.654 
-0.369841 -0.588457 -2.673 
-0.363779 -0.596822 -2.711 
-0.35493 -0.601005 -2.73 
-0.348565 -0.609811 -2.77 
-0.339432 -0.614214 -2.79 
-0.330133 -0.618617 -2.81 
-0.3184 -0.618617 -2.81 
-0.308959 -0.62324 -2.831 
-0.297139 -0.62324 -2.831 
-0.287435 -0.627863 -2.852 
-0.275526 -0.627863 -2.852 
-0.263618 -0.627863 -2.852 
-0.253652 -0.632706 -2.874 
-0.241652 -0.632706 -2.874 
-0.23133 -0.63733 -2.895 
-0.220984 -0.642393 -2.918 
-0.2088 -0.642393 -2.918 
-0.196617 -0.642393 -2.918 
-0.185824 -0.647236 -2.94 
-0.173548 -0.647236 -2.94 
-0.162534 -0.6523 -2.963 
-0.150163 -0.6523 -2.963 
-0.138861 -0.657363 -2.986 
-0.126393 -0.657363 -2.986 
-0.114803 -0.662426 -3.009 
-0.102239 -0.662426 -3.009 
-0.0903908 -0.66771 -3.033 
-0.0783676 -0.673214 -3.058 
-0.0655993 -0.673214 -3.058 
-0.0532457 -0.678497 -3.082 
-0.0403773 -0.678497 -3.082 
-0.027732 -0.684001 -3.107 
-0.0147591 -0.684001 -3.107 
-0.00180125 -0.689725 -3.133 
0.0112801 -0.689725 -3.133 
0.0243615 -0.689725 -3.133 
0.0374429 -0.689725 -3.133 
0.0505243 -0.689725 -3.133 
0.0641336 -0.695449 -3.159 
0.0773235 -0.695449 -3.159 
0.0905135 -0.695449 -3.159 
0.104557 -0.701173 -3.185 
0.116893 -0.695449 -3.159 
0.129013 -0.689725 -3.133 
0.138693 -0.673214 -3.058 
0.147895 -0.657363 -2.986 
0.155475 -0.63733 -2.895 
0.162643 -0.618617 -2.81 
0.168232 -0.596822 -2.711 
0.173392 -0.576348 -2.618 
0.179395 -0.560938 -2.548 
0.183918 -0.542886 -2.466 
0.189332 -0.529237 -2.404 
0.195637 -0.51933 -2.359 
0.203048 -0.513166 -2.331 
0.211411 -0.509864 -2.316 
0.218504 -0.50392 -2.289 
0.226667 -0.500838 -2.275 
0.233363 -0.494894 -2.248 
0.242749 -0.494894 -2.248 
0.250677 -0.492032 -2.235 
0.258497 -0.48917 -2.222 
0.266208 -0.486308 -2.209 
0.273935 -0.483666 -2.197 
0.281433 -0.480804 -2.184 
0.290552 -0.480804 -2.184 
0.298024 -0.478162 -2.172 
0.307093 -0.478162 -2.172 
0.31427 -0.4753 -2.159 
0.323284 -0.4753 -2.159 
0.332299 -0.4753 -2.159 
0.341313 -0.4753 -2.159 
0.348381 -0.472659 -2.147 
0.357345 -0.472659 -2.147 
0.364262 -0.470017 -2.135 
0.373177 -0.470017 -2.135 
0.382091 -0.470017 -2.135 
0.388808 -0.467375 -2.123 
0.395612 -0.464953 -2.112 
0.402132 -0.462312 -2.1 
0.408748 -0.45989 -2.089 
0.415072 -0.457248 -2.077 
0.4215 -0.454827 -2.066 
0.430127 -0.454827 -2.066 
0.436417 -0.452405 -2.055 
0.442615 -0.449983 -2.044 
0.45115 -0.449983 -2.044 
0.45721 -0.447562 -2.033 
0.465699 -0.447562 -2.033 
0.474187 -0.447562 -2.033 
0.480064 -0.44514 -2.022 
0.488507 -0.44514 -2.022 
0.496949 -0.44514 -2.022 
0.505392 -0.44514 -2.022 
0.511293 -0.442939 -2.012 
0.519694 -0.442939 -2.012 
0.528095 -0.442939 -2.012 
0.536496 -0.442939 -2.012 
0.544897 -0.442939 -2.012 
0.553297 -0.442939 -2.012 
0.56449 -0.44514 -2.022 
0.572932 -0.44514 -2.022 
0.581375 -0.44514 -2.022 
0.596235 -0.449983 -2.044 
0.608024 -0.452405 -2.055 
0.623206 -0.457248 -2.077 
0.642526 -0.464953 -2.112 
0.658437 -0.470017 -2.135 
0.678917 -0.478162 -2.172 
0.703824 -0.48917 -2.222 
0.725938 -0.497976 -2.262 
0.752939 -0.509864 -2.316 
0.781707 -0.522632 -2.374 
0.806625 -0.532539 -2.419 
0.821789 -0.535841 -2.434 
0.837421 -0.539364 -2.45 
0.853186 -0.542886 -2.466 
0.869085 -0.546408 -2.482 
0.879448 -0.546408 -2.482 
0.889811 -0.546408 -2.482 
0.900175 -0.546408 -2.482 
0.910538 -0.546408 -2.482 
0.920901 -0.546408 -2.482 
0.931264 -0.546408 -2.482 
0.947698 -0.549931 -2.498 
0.951991 -0.546408 -2.482 
0.962354 -0.546408 -2.482 
0.972717 -0.546408 -2.482 
0.983081 -0.546408 -2.482 
0.999848 -0.549931 -2.498 
1.00381 -0.546408 -2.482 
1.01417 -0.546408 -2.482 
1.02453 -0.546408 -2.482 
1.0349 -0.546408 -2.482 
1.04526 -0.546408 -2.482 
1.04882 -0.542886 -2.466 
1.05911 -0.542886 -2.466 
1.06941 -0.542886 -2.466 
1.0727 -0.539364 -2.45 
1.08293 -0.539364 -2.45 
1.09316 -0.539364 -2.45 
1.1106 -0.542886 -2.466 
1.12817 -0.546408 -2.482 
1.14587 -0.549931 -2.498 
1.16417 -0.553673 -2.515 
1.17467 -0.553673 -2.515 
1.18517 -0.553673 -2.515 
1.19567 -0.553673 -2.515 
1.20617 -0.553673 -2.515 
1.21667 -0.553673 -2.515 
1.22717 -0.553673 -2.515 
1.22931 -0.549931 -2.498 
1.2318 -0.546408 -2.482 
1.23415 -0.542886 -2.466 
1.23638 -0.539364 -2.45 
1.23846 -0.535841 -2.434 
1.24863 -0.535841 -2.434 
1.25103 -0.532539 -2.419 
1.25331 -0.529237 -2.404 
1.25547 -0.525935 -2.389 
1.2575 -0.522632 -2.374 
1.26741 -0.522632 -2.374 
1.27732 -0.522632 -2.374 
1.27151 -0.516248 -2.345 
1.2813 -0.516248 -2.345 
1.28338 -0.513166 -2.331 
1.29312 -0.513166 -2.331 
1.29447 -0.509864 -2.316 
1.30414 -0.509864 -2.316 
1.31381 -0.509864 -2.316 
1.32348 -0.509864 -2.316 
1.33315 -0.509864 -2.316 
1.35151 -0.513166 -2.331 
1.36125 -0.513166 -2.331 
1.37098 -0.513166 -2.331 
1.389 -0.516248 -2.345 
1.3988 -0.516248 -2.345 
1.417 -0.51933 -2.359 
1.44499 -0.525935 -2.389 
1.48237 -0.535841 -2.434 
1.5422 -0.553673 -2.515 
1.60518 -0.572386 -2.6 
1.66141 -0.588457 -2.673 
1.72075 -0.605408 -2.75 
1.79649 -0.627863 -2.852 
1.87878 -0.6523 -2.963 
1.9671 -0.678497 -3.082 
2.06349 -0.707117 -3.212 
2.18682 -0.744542 -3.382 
2.30311 -0.779105 -3.539 
2.43054 -0.816971 -3.711 
2.59698 -0.867385 -3.94 
2.78589 -0.924623 -4.2 
3.00167 -0.990007 -4.497 
3.1306 -1.02611 -4.661 
3.35484 -1.09282 -4.964 
3.60948 -1.16855 -5.308 
3.78969 -1.2194 -5.539 
3.86927 -1.23745 -5.621 
4.01047 -1.27488 -5.791 
4.09665 -1.29447 -5.88 
4.18569 -1.31473 -5.972 
4.3467 -1.35721 -6.165 
4.44407 -1.37945 -6.266 
4.54443 -1.40235 -6.37 
4.57103 -1.40235 -6.37 
4.75641 -1.45078 -6.59 
4.78393 -1.45078 -6.59 
4.89541 -1.47609 -6.705 
5.01152 -1.50251 -6.825 
5.13158 -1.52981 -6.949 
5.1606 -1.52981 -6.949 
5.28595 -1.55821 -7.078 
5.3155 -1.55821 -7.078 
5.44549 -1.58749 -7.211 
5.4756 -1.58749 -7.211 
5.50571 -1.58749 -7.211 
5.33468 -1.52981 -6.949 
5.0866 -1.45078 -6.59 
4.7843 -1.35721 -6.165 
4.51824 -1.27488 -5.791 
4.28278 -1.20201 -5.46 
4.01854 -1.12188 -5.096 
3.74095 -1.03888 -4.719 
3.46102 -0.956104 -4.343 
3.2925 -0.90481 -4.11 
3.20578 -0.876411 -3.981 
3.12527 -0.849993 -3.861 
3.07874 -0.833041 -3.784 
3.06428 -0.824896 -3.747 
3.07992 -0.824896 -3.747 
3.12614 -0.833041 -3.784 
3.20587 -0.849993 -3.861 
3.32213 -0.876411 -3.981 
3.52242 -0.924623 -4.2 
3.70263 -0.967112 -4.393 
3.94797 -1.02611 -4.661 
4.22535 -1.09282 -4.964 
4.54032 -1.16855 -5.308 
4.83152 -1.23745 -5.621 
5.0787 -1.29447 -5.88 
5.3506 -1.35721 -6.165 
5.6493 -1.42612 -6.478 
5.87526 -1.47609 -6.705 
6.11808 -1.52981 -6.949 
6.37886 -1.58749 -7.211 
6.40897 -1.58749 -7.211 
6.56319 -1.61809 -7.35 
6.59388 -1.61809 -7.35 
6.75436 -1.64979 -7.494 
6.65526 -1.61809 -7.35 
6.68595 -1.61809 -7.35 
6.71664 -1.61809 -7.35 
6.74733 -1.61809 -7.35 
6.77802 -1.61809 -7.35 
6.80871 -1.61809 -7.35 
6.71005 -1.58749 -7.211 
6.74016 -1.58749 -7.211 
6.77027 -1.58749 -7.211 
6.80038 -1.58749 -7.211 
6.83048 -1.58749 -7.211 
6.86059 -1.58749 -7.211 
6.76361 -1.55821 -7.078 
6.92081 -1.58749 -7.211 
6.95092 -1.58749 -7.211 
6.98103 -1.58749 -7.211 
7.01114 -1.58749 -7.211 
7.17697 -1.61809 -7.35 
7.20766 -1.61809 -7.35 
7.52788 -1.68281 -7.644 
8.04242 -1.79025 -8.132 
8.82721 -1.95668 -8.888 
9.29716 -2.05222 -9.322 
9.56944 -2.10352 -9.555 
10.1152 -2.21425 -10.058 
10.7217 -2.33732 -10.617 
-1.24742 -0.303061 -1.351 
-1.24178 -0.303061 -1.351 
-1.23614 -0.303061 -1.351 
-1.23049 -0.303061 -1.351 
-1.22485 -0.303061 -1.351 
-1.21921 -0.303061 -1.351 
-1.21357 -0.303061 -1.351 
-1.20793 -0.303061 -1.351 
-1.20229 -0.303061 -1.351 
-1.20019 -0.303959 -1.355 
-1.19453 -0.303959 -1.355 
-1.18888 -0.303959 -1.355 
-1.18759 -0.30508 -1.36 
-1.18191 -0.30508 -1.36 
-1.18055 -0.306202 -1.365 
-1.17916 -0.307324 -1.37 
-1.17772 -0.308445 -1.375 
-1.17198 -0.308445 -1.375 
-1.17048 -0.309567 -1.38 
-1.17316 -0.31181 -1.39 
-1.17155 -0.312932 -1.395 
-1.16991 -0.314053 -1.4 
-1.16406 -0.314053 -1.4 
-1.16235 -0.315175 -1.405 
-1.1606 -0.316296 -1.41 
-1.15963 -0.317642 -1.416 
-1.15779 -0.318764 -1.421 
-1.15591 -0.319886 -1.426 
-1.15399 -0.321007 -1.431 
-1.14801 -0.321007 -1.431 
-1.14682 -0.322353 -1.437 
-1.14082 -0.322353 -1.437 
-1.13877 -0.323475 -1.442 
-1.13747 -0.324821 -1.448 
-1.13533 -0.325942 -1.453 
-1.13392 -0.327288 -1.459 
-1.1317 -0.32841 -1.464 
-1.12558 -0.32841 -1.464 
-1.12406 -0.329756 -1.47 
-1.12248 -0.331102 -1.476 
-1.1201 -0.332223 -1.481 
-1.11843 -0.333569 -1.487 
-1.11671 -0.334915 -1.493 
-1.11048 -0.334915 -1.493 
-1.11312 -0.337607 -1.505 
-1.10683 -0.337607 -1.505 
-1.10494 -0.338953 -1.511 
-1.10299 -0.340299 -1.517 
-1.10099 -0.341645 -1.523 
-1.09464 -0.341645 -1.523 
-1.08828 -0.341645 -1.523 
-1.08618 -0.342991 -1.529 
-1.0798 -0.342991 -1.529 
-1.07762 -0.344337 -1.535 
-1.07121 -0.344337 -1.535 
-1.06897 -0.345683 -1.541 
-1.06667 -0.347029 -1.547 
-1.06501 -0.348599 -1.554 
-1.06261 -0.349945 -1.56 
-1.06016 -0.351291 -1.566 
-1.05833 -0.352861 -1.573 
-1.05577 -0.354207 -1.579 
-1.05383 -0.355777 -1.586 
-1.05183 -0.357348 -1.593 
-1.04911 -0.358694 -1.599 
-1.047 -0.360264 -1.606 
-1.0403 -0.360264 -1.606 
-1.03809 -0.361834 -1.613 
-1.03584 -0.363404 -1.62 
-1.03288 -0.36475 -1.626 
-1.03051 -0.366321 -1.633 
-1.02808 -0.367891 -1.64 
-1.02123 -0.367891 -1.64 
-1.01872 -0.369461 -1.647 
-1.01184 -0.369461 -1.647 
-1.00984 -0.371256 -1.655 
-1.00717 -0.372826 -1.662 
-1.00024 -0.372826 -1.662 
-0.99748 -0.374396 -1.669 
-0.990511 -0.374396 -1.669 
-0.987667 -0.375967 -1.676 
-0.985351 -0.377761 -1.684 
-0.978319 -0.377761 -1.684 
-0.975325 -0.379331 -1.691 
-0.972846 -0.381126 -1.699 
-0.965752 -0.381126 -1.699 
-0.962608 -0.382696 -1.706 
-0.955484 -0.382696 -1.706 
-0.952808 -0.384491 -1.714 
-0.950066 -0.386285 -1.722 
-0.946709 -0.387856 -1.729 
-0.943836 -0.38965 -1.737 
-0.940897 -0.391445 -1.745 
-0.933611 -0.391445 -1.745 
-0.926325 -0.391445 -1.745 
-0.923253 -0.393239 -1.753 
-0.915933 -0.393239 -1.753 
-0.908614 -0.393239 -1.753 
-0.901294 -0.393239 -1.753 
-0.898055 -0.395034 -1.761 
-0.890702 -0.395034 -1.761 
-0.883349 -0.395034 -1.761 
-0.879976 -0.396829 -1.769 
-0.87259 -0.396829 -1.769 
-0.869605 -0.398848 -1.778 
-0.86994 -0.402437 -1.794 
-0.866776 -0.404456 -1.803 
-0.859248 -0.404456 -1.803 
-0.85975 -0.408269 -1.82 
-0.856365 -0.410288 -1.829 
-0.852905 -0.412307 -1.838 
-0.848909 -0.414102 -1.846 
-0.849404 -0.418139 -1.864 
-0.846136 -0.420383 -1.874 
-0.842338 -0.422402 -1.883 
-0.842896 -0.426664 -1.902 
-0.838905 -0.428683 -1.911 
-0.835274 -0.430926 -1.921 
-0.831129 -0.432945 -1.93 
-0.827335 -0.435188 -1.94 
-0.823458 -0.437431 -1.95 
-0.819497 -0.439674 -1.96 
-0.815453 -0.441918 -1.97 
-0.807227 -0.441918 -1.97 
-0.803058 -0.444161 -1.98 
-0.799206 -0.446629 -1.991 
-0.790893 -0.446629 -1.991 
-0.78258 -0.446629 -1.991 
-0.778155 -0.448872 -2.001 
-0.7698 -0.448872 -2.001 
-0.765631 -0.451339 -2.012 
-0.757231 -0.451339 -2.012 
-0.74883 -0.451339 -2.012 
-0.744109 -0.453583 -2.022 
-0.735666 -0.453583 -2.022 
-0.727224 -0.453583 -2.022 
-0.718781 -0.453583 -2.022 
-0.714203 -0.45605 -2.033 
-0.709533 -0.458518 -2.044 
-0.700999 -0.458518 -2.044 
-0.696191 -0.460985 -2.055 
-0.691291 -0.463453 -2.066 
-0.686299 -0.46592 -2.077 
-0.681542 -0.468612 -2.089 
-0.680228 -0.473772 -2.112 
-0.674906 -0.476239 -2.123 
-0.669807 -0.478931 -2.135 
-0.664607 -0.481623 -2.147 
-0.663277 -0.487231 -2.172 
-0.657822 -0.489923 -2.184 
-0.652565 -0.492839 -2.197 
-0.646906 -0.495531 -2.209 
-0.641435 -0.498447 -2.222 
-0.635856 -0.501364 -2.235 
-0.630168 -0.50428 -2.248 
-0.628238 -0.510336 -2.275 
-0.618739 -0.510336 -2.275 
-0.612989 -0.513477 -2.289 
-0.606859 -0.516393 -2.302 
-0.60088 -0.519534 -2.316 
-0.595038 -0.522899 -2.331 
-0.585306 -0.522899 -2.331 
-0.57903 -0.526039 -2.345 
-0.569239 -0.526039 -2.345 
-0.559447 -0.526039 -2.345 
-0.552938 -0.52918 -2.359 
-0.543088 -0.52918 -2.359 
-0.536629 -0.532545 -2.374 
-0.530045 -0.535909 -2.389 
-0.52007 -0.535909 -2.389 
-0.510095 -0.535909 -2.389 
-0.50326 -0.539274 -2.404 
-0.4963 -0.542639 -2.419 
-0.489215 -0.546004 -2.434 
-0.479052 -0.546004 -2.434 
-0.471971 -0.549593 -2.45 
-0.464757 -0.553182 -2.466 
-0.454461 -0.553182 -2.466 
-0.444164 -0.553182 -2.466 
-0.436683 -0.556772 -2.482 
-0.429068 -0.560361 -2.498 
-0.418638 -0.560361 -2.498 
-0.410986 -0.564174 -2.515 
-0.403033 -0.567763 -2.531 
-0.397737 -0.57539 -2.565 
-0.389592 -0.579204 -2.582 
-0.384093 -0.587279 -2.618 
-0.375728 -0.591317 -2.636 
-0.369841 -0.599617 -2.673 
-0.363779 -0.608142 -2.711 
-0.35493 -0.612404 -2.73 
-0.348565 -0.621377 -2.77 
-0.339432 -0.625863 -2.79 
-0.327783 -0.625863 -2.79 
-0.3184 -0.63035 -2.81 
-0.306667 -0.63035 -2.81 
-0.297139 -0.63506 -2.831 
-0.285318 -0.63506 -2.831 
-0.275526 -0.639771 -2.852 
-0.263618 -0.639771 -2.852 
-0.253652 -0.644706 -2.874 
-0.241652 -0.644706 -2.874 
-0.23133 -0.649417 -2.895 
-0.220984 -0.654577 -2.918 
-0.2088 -0.654577 -2.918 
-0.196617 -0.654577 -2.918 
-0.185824 -0.659512 -2.94 
-0.173548 -0.659512 -2.94 
-0.162534 -0.664671 -2.963 
-0.150163 -0.664671 -2.963 
-0.138861 -0.669831 -2.986 
-0.127366 -0.67499 -3.009 
-0.114803 -0.67499 -3.009 
-0.102239 -0.67499 -3.009 
-0.0903908 -0.680374 -3.033 
-0.0783676 -0.685982 -3.058 
-0.0661142 -0.691366 -3.082 
-0.0532457 -0.691366 -3.082 
-0.0403773 -0.691366 -3.082 
-0.027732 -0.696974 -3.107 
-0.0147591 -0.696974 -3.107 
-0.00180125 -0.702806 -3.133 
0.0112801 -0.702806 -3.133 
0.0243615 -0.702806 -3.133 
0.0374429 -0.702806 -3.133 
0.0505243 -0.702806 -3.133 
0.0641336 -0.708639 -3.159 
0.0773235 -0.708639 -3.159 
0.0905135 -0.708639 -3.159 
0.103703 -0.708639 -3.159 
0.116893 -0.708639 -3.159 
0.127942 -0.696974 -3.107 
0.137559 -0.680374 -3.033 
0.146756 -0.664671 -2.963 
0.154347 -0.644706 -2.874 
0.160328 -0.621377 -2.77 
0.167053 -0.60388 -2.692 
0.1722 -0.583242 -2.6 
0.177071 -0.564174 -2.515 
0.181531 -0.546004 -2.434 
0.186969 -0.532545 -2.374 
0.194476 -0.526039 -2.345 
0.201741 -0.519534 -2.316 
0.210133 -0.516393 -2.302 
0.217168 -0.510336 -2.275 
0.225371 -0.50742 -2.262 
0.233363 -0.50428 -2.248 
0.241345 -0.501364 -2.235 
0.250677 -0.501364 -2.235 
0.258497 -0.498447 -2.222 
0.266208 -0.495531 -2.209 
0.273935 -0.492839 -2.197 
0.281433 -0.489923 -2.184 
0.290552 -0.489923 -2.184 
0.298024 -0.487231 -2.172 
0.307093 -0.487231 -2.172 
0.31427 -0.484315 -2.159 
0.323284 -0.484315 -2.159 
0.332299 -0.484315 -2.159 
0.339416 -0.481623 -2.147 
0.348381 -0.481623 -2.147 
0.355348 -0.478931 -2.135 
0.364262 -0.478931 -2.135 
0.373177 -0.478931 -2.135 
0.379944 -0.476239 -2.123 
0.386793 -0.473772 -2.112 
0.395612 -0.473772 -2.112 
0.402132 -0.47108 -2.1 
0.408748 -0.468612 -2.089 
0.415072 -0.46592 -2.077 
0.423745 -0.46592 -2.077 
0.430127 -0.463453 -2.066 
0.436417 -0.460985 -2.055 
0.444997 -0.460985 -2.055 
0.45115 -0.458518 -2.044 
0.459684 -0.458518 -2.044 
0.465699 -0.45605 -2.033 
0.474187 -0.45605 -2.033 
0.482676 -0.45605 -2.033 
0.488507 -0.453583 -2.022 
0.496949 -0.453583 -2.022 
0.505392 -0.453583 -2.022 
0.513834 -0.453583 -2.022 
0.519694 -0.451339 -2.012 
0.528095 -0.451339 -2.012 
0.536496 -0.451339 -2.012 
0.544897 -0.451339 -2.012 
0.553297 -0.451339 -2.012 
0.561698 -0.451339 -2.012 
0.572932 -0.453583 -2.022 
0.584538 -0.45605 -2.033 
0.596235 -0.458518 -2.044 
0.608024 -0.460985 -2.055 
0.623206 -0.46592 -2.077 
0.638875 -0.47108 -2.1 
0.654736 -0.476239 -2.123 
0.674854 -0.484315 -2.159 
0.699706 -0.495531 -2.209 
0.721445 -0.50428 -2.248 
0.744161 -0.513477 -2.289 
0.772158 -0.526039 -2.345 
0.791619 -0.532545 -2.374 
0.81166 -0.539274 -2.404 
0.831952 -0.546004 -2.434 
0.84765 -0.549593 -2.45 
0.85788 -0.549593 -2.45 
0.873779 -0.553182 -2.466 
0.884075 -0.553182 -2.466 
0.900175 -0.556772 -2.482 
0.910538 -0.556772 -2.482 
0.920901 -0.556772 -2.482 
0.931264 -0.556772 -2.482 
0.941628 -0.556772 -2.482 
0.951991 -0.556772 -2.482 
0.962354 -0.556772 -2.482 
0.972717 -0.556772 -2.482 
0.983081 -0.556772 -2.482 
0.993444 -0.556772 -2.482 
1.01028 -0.560361 -2.498 
1.02071 -0.560361 -2.498 
1.02453 -0.556772 -2.482 
1.0349 -0.556772 -2.482 
1.03852 -0.553182 -2.466 
1.04882 -0.553182 -2.466 
1.05224 -0.549593 -2.45 
1.05553 -0.546004 -2.434 
1.0657 -0.546004 -2.434 
1.06923 -0.542639 -2.419 
1.07933 -0.542639 -2.419 
1.09619 -0.546004 -2.434 
1.10635 -0.546004 -2.434 
1.13119 -0.553182 -2.466 
1.14889 -0.556772 -2.482 
1.15926 -0.556772 -2.482 
1.17716 -0.560361 -2.498 
1.18759 -0.560361 -2.498 
1.19802 -0.560361 -2.498 
1.20845 -0.560361 -2.498 
1.21888 -0.560361 -2.498 
1.22931 -0.560361 -2.498 
1.2318 -0.556772 -2.482 
1.23415 -0.553182 -2.466 
1.23638 -0.549593 -2.45 
1.24661 -0.549593 -2.45 
1.24863 -0.546004 -2.434 
1.25103 -0.542639 -2.419 
1.25331 -0.539274 -2.404 
1.26335 -0.539274 -2.404 
1.26544 -0.535909 -2.389 
1.27542 -0.535909 -2.389 
1.27732 -0.532545 -2.374 
1.2791 -0.52918 -2.359 
1.2813 -0.526039 -2.345 
1.29109 -0.526039 -2.345 
1.30088 -0.526039 -2.345 
1.30285 -0.522899 -2.331 
1.31258 -0.522899 -2.331 
1.32232 -0.522899 -2.331 
1.32348 -0.519534 -2.316 
1.33315 -0.519534 -2.316 
1.35151 -0.522899 -2.331 
1.36125 -0.522899 -2.331 
1.37921 -0.526039 -2.345 
1.389 -0.526039 -2.345 
1.3988 -0.526039 -2.345 
1.417 -0.52918 -2.359 
1.44499 -0.535909 -2.389 
1.48237 -0.546004 -2.434 
1.5422 -0.564174 -2.515 
1.60518 -0.583242 -2.6 
1.67322 -0.60388 -2.692 
1.73327 -0.621377 -2.77 
1.81034 -0.644706 -2.874 
1.87878 -0.664671 -2.963 
1.98306 -0.696974 -3.107 
2.08083 -0.726585 -3.239 
2.18682 -0.758663 -3.382 
2.30311 -0.793882 -3.539 
2.43054 -0.832465 -3.711 
2.57061 -0.874863 -3.9 
2.75538 -0.931841 -4.154 
2.93225 -0.985454 -4.393 
3.1306 -1.04557 -4.661 
3.35484 -1.11354 -4.964 
3.60948 -1.19071 -5.308 
3.78969 -1.24253 -5.539 
3.86927 -1.26092 -5.621 
3.95091 -1.27977 -5.705 
4.09665 -1.31902 -5.88 
4.1212 -1.31902 -5.88 
4.21062 -1.33966 -5.972 
4.37244 -1.38296 -6.165 
4.39818 -1.38296 -6.165 
4.42392 -1.38296 -6.165 
4.59762 -1.42894 -6.37 
4.62422 -1.42894 -6.37 
4.81144 -1.47829 -6.59 
4.83896 -1.47829 -6.59 
4.9514 -1.50409 -6.705 
4.97939 -1.50409 -6.705 
5.09701 -1.53101 -6.825 
5.21863 -1.55883 -6.949 
5.24764 -1.55883 -6.949 
5.37461 -1.58776 -7.078 
5.30567 -1.55883 -6.949 
5.23949 -1.53101 -6.825 
4.91679 -1.42894 -6.37 
4.70824 -1.36097 -6.067 
4.45114 -1.27977 -5.705 
4.22238 -1.20753 -5.383 
3.96571 -1.12812 -5.029 
3.69498 -1.04557 -4.661 
3.46102 -0.974238 -4.343 
3.2925 -0.921971 -4.11 
3.17276 -0.883835 -3.94 
3.12527 -0.866114 -3.861 
3.07874 -0.848841 -3.784 
3.06428 -0.840541 -3.747 
3.05033 -0.832465 -3.711 
3.09557 -0.840541 -3.747 
3.17349 -0.857365 -3.822 
3.28792 -0.883835 -3.94 
3.44694 -0.921971 -4.11 
3.57957 -0.952703 -4.247 
3.80906 -1.00878 -4.497 
4.06702 -1.07182 -4.778 
4.35898 -1.14315 -5.096 
4.62695 -1.20753 -5.383 
4.92755 -1.27977 -5.705 
5.1831 -1.33966 -5.972 
5.46442 -1.40561 -6.266 
5.77449 -1.47829 -6.59 
6.0089 -1.53101 -6.825 
6.14709 -1.55883 -6.949 
6.29076 -1.58776 -7.078 
6.43907 -1.6176 -7.211 
6.46918 -1.6176 -7.211 
6.49929 -1.6176 -7.211 
6.5294 -1.6176 -7.211 
6.55951 -1.6176 -7.211 
6.46808 -1.58776 -7.078 
6.49763 -1.58776 -7.078 
6.52718 -1.58776 -7.078 
6.55674 -1.58776 -7.078 
6.46625 -1.55883 -6.949 
6.49527 -1.55883 -6.949 
6.52428 -1.55883 -6.949 
6.5533 -1.55883 -6.949 
6.46485 -1.53101 -6.825 
6.49335 -1.53101 -6.825 
6.64034 -1.55883 -6.949 
6.55034 -1.53101 -6.825 
6.69837 -1.55883 -6.949 
6.72738 -1.55883 -6.949 
6.88182 -1.58776 -7.078 
6.91138 -1.58776 -7.078 
6.94093 -1.58776 -7.078 
7.23835 -1.64878 -7.35 
7.87529 -1.78629 -7.963 
8.82721 -1.99379 -8.888 
9.07575 -2.04135 -9.1 
9.33608 -2.09115 -9.322 
10.1152 -2.25625 -10.058 
10.4319 -2.31726 -10.33 
-1.2587 -0.308702 -1.351 
-1.25306 -0.308702 -1.351 
-1.2428 -0.30756 -1.346 
-1.24178 -0.308702 -1.351 
-1.23614 -0.308702 -1.351 
-1.23049 -0.308702 -1.351 
-1.22485 -0.308702 -1.351 
-1.21921 -0.308702 -1.351 
-1.21357 -0.308702 -1.351 
-1.20793 -0.308702 -1.351 
-1.20229 -0.308702 -1.351 
-1.20019 -0.309616 -1.355 
-1.19453 -0.309616 -1.355 
-1.18888 -0.309616 -1.355 
-1.18759 -0.310759 -1.36 
-1.18191 -0.310759 -1.36 
-1.18055 -0.311901 -1.365 
-1.17916 -0.313044 -1.37 
-1.17772 -0.314186 -1.375 
-1.17198 -0.314186 -1.375 
