ply
format ascii 1.0
comment pointcloud saved from Realsense Viewer
element vertex 1807
property float32 x
property float32 y
property float32 z
end_header
1.72913 2.37000 -0.73574 
1.72723 2.33400 -0.72457 
1.73503 2.25700 -0.70066 
1.74092 2.25700 -0.70066 
-1.55894 2.16900 -0.67901 
-1.55261 2.17600 -0.68120 
-1.52302 2.22400 -0.69622 
-1.48608 2.26500 -0.70906 
-1.31208 2.33400 -0.73066 
-1.29765 2.35200 -0.73629 
-1.29151 2.35200 -0.73629 
-1.14175 2.46600 -0.77198 
-1.09469 2.47600 -0.77511 
-0.57792 1.80900 -0.56631 
-0.56243 1.82000 -0.56975 
-0.54373 1.87000 -0.58540 
-0.54374 1.88700 -0.59073 
-0.44519 2.87100 -0.89877 
-0.06856 3.12000 -0.97672 
0.05330 3.10400 -0.97171 
0.32921 3.27000 -1.02367 
0.43007 3.32400 -1.04058 
0.47695 3.12000 -0.97672 
0.46926 2.74200 -0.85838 
0.47671 2.41700 -0.75664 
0.49613 2.38900 -0.74788 
0.58964 2.38900 -0.74788 
0.75479 2.37900 -0.74475 
1.18357 3.01200 -0.94291 
1.27486 3.12000 -0.97672 
1.34864 3.01200 -0.94291 
1.35900 2.98300 -0.93383 
1.43372 2.89800 -0.90722 
1.44411 2.84400 -0.89032 
1.47818 2.74200 -0.85838 
1.52995 2.67000 -0.83584 
1.55978 2.54800 -0.79765 
1.62563 2.48600 -0.77824 
1.71827 2.39800 -0.75069 
1.73389 2.34300 -0.73348 
1.71852 2.28200 -0.71438 
1.72361 2.27300 -0.71156 
1.76513 2.27300 -0.71156 
1.87217 2.22400 -0.69622 
-1.66598 2.16100 -0.68214 
-1.64295 2.15300 -0.67962 
-1.61522 2.16100 -0.68214 
-1.42109 2.34300 -0.73959 
-1.39051 2.34300 -0.73959 
-1.26082 2.35200 -0.74243 
-1.24100 2.36100 -0.74527 
-1.20106 2.41700 -0.76295 
-1.15964 2.43600 -0.76895 
-0.81595 2.03800 -0.64331 
-0.77673 1.99200 -0.62879 
-0.66272 1.84800 -0.58334 
-0.55922 1.82500 -0.57608 
-0.54373 1.87000 -0.59028 
-0.54230 1.88200 -0.59407 
-0.66012 2.76700 -0.87343 
-0.56891 2.78000 -0.87753 
-0.53264 2.78000 -0.87753 
-0.43769 2.87100 -0.90626 
-0.35966 2.96900 -0.93719 
-0.33970 2.99800 -0.94635 
-0.33343 3.01200 -0.95077 
-0.25610 3.02700 -0.95550 
-0.14111 3.10400 -0.97981 
-0.03581 3.10400 -0.97981 
0.36535 3.28800 -1.03789 
0.40405 3.32400 -1.04925 
0.48384 2.87100 -0.90626 
0.48773 2.50600 -0.79104 
0.53149 2.40800 -0.76011 
0.59186 2.39800 -0.75695 
0.66345 2.40800 -0.76011 
0.71134 2.37900 -0.75095 
0.82340 2.39800 -0.75695 
0.85469 2.39800 -0.75695 
0.88403 2.42700 -0.76611 
0.97905 2.61300 -0.82482 
1.45153 2.84400 -0.89774 
1.45229 2.83100 -0.89363 
1.72532 2.29900 -0.72570 
1.73527 2.26500 -0.71497 
1.82732 2.29900 -0.72570 
1.86544 2.21600 -0.69950 
-1.64295 2.15300 -0.68523 
-1.61522 2.16100 -0.68778 
-1.55261 2.17600 -0.69255 
-1.31208 2.33400 -0.74284 
-1.24716 2.36100 -0.75143 
-1.20736 2.41700 -0.76926 
-1.16600 2.43600 -0.77530 
-1.14994 2.45600 -0.78167 
-0.59515 1.80400 -0.57416 
-0.55922 1.82500 -0.58084 
-0.62527 2.80500 -0.89275 
-0.58342 2.78000 -0.88479 
-0.51547 2.80500 -0.89275 
-0.46017 2.87100 -0.91375 
-0.35966 2.96900 -0.94494 
0.13711 3.16900 -1.00860 
0.17936 3.18500 -1.01369 
0.27368 3.21900 -1.02451 
0.45856 3.34200 -1.06366 
0.49881 3.10400 -0.98791 
0.50135 2.64700 -0.84246 
0.68859 2.40800 -0.76639 
0.69487 2.40800 -0.76639 
0.79839 2.41700 -0.76926 
0.82683 2.40800 -0.76639 
0.83312 2.40800 -0.76639 
0.93071 2.53700 -0.80745 
1.03945 2.75500 -0.87683 
1.28140 3.13600 -0.99809 
1.36243 2.94000 -0.93571 
1.44987 2.88500 -0.91821 
1.46091 2.80500 -0.89275 
1.54296 2.73000 -0.86888 
1.59323 2.55900 -0.81445 
1.60601 2.53700 -0.80745 
1.61306 2.51700 -0.80108 
1.62563 2.50600 -0.79758 
1.65171 2.49600 -0.79440 
1.74429 2.40800 -0.76639 
1.74811 2.37900 -0.75716 
1.83447 2.30800 -0.73457 
-1.55894 2.16900 -0.69599 
-1.51141 2.22400 -0.71364 
-1.31208 2.33400 -0.74893 
-1.23955 2.37000 -0.76048 
-1.22290 2.39800 -0.76947 
-1.17236 2.43600 -0.78166 
-1.12430 2.45600 -0.78808 
-1.10507 2.45600 -0.78808 
-0.80017 2.02500 -0.64978 
-0.72926 1.93500 -0.62090 
-0.58574 1.80400 -0.57887 
-0.58943 2.18400 -0.70080 
-0.55441 2.78000 -0.89204 
-0.51051 2.81800 -0.90424 
-0.23240 3.02700 -0.97130 
-0.04436 3.13600 -1.00628 
0.02944 3.15200 -1.01141 
0.09428 3.12000 -1.00114 
0.15365 3.16900 -1.01687 
0.16192 3.16900 -1.01687 
0.20539 3.20200 -1.02745 
0.34448 3.25300 -1.04382 
0.36335 3.27000 -1.04927 
0.42140 3.32400 -1.06660 
0.51929 2.78000 -0.89204 
0.56032 2.56900 -0.82434 
0.60618 2.45600 -0.78808 
0.71861 2.44600 -0.78487 
0.96703 2.63600 -0.84584 
1.04163 2.78000 -0.89204 
1.31056 3.08900 -0.99120 
1.31389 2.96900 -0.95269 
1.31776 2.92600 -0.93889 
1.47691 2.78000 -0.89204 
1.52055 2.76700 -0.88787 
1.65832 2.50600 -0.80412 
1.66120 2.37900 -0.76337 
1.74612 2.34300 -0.75182 
1.75425 2.28200 -0.73225 
1.79732 2.29900 -0.73770 
-1.62086 2.16100 -0.69906 
-1.57026 2.16900 -0.70165 
-1.56965 2.17600 -0.70391 
-1.54687 2.19200 -0.70909 
-1.52935 2.20800 -0.71426 
-1.49400 2.22400 -0.71944 
-1.46968 2.24000 -0.72461 
-1.33549 2.34300 -0.75793 
-1.29880 2.34300 -0.75793 
-1.23702 2.38900 -0.77281 
-1.23078 2.38900 -0.77281 
-1.17717 2.44600 -0.79125 
-1.14353 2.45600 -0.79449 
-1.01640 2.39800 -0.77573 
-0.87599 2.14600 -0.69421 
-0.83537 2.07300 -0.67059 
-0.67818 1.86400 -0.60298 
-0.63368 1.82000 -0.58875 
-0.59515 1.80400 -0.58357 
-0.55628 1.83100 -0.59231 
-0.55000 1.84200 -0.59587 
-0.48265 2.87100 -0.92874 
-0.24030 3.02700 -0.97920 
-0.01168 3.15200 -1.01964 
0.04590 3.15200 -1.01964 
0.14538 3.16900 -1.02514 
0.42140 3.32400 -1.07528 
0.48212 3.32400 -1.07528 
0.58235 2.67000 -0.86371 
0.84166 2.54800 -0.82425 
1.27835 3.16900 -1.02514 
1.36358 2.92600 -0.94653 
1.40686 2.96900 -0.96044 
1.47600 2.79200 -0.90318 
1.47691 2.78000 -0.89930 
1.65903 2.51700 -0.81422 
1.69699 2.48600 -0.80419 
1.83478 2.31600 -0.74920 
1.85254 2.30800 -0.74661 
1.85004 2.29000 -0.74079 
1.85294 2.20800 -0.71426 
-1.69981 2.16100 -0.70470 
-1.63214 2.16100 -0.70470 
-1.60958 2.16100 -0.70470 
-1.55832 2.18400 -0.71220 
-1.54677 2.20000 -0.71742 
-1.51176 2.21600 -0.72263 
-1.45799 2.24000 -0.73046 
-1.38972 2.35200 -0.76698 
-1.31103 2.34300 -0.76405 
-1.25810 2.37000 -0.77285 
-0.99455 2.36100 -0.76992 
-0.76134 1.97900 -0.64535 
-0.59208 1.80900 -0.58991 
-0.67599 2.65900 -0.86710 
-0.52279 2.80500 -0.91471 
-0.32405 2.99800 -0.97764 
-0.25610 3.02700 -0.98710 
-0.22450 3.02700 -0.98710 
0.11056 3.12000 -1.01743 
0.16192 3.16900 -1.03340 
0.41272 3.32400 -1.08395 
0.46728 3.34200 -1.08982 
0.53127 3.30600 -1.07808 
0.58792 2.83100 -0.92318 
0.63257 2.70600 -0.88242 
0.75064 2.62500 -0.85601 
0.83030 2.70600 -0.88242 
0.96590 2.73000 -0.89025 
1.36358 2.92600 -0.95416 
1.49209 2.96900 -0.96819 
1.49888 2.76700 -0.90231 
1.61962 2.54800 -0.83090 
1.67441 2.38900 -0.77905 
1.71287 2.40800 -0.78524 
1.75896 2.35200 -0.76698 
1.79231 2.30800 -0.75263 
-1.69352 2.15300 -0.70771 
-1.67666 2.15300 -0.70771 
-1.63778 2.16100 -0.71034 
-1.47706 2.21600 -0.72842 
-1.43493 2.31600 -0.76129 
-1.42781 2.33400 -0.76720 
-1.29151 2.35200 -0.77312 
-1.27181 2.36100 -0.77608 
-1.21869 2.42700 -0.79777 
-1.07700 2.43600 -0.80073 
-0.79214 2.01800 -0.66333 
-0.59680 1.80900 -0.59463 
-0.53559 1.89300 -0.62224 
-0.41554 2.92600 -0.96180 
-0.16461 3.08900 -1.01538 
-0.14111 3.10400 -1.02031 
-0.09346 3.13600 -1.03083 
0.60193 3.01200 -0.99007 
0.60695 2.99800 -0.98547 
0.61823 2.94000 -0.96640 
0.62292 2.92600 -0.96180 
0.73621 2.64700 -0.87009 
0.82432 2.83100 -0.93057 
0.88583 2.79200 -0.91775 
1.20568 3.15200 -1.03609 
1.27968 2.85800 -0.93945 
1.44296 3.01200 -0.99007 
1.69324 2.39800 -0.78824 
1.75081 2.41700 -0.79449 
1.76942 2.40800 -0.79153 
1.78532 2.29900 -0.75570 
1.83280 2.18400 -0.71790 
-1.53511 2.20800 -0.73155 
-1.49478 2.20800 -0.73155 
-1.47173 2.20800 -0.73155 
-1.39585 2.35200 -0.77926 
-1.29765 2.35200 -0.77926 
-1.27797 2.36100 -0.78224 
-1.26288 2.37900 -0.78820 
-1.24686 2.40800 -0.79781 
-1.13421 2.43600 -0.80709 
-1.11514 2.43600 -0.80709 
-0.54215 1.84800 -0.61227 
-0.53568 1.87600 -0.62155 
-0.65842 2.73000 -0.90450 
-0.62966 2.79200 -0.92504 
-0.40790 2.92600 -0.96943 
-0.39263 2.92600 -0.96943 
-0.32243 2.98300 -0.98832 
-0.15655 3.08900 -1.02344 
-0.13301 3.10400 -1.02841 
0.02133 3.16900 -1.04994 
0.25823 3.23600 -1.07214 
0.46477 3.32400 -1.10130 
0.57502 3.36000 -1.11323 
0.65900 3.05800 -1.01317 
0.66812 3.02700 -1.00290 
0.66538 2.61300 -0.86573 
1.22481 3.20200 -1.06088 
1.39204 2.95400 -0.97871 
1.45014 3.02700 -1.00290 
1.52030 3.07300 -1.01814 
1.50208 2.67000 -0.88462 
1.50411 2.61300 -0.86573 
1.53980 2.55900 -0.84784 
1.55316 2.55900 -0.84784 
1.72558 2.41700 -0.80079 
1.77242 2.37000 -0.78522 
1.83931 2.29900 -0.76170 
1.83762 2.28200 -0.75607 
1.81752 2.20000 -0.72890 
-1.50659 2.20000 -0.73464 
-1.45338 2.22400 -0.74265 
-1.44471 2.26500 -0.75634 
-1.42997 2.30800 -0.77070 
-1.37039 2.36100 -0.78840 
-1.34675 2.35200 -0.78540 
-1.32220 2.35200 -0.78540 
-1.24521 2.41700 -0.80710 
-1.18069 2.42700 -0.81044 
-1.10243 2.43600 -0.81345 
-1.07064 2.43600 -0.81345 
-0.96955 2.31600 -0.77338 
-0.82715 2.06600 -0.68989 
-0.69861 1.89300 -0.63212 
-0.63368 1.82000 -0.60775 
-0.60152 1.80900 -0.60407 
-0.55780 1.83600 -0.61309 
-0.66084 2.68200 -0.89559 
-0.48265 2.87100 -0.95870 
-0.33472 2.95400 -0.98642 
-0.27711 2.99800 -1.00111 
-0.04483 3.16900 -1.05821 
0.16023 3.13600 -1.04719 
0.29201 3.23600 -1.08059 
0.32921 3.27000 -1.09194 
0.34628 3.27000 -1.09194 
0.40186 3.30600 -1.10396 
0.53118 3.36000 -1.12199 
0.65205 3.30600 -1.10396 
0.68047 3.23600 -1.08059 
0.68529 3.21900 -1.07491 
0.71751 3.10400 -1.03651 
0.68615 2.78000 -0.92832 
1.03148 3.02700 -1.01080 
1.13166 3.15200 -1.05254 
1.15430 3.16900 -1.05821 
1.26130 3.25300 -1.08626 
1.30374 3.25300 -1.08626 
1.26476 2.85800 -0.95436 
1.26599 2.84400 -0.94969 
1.39911 2.96900 -0.99143 
1.44224 3.02700 -1.01080 
1.52231 2.99800 -1.00111 
1.48923 2.83100 -0.94535 
1.48983 2.63600 -0.88023 
1.53897 2.58000 -0.86153 
1.57987 2.55900 -0.85452 
1.67947 2.54800 -0.85085 
1.69860 2.52700 -0.84383 
1.72643 2.43600 -0.81345 
1.78663 2.38900 -0.79775 
1.78629 2.30800 -0.77070 
-1.64841 2.13100 -0.71716 
-1.60988 2.16900 -0.72995 
-1.58101 2.17600 -0.73230 
-1.57533 2.17600 -0.73230 
-1.54677 2.20000 -0.74038 
-1.54103 2.20000 -0.74038 
-1.45278 2.23200 -0.75115 
-1.26909 2.37900 -0.80062 
-1.26045 2.39800 -0.80701 
-0.97332 2.32500 -0.78245 
-0.71247 1.91700 -0.64514 
-0.57668 1.82000 -0.61250 
-0.53264 2.78000 -0.93557 
-0.43425 2.89800 -0.97528 
-0.40595 2.91200 -0.97999 
-0.35445 2.92600 -0.98471 
-0.34080 2.94000 -0.98942 
-0.32701 2.95400 -0.99413 
-0.05309 3.16900 -1.06648 
-0.01175 3.16900 -1.06648 
0.17750 3.15200 -1.06076 
0.23290 3.23600 -1.08903 
0.32921 3.27000 -1.10047 
0.42140 3.32400 -1.11865 
0.55182 3.37900 -1.13716 
0.70710 2.69400 -0.90663 
0.98852 3.30600 -1.11259 
1.09053 3.15200 -1.06076 
1.13289 3.20200 -1.07759 
1.29910 3.30600 -1.11259 
1.26918 2.88500 -0.97091 
1.30310 2.84400 -0.95711 
1.44224 3.02700 -1.01870 
1.53627 3.08900 -1.03956 
1.53682 3.05800 -1.02913 
1.51538 2.95400 -0.99413 
1.50277 2.87100 -0.96620 
1.48444 2.76700 -0.93120 
1.48653 2.71800 -0.91471 
1.48118 2.67000 -0.89855 
1.48223 2.64700 -0.89081 
1.51204 2.58000 -0.86826 
1.74701 2.45600 -0.82653 
1.78364 2.43600 -0.81980 
1.79287 2.38900 -0.80399 
1.80821 2.29000 -0.77067 
1.81419 2.29000 -0.77067 
-1.63709 2.13800 -0.72509 
-1.46679 2.19200 -0.74341 
-1.23769 2.42700 -0.82311 
-1.10879 2.43600 -0.82616 
-1.01640 2.39800 -0.81327 
-0.99834 2.37000 -0.80378 
-0.75846 1.98500 -0.67321 
-0.58736 1.80900 -0.61352 
-0.62250 2.35200 -0.79767 
-0.66211 2.65900 -0.90179 
-0.62131 2.75500 -0.93435 
-0.56380 2.75500 -0.93435 
-0.53264 2.78000 -0.94283 
-0.33918 2.92600 -0.99234 
-0.33313 2.94000 -0.99709 
-0.26929 2.99800 -1.01676 
-0.20974 3.04200 -1.03168 
-0.07709 3.13600 -1.06356 
0.06203 3.13600 -1.06356 
0.09380 3.10400 -1.05271 
0.20648 3.21900 -1.09171 
0.22446 3.23600 -1.09748 
0.76837 3.32400 -1.12732 
0.70154 2.75500 -0.93435 
0.70319 2.70600 -0.91773 
0.90729 3.20200 -1.08595 
1.00153 3.37900 -1.14597 
1.18048 3.28800 -1.11511 
1.52726 3.12000 -1.05814 
1.54355 3.12000 -1.05814 
1.54433 3.08900 -1.04762 
1.50866 2.92600 -0.99234 
1.47996 2.70600 -0.91773 
1.47507 2.65900 -0.90179 
1.48511 2.58000 -0.87500 
1.57308 2.54800 -0.86414 
1.77343 2.46600 -0.83633 
1.78205 2.33400 -0.79157 
1.82140 2.18400 -0.74070 
1.83744 2.17600 -0.73798 
-1.53529 2.20000 -0.75186 
-1.47853 2.18400 -0.74639 
-1.42888 2.31600 -0.79151 
-1.32726 2.36100 -0.80689 
-1.24521 2.41700 -0.82602 
-1.15060 2.41700 -0.82602 
-1.13168 2.41700 -0.82602 
-1.10879 2.43600 -0.83252 
-1.08142 2.44600 -0.83593 
-0.79763 2.03200 -0.69445 
-0.76865 1.99800 -0.68283 
-0.71693 1.92900 -0.65925 
-0.67151 1.85900 -0.63532 
-0.66056 1.84200 -0.62951 
-0.64318 1.82000 -0.62200 
-0.59680 1.80900 -0.61824 
-0.56738 1.83600 -0.62746 
-0.54538 1.85900 -0.63532 
-0.64134 2.71800 -0.92889 
-0.60143 2.73000 -0.93299 
-0.47811 2.84400 -0.97195 
-0.43769 2.87100 -0.98118 
-0.38887 2.89800 -0.99041 
-0.32546 2.94000 -1.00476 
-0.27573 2.98300 -1.01946 
-0.17980 3.07300 -1.05022 
-0.15655 3.08900 -1.05568 
0.02930 3.13600 -1.07175 
0.06986 3.12000 -1.06628 
0.26808 3.25300 -1.11173 
0.34819 3.28800 -1.12369 
0.43007 3.32400 -1.13600 
0.60795 3.39700 -1.16094 
0.63454 3.39700 -1.16094 
0.67527 3.37900 -1.15479 
0.70172 3.37900 -1.15479 
0.83813 3.04200 -1.03962 
1.11698 3.25300 -1.11173 
1.28708 3.34200 -1.14215 
1.27789 3.01200 -1.02937 
1.46499 3.05800 -1.04509 
1.54373 3.10400 -1.06081 
1.53013 2.99800 -1.02458 
1.48444 2.76700 -0.94564 
1.47165 2.58000 -0.88173 
1.52645 2.55900 -0.87455 
1.65979 2.56900 -0.87797 
1.67363 2.58000 -0.88173 
1.69730 2.49600 -0.85302 
1.74889 2.48600 -0.84961 
1.79187 2.45600 -0.83935 
1.79132 2.29900 -0.78570 
1.81211 2.26500 -0.77408 
1.83850 2.18400 -0.74639 
-1.64841 2.13100 -0.73384 
-1.63709 2.13800 -0.73625 
-1.55259 2.19200 -0.75485 
-1.53529 2.20000 -0.75760 
-1.52381 2.20000 -0.75760 
-1.50111 2.19200 -0.75485 
-1.42997 2.30800 -0.79480 
-1.42888 2.31600 -0.79755 
-1.35289 2.35200 -0.80995 
-1.33342 2.36100 -0.81305 
-1.23890 2.41700 -0.83233 
-1.18703 2.42700 -0.83578 
-1.17436 2.42700 -0.83578 
-0.74358 1.97300 -0.67943 
-0.71916 1.93500 -0.66635 
-0.63457 1.80900 -0.62296 
-0.61096 1.80900 -0.62296 
-0.54069 1.91100 -0.65808 
-0.58718 2.73000 -0.94012 
-0.53264 2.78000 -0.95734 
-0.37960 2.88500 -0.99349 
-0.19583 3.07300 -1.05823 
-0.18879 3.08900 -1.06374 
-0.17267 3.08900 -1.06374 
0.04566 3.13600 -1.07993 
0.37598 3.30600 -1.13847 
0.43007 3.32400 -1.14467 
0.48473 3.34200 -1.15087 
0.52241 3.36000 -1.15707 
0.56362 3.39700 -1.16981 
0.76930 3.21900 -1.10851 
1.06905 3.34200 -1.15087 
1.11429 3.27000 -1.12607 
1.25894 3.36000 -1.15707 
1.32635 3.28800 -1.13227 
1.32941 2.88500 -0.99349 
1.34297 2.89800 -0.99797 
1.51877 2.58000 -0.88846 
1.63997 2.55900 -0.88123 
1.67990 2.56900 -0.88467 
1.78814 2.33400 -0.80375 
1.78998 2.28200 -0.78584 
1.82989 2.20800 -0.76036 
-1.58724 2.16900 -0.75259 
-1.56965 2.17600 -0.75502 
-1.43768 2.28200 -0.79180 
-1.39663 2.34300 -0.81296 
-1.15060 2.41700 -0.83864 
-1.03502 2.42700 -0.84211 
-0.81898 2.05900 -0.71442 
-0.75328 1.98500 -0.68875 
-0.63457 1.80900 -0.62768 
-0.40588 2.85800 -0.99165 
-0.20491 3.08900 -1.07181 
-0.14921 3.10400 -1.07701 
0.01293 3.13600 -1.08811 
0.12620 3.10400 -1.07701 
0.31215 3.27000 -1.13461 
0.33961 3.28800 -1.14085 
0.38460 3.30600 -1.14710 
0.40186 3.30600 -1.14710 
0.50217 3.34200 -1.15959 
0.51364 3.36000 -1.16584 
0.68773 3.39700 -1.17867 
0.73995 2.99800 -1.04023 
0.72359 2.87100 -0.99617 
0.98575 3.41600 -1.18527 
1.25894 3.36000 -1.16584 
1.28525 3.36000 -1.16584 
1.31532 3.21900 -1.11691 
1.30439 3.15200 -1.09366 
1.28943 3.05800 -1.06105 
1.28424 2.88500 -1.00102 
1.34945 2.91200 -1.01039 
1.50866 2.92600 -1.01525 
1.50483 2.80500 -0.97326 
1.48653 2.71800 -0.94308 
1.51204 2.58000 -0.89520 
1.53981 2.53700 -0.88028 
1.60601 2.53700 -0.88028 
1.63329 2.55900 -0.88791 
1.67363 2.58000 -0.89520 
1.81110 2.45600 -0.85217 
1.81751 2.45600 -0.85217 
1.81214 2.39800 -0.83205 
1.79579 2.35200 -0.81609 
1.78629 2.30800 -0.80082 
1.80620 2.26500 -0.78590 
1.82338 2.25700 -0.78312 
1.83813 2.23200 -0.77445 
-1.56965 2.17600 -0.76070 
-1.46443 2.23200 -0.78027 
-1.39051 2.34300 -0.81908 
-1.34675 2.35200 -0.82222 
-1.32496 2.37900 -0.83166 
-1.29800 2.39800 -0.83830 
-1.11514 2.43600 -0.85159 
-0.76343 1.99800 -0.69847 
-0.74584 1.97900 -0.69183 
-0.54685 1.86400 -0.65163 
-0.54223 2.75500 -0.96311 
-0.48109 2.81800 -0.98513 
-0.39647 2.84400 -0.99422 
-0.12491 3.10400 -1.08511 
-0.09251 3.10400 -1.08511 
-0.04436 3.13600 -1.09630 
0.06986 3.12000 -1.09070 
0.12620 3.10400 -1.08511 
0.40186 3.30600 -1.15573 
0.47601 3.34200 -1.16831 
0.71832 3.41600 -1.19418 
0.77669 3.36000 -1.17460 
0.75044 3.07300 -1.07427 
0.98027 3.39700 -1.18754 
1.12042 3.28800 -1.14943 
1.19987 3.34200 -1.16831 
1.24141 3.36000 -1.17460 
1.31636 3.30600 -1.15573 
1.32072 3.25300 -1.13720 
1.28866 2.91200 -1.01799 
1.48114 3.04200 -1.06344 
1.51538 2.95400 -1.03267 
1.51763 2.88500 -1.00855 
1.51815 2.60200 -0.90962 
1.65308 2.56900 -0.89808 
1.66649 2.56900 -0.89808 
1.69662 2.47600 -0.86557 
1.71645 2.48600 -0.86907 
1.81848 2.46600 -0.86208 
1.78731 2.32500 -0.81278 
1.82985 2.26500 -0.79181 
1.84694 2.25700 -0.78901 
-1.58677 2.15300 -0.75827 
-1.50084 2.20000 -0.77483 
-1.40410 2.32500 -0.81885 
-1.29084 2.40800 -0.84808 
-1.15536 2.42700 -0.85478 
-1.12150 2.43600 -0.85795 
-1.10507 2.45600 -0.86499 
-0.82176 2.06600 -0.72763 
-0.60289 1.79900 -0.63360 
-0.59515 1.80400 -0.63536 
-0.55662 1.84800 -0.65086 
-0.55180 1.84800 -0.65086 
-0.55023 1.85900 -0.65473 
-0.53899 1.90500 -0.67093 
-0.54075 1.92900 -0.67938 
-0.59878 2.71800 -0.95726 
-0.57041 2.71800 -0.95726 
-0.55868 2.73000 -0.96149 
-0.28351 2.98300 -1.05059 
-0.18971 3.10400 -1.09321 
0.02111 3.13600 -1.10448 
0.02930 3.13600 -1.10448 
0.07800 3.12000 -1.09885 
0.41049 3.30600 -1.16435 
0.51961 3.34200 -1.17703 
0.65227 3.39700 -1.19640 
0.74092 3.39700 -1.19640 
0.75865 3.39700 -1.19640 
0.77226 3.37900 -1.19006 
0.72160 2.80500 -0.98790 
0.89893 3.20200 -1.12773 
0.98027 3.39700 -1.19640 
1.19115 3.34200 -1.17703 
1.20633 3.36000 -1.18337 
1.29580 3.34200 -1.17703 
1.29486 2.92600 -1.03052 
1.43510 3.01200 -1.06081 
1.48114 3.04200 -1.07137 
1.50820 2.94000 -1.03545 
1.51833 2.84400 -1.00164 
1.53173 2.60200 -0.91641 
1.64665 2.55900 -0.90127 
1.67874 2.51700 -0.88647 
1.67794 2.50600 -0.88260 
1.67753 2.48600 -0.87556 
1.72943 2.48600 -0.87556 
1.76186 2.48600 -0.87556 
-1.47659 2.22400 -0.78908 
-1.43639 2.29900 -0.81569 
-1.37217 2.34300 -0.83131 
-1.36606 2.34300 -0.83131 
-1.25942 2.40800 -0.85437 
-1.18069 2.42700 -0.86111 
-1.17436 2.42700 -0.86111 
-1.14902 2.42700 -0.86111 
-0.73581 1.96600 -0.69754 
-0.67151 1.85900 -0.65958 
-0.63106 1.79900 -0.63829 
-0.60759 1.79900 -0.63829 
-0.58457 1.81500 -0.64397 
-0.38905 2.84400 -1.00906 
-0.30388 2.95400 -1.04809 
-0.22104 3.08900 -1.09599 
-0.07631 3.10400 -1.10131 
0.02122 3.15200 -1.11834 
0.04566 3.13600 -1.11266 
0.08614 3.12000 -1.10699 
0.20539 3.20200 -1.13608 
0.43007 3.32400 -1.17937 
0.54283 3.32400 -1.17937 
0.59591 3.37900 -1.19888 
0.70546 3.39700 -1.20527 
0.77295 3.27000 -1.16021 
0.72421 2.84400 -1.00906 
1.06598 3.41600 -1.21201 
1.08358 3.36000 -1.19214 
1.12655 3.30600 -1.17298 
1.27281 3.39700 -1.20527 
1.28943 3.05800 -1.08499 
1.33426 2.91200 -1.03319 
1.49589 2.65900 -0.94342 
1.53841 2.62500 -0.93136 
1.59277 2.53700 -0.90014 
1.61962 2.54800 -0.90404 
1.69662 2.47600 -0.87849 
1.71601 2.47600 -0.87849 
1.78781 2.48600 -0.88204 
1.80534 2.38900 -0.84763 
1.78643 2.31600 -0.82173 
1.85410 2.27300 -0.80647 
-1.59236 2.12300 -0.75879 
-1.57533 2.17600 -0.77773 
-1.55832 2.18400 -0.78059 
-1.52359 2.20800 -0.78917 
-1.48820 2.22400 -0.79489 
-1.42395 2.30800 -0.82491 
-1.42284 2.31600 -0.82777 
-1.39126 2.33400 -0.83420 
-1.37299 2.33400 -0.83420 
-1.31183 2.38900 -0.85386 
-1.30426 2.39800 -0.85708 
-1.20603 2.42700 -0.86744 
-1.19336 2.42700 -0.86744 
-0.58457 1.81500 -0.64871 
-0.54198 1.86400 -0.66622 
-0.53882 1.88700 -0.67444 
-0.60143 2.73000 -0.97574 
-0.57293 2.73000 -0.97574 
-0.52279 2.80500 -1.00254 
-0.48109 2.81800 -1.00719 
-0.36277 2.87100 -1.02613 
-0.12491 3.10400 -1.10941 
0.04566 3.13600 -1.12085 
0.19703 3.20200 -1.14444 
0.22328 3.21900 -1.15051 
0.25110 3.25300 -1.16267 
0.33103 3.28800 -1.17517 
0.37598 3.30600 -1.18161 
0.47689 3.28800 -1.17517 
0.56018 3.32400 -1.18804 
0.72712 2.88500 -1.03114 
1.18243 3.34200 -1.19448 
1.27488 3.37900 -1.20770 
1.46754 2.99800 -1.07152 
1.49209 2.96900 -1.06116 
1.50208 2.67000 -0.95429 
1.67336 2.55900 -0.91462 
1.67724 2.47600 -0.88496 
1.80728 2.48600 -0.88853 
1.85602 2.29000 -0.81848 
-1.64233 2.11600 -0.76181 
-1.60368 2.11600 -0.76181 
-1.55262 2.18400 -0.78629 
-1.52911 2.21600 -0.79781 
-1.49400 2.22400 -0.80069 
-1.48773 2.23200 -0.80357 
-1.46383 2.24000 -0.80645 
-1.44364 2.28200 -0.82157 
-1.26571 2.40800 -0.86694 
-1.12786 2.43600 -0.87702 
-0.98462 2.35200 -0.84677 
-0.89476 2.19200 -0.78917 
-0.61024 1.79300 -0.64552 
-0.63837 2.43600 -0.87702 
-0.64685 2.68200 -0.96558 
-0.63705 2.73000 -0.98286 
-0.62554 2.74200 -0.98718 
-0.48109 2.81800 -1.01454 
-0.39466 2.83100 -1.01922 
-0.14111 3.10400 -1.11751 
-0.08441 3.10400 -1.11751 
0.17936 3.18500 -1.14667 
0.37598 3.30600 -1.19024 
0.40825 3.28800 -1.18376 
0.41683 3.28800 -1.18376 
0.42541 3.28800 -1.18376 
0.54554 3.28800 -1.18376 
0.56886 3.32400 -1.19672 
0.58066 3.34200 -1.20320 
0.58938 3.34200 -1.20320 
0.66645 3.37900 -1.21652 
0.75463 3.37900 -1.21652 
0.77226 3.37900 -1.21652 
0.98389 3.37900 -1.21652 
1.28426 3.02700 -1.08979 
1.45972 2.99800 -1.07935 
1.51833 2.84400 -1.02391 
1.57911 2.61300 -0.94074 
1.58655 2.55900 -0.92130 
1.67125 2.49600 -0.89862 
1.70908 2.46600 -0.88782 
1.75412 2.46600 -0.88782 
1.78418 2.36100 -0.85001 
1.79626 2.29000 -0.82445 
-1.58703 2.16100 -0.78365 
-1.55262 2.18400 -0.79199 
-1.53529 2.20000 -0.79779 
-1.52935 2.20800 -0.80069 
-1.52911 2.21600 -0.80359 
-1.48773 2.23200 -0.80940 
-1.45727 2.25700 -0.81846 
-1.41075 2.31600 -0.83986 
-1.33549 2.34300 -0.84965 
-1.32726 2.36100 -0.85618 
-1.31995 2.37000 -0.85944 
-1.31255 2.37900 -0.86270 
-1.25942 2.40800 -0.87322 
-1.23078 2.38900 -0.86633 
-1.11601 2.46600 -0.89425 
-0.84117 2.10100 -0.76189 
-0.82733 2.08000 -0.75428 
-0.53570 1.91100 -0.69299 
-0.54951 2.79200 -1.01247 
-0.54475 2.80500 -1.01718 
-0.37605 2.85800 -1.03640 
-0.35106 2.89800 -1.05091 
-0.21298 3.08900 -1.12017 
-0.20491 3.08900 -1.12017 
-0.06821 3.10400 -1.12561 
0.07057 3.15200 -1.14302 
0.09525 3.15200 -1.14302 
0.21488 3.21900 -1.16731 
0.22328 3.21900 -1.16731 
0.24135 3.23600 -1.17348 
0.25959 3.25300 -1.17964 
0.38251 3.28800 -1.19234 
0.52002 3.23600 -1.17348 
0.77283 3.30600 -1.19886 
0.73624 2.80500 -1.01718 
1.05727 3.36000 -1.21845 
1.09799 3.32400 -1.20539 
1.19756 3.36000 -1.21845 
1.28145 3.05800 -1.10893 
1.28575 3.01200 -1.09225 
1.29954 2.95400 -1.07122 
1.32407 2.94000 -1.06614 
1.33808 2.95400 -1.07122 
1.41152 3.01200 -1.09225 
1.47577 2.98300 -1.08173 
1.52651 2.81800 -1.02190 
1.56455 2.71800 -0.98564 
1.68076 2.59100 -0.93958 
1.68709 2.58000 -0.93559 
1.75412 2.46600 -0.89425 
1.79456 2.40800 -0.87322 
1.78431 2.29000 -0.83043 
1.85896 2.31600 -0.83986 
1.88376 2.27300 -0.82426 
-1.65397 2.13100 -0.77833 
-1.63128 2.11600 -0.77285 
-1.50520 2.23200 -0.81522 
-1.44388 2.27300 -0.83020 
-1.41793 2.30800 -0.84298 
-1.38590 2.32500 -0.84919 
-1.38517 2.33400 -0.85248 
-1.31255 2.37900 -0.86891 
-1.06662 2.45600 -0.89703 
-0.87971 2.16900 -0.79221 
-0.83012 2.08700 -0.76226 
-0.55628 1.83100 -0.66876 
-0.54265 1.95400 -0.71368 
-0.56891 2.78000 -1.01537 
-0.29276 2.99800 -1.09500 
-0.03636 3.15200 -1.15124 
-0.00348 3.16900 -1.15745 
0.06235 3.15200 -1.15124 
0.21488 3.21900 -1.17571 
0.32245 3.28800 -1.20092 
0.33103 3.28800 -1.20092 
0.43557 3.23600 -1.18192 
0.45849 3.21900 -1.17571 
0.63640 3.36000 -1.22721 
0.64516 3.36000 -1.22721 
0.71097 2.79200 -1.01976 
0.78712 2.91200 -1.06358 
1.03974 3.36000 -1.22721 
1.27148 3.32400 -1.21406 
1.27331 3.21900 -1.17571 
1.27347 3.05800 -1.11691 
1.27978 2.99800 -1.09500 
1.34488 2.96900 -1.08440 
1.43307 3.05800 -1.11691 
1.44145 3.04200 -1.11107 
1.45014 3.02700 -1.10559 
1.49226 2.95400 -1.07893 
1.52575 2.84400 -1.03875 
1.52651 2.81800 -1.02925 
1.54990 2.75500 -1.00624 
1.61460 2.75500 -1.00624 
1.60692 2.62500 -0.95876 
1.67432 2.60200 -0.95036 
1.73482 2.46600 -0.90069 
1.78431 2.29000 -0.83640 
1.79732 2.29900 -0.83969 
1.80332 2.29900 -0.83969 
-1.59252 2.18400 -0.80339 
-1.50520 2.23200 -0.82105 
-1.47025 2.23200 -0.82105 
-1.45146 2.24800 -0.82693 
-1.37983 2.32500 -0.85526 
-1.37299 2.33400 -0.85857 
-1.30426 2.39800 -0.88211 
-1.29174 2.39800 -0.88211 
-1.28456 2.40800 -0.88579 
-1.14902 2.42700 -0.89278 
-0.78703 2.03200 -0.74748 
-0.67151 1.85900 -0.68384 
-0.55150 1.83100 -0.67354 
-0.66150 2.60200 -0.95715 
-0.37776 2.87100 -1.05610 
-0.25610 3.02700 -1.11349 
-0.18879 3.08900 -1.13629 
0.85052 3.05800 -1.12489 
1.02860 3.32400 -1.22274 
1.31230 2.98300 -1.09730 
1.40176 3.04200 -1.11900 
1.60024 2.78000 -1.02263 
1.69662 2.47600 -0.91080 
1.77124 2.35200 -0.86519 
1.76377 2.33400 -0.85857 
1.81038 2.30800 -0.84900 
1.89652 2.32500 -0.85526 
-1.59790 2.12300 -0.78649 
-1.53529 2.20000 -0.81502 
-1.52911 2.21600 -0.82094 
-1.30878 2.36100 -0.87466 
-1.29936 2.38900 -0.88503 
-1.27922 2.39800 -0.88837 
-1.11148 2.45600 -0.90985 
-0.92349 2.24800 -0.83280 
-0.62343 2.37900 -0.88133 
-0.63269 2.74200 -1.01580 
-0.61123 2.74200 -1.01580 
-0.45376 2.83100 -1.04878 
-0.32867 2.96900 -1.09990 
-0.30686 2.98300 -1.10509 
-0.24820 3.02700 -1.12139 
-0.24149 3.04200 -1.12694 
-0.02002 3.16900 -1.17399 
0.24135 3.23600 -1.19881 
0.36146 3.25300 -1.20511 
0.44309 3.16900 -1.17399 
0.46539 3.15200 -1.16769 
0.74356 2.80500 -1.03914 
0.96418 3.25300 -1.20511 
0.99482 3.27000 -1.21141 
1.08342 3.30600 -1.22475 
1.10930 3.30600 -1.22475 
1.19115 3.34200 -1.23808 
1.20859 3.34200 -1.23808 
1.26672 3.12000 -1.15584 
1.32008 2.98300 -1.10509 
1.37115 3.02700 -1.12139 
1.46416 3.07300 -1.13843 
1.46499 3.05800 -1.13287 
1.50144 2.91200 -1.07878 
1.62900 2.79200 -1.03433 
1.62750 2.67000 -0.98913 
1.71601 2.47600 -0.91726 
1.73419 2.45600 -0.90985 
1.74701 2.45600 -0.90985 
1.82978 2.32500 -0.86132 
1.90386 2.33400 -0.86466 
-1.56974 2.20000 -0.82076 
-1.50520 2.23200 -0.83269 
-1.43039 2.29900 -0.85769 
-1.35556 2.32500 -0.86739 
-1.30993 2.35200 -0.87746 
-1.19162 2.39800 -0.89462 
-1.15691 2.41700 -0.90171 
-1.11972 2.44600 -0.91253 
-1.03320 2.40800 -0.89836 
-0.96351 2.31600 -0.86403 
-0.70027 1.91100 -0.71294 
-0.58216 1.79300 -0.66892 
-0.57942 1.79900 -0.67115 
-0.52897 1.88700 -0.70399 
-0.66547 2.59100 -0.96663 
-0.33472 2.95400 -1.10205 
-0.14921 3.10400 -1.15801 
-0.06073 3.13600 -1.16995 
0.00477 3.15200 -1.17592 
0.12118 3.18500 -1.18823 
0.31735 3.23600 -1.20726 
0.54249 3.21900 -1.20092 
0.55380 3.23600 -1.20726 
0.70468 3.27000 -1.21994 
0.71254 2.74200 -1.02296 
0.92274 3.16900 -1.18226 
1.15244 3.30600 -1.23337 
1.18473 3.32400 -1.24009 
1.19341 3.32400 -1.24009 
1.25651 3.21900 -1.20092 
1.25987 3.18500 -1.18823 
1.26326 3.15200 -1.17592 
1.26672 3.12000 -1.16398 
1.27636 3.02700 -1.12929 
1.28575 3.01200 -1.12369 
1.45399 3.12000 -1.16398 
1.53274 2.87100 -1.07109 
1.66180 2.63600 -0.98342 
1.67556 2.63600 -0.98342 
1.78199 2.40800 -0.89836 
1.77295 2.37900 -0.88754 
1.76510 2.35200 -0.87746 
1.79132 2.29900 -0.85769 
-1.31817 2.33400 -0.87684 
-1.29765 2.35200 -0.88360 
-1.29645 2.36100 -0.88698 
-1.13636 2.42700 -0.91178 
-1.11972 2.44600 -0.91891 
-1.07944 2.45600 -0.92267 
-1.05793 2.43600 -0.91516 
-0.78173 2.03200 -0.76338 
-0.66451 1.85300 -0.69614 
-0.63106 1.79900 -0.67585 
-0.62079 1.78300 -0.66984 
-0.56563 1.81500 -0.68186 
-0.54697 1.84800 -0.69426 
-0.63269 2.74200 -1.03012 
-0.43160 2.83100 -1.06355 
-0.36618 2.89800 -1.08872 
-0.24820 3.02700 -1.13718 
-0.15731 3.10400 -1.16611 
-0.12491 3.10400 -1.16611 
0.08658 3.13600 -1.17813 
0.13018 3.20200 -1.20293 
0.25688 3.21900 -1.20932 
0.29048 3.21900 -1.20932 
0.35957 3.23600 -1.21570 
0.43030 3.13600 -1.17813 
0.65205 3.30600 -1.24200 
0.67793 3.30600 -1.24200 
0.70674 3.20200 -1.20293 
0.71216 3.15200 -1.18414 
1.18695 3.30600 -1.24200 
1.24626 3.23600 -1.21570 
1.49384 2.91200 -1.09398 
1.50144 2.91200 -1.09398 
1.54094 2.83100 -1.06355 
1.55709 2.75500 -1.03500 
1.62172 2.79200 -1.04890 
1.65086 2.79200 -1.04890 
1.75532 2.29900 -0.86369 
1.88526 2.28200 -0.85730 
1.87713 2.26500 -0.85092 
-1.56974 2.20000 -0.83224 
-1.54103 2.20000 -0.83224 
-1.44981 2.27300 -0.85985 
-1.44202 2.30800 -0.87309 
-1.39262 2.31600 -0.87612 
-1.35556 2.32500 -0.87952 
-1.33823 2.31600 -0.87612 
-1.31208 2.33400 -0.88293 
-1.30599 2.33400 -0.88293 
-1.29151 2.35200 -0.88974 
-1.27797 2.36100 -0.89314 
-1.18714 2.38900 -0.90374 
-1.11334 2.44600 -0.92530 
-1.11148 2.45600 -0.92908 
-1.04769 2.42700 -0.91811 
-1.03706 2.41700 -0.91433 
-0.62253 1.78800 -0.67638 
-0.58987 1.78800 -0.67638 
-0.58521 1.78800 -0.67638 
-0.57036 1.81500 -0.68660 
-0.55180 1.84800 -0.69908 
-0.53071 1.91100 -0.72291 
-0.54241 2.83100 -1.07094 
-0.47069 2.84400 -1.07586 
-0.36035 2.91200 -1.10158 
-0.33472 2.95400 -1.11747 
-0.31465 2.98300 -1.12844 
-0.21084 3.05800 -1.15681 
-0.06073 3.13600 -1.18632 
0.11230 3.16900 -1.19880 
0.22210 3.20200 -1.21128 
0.45609 3.08900 -1.16854 
0.58844 3.28800 -1.24382 
0.67555 3.25300 -1.23058 
0.69119 3.16900 -1.19880 
0.70233 3.07300 -1.16249 
0.91192 3.10400 -1.17421 
0.92476 3.12000 -1.18026 
1.19109 3.27000 -1.23701 
1.21885 3.25300 -1.23058 
1.25858 3.12000 -1.18026 
1.29856 3.04200 -1.15076 
1.46028 3.16900 -1.19880 
1.51763 2.88500 -1.09137 
1.56428 2.75500 -1.04219 
1.65086 2.79200 -1.05619 
1.72294 2.48600 -0.94043 
1.74060 2.45600 -0.92908 
-1.63173 2.13100 -0.81170 
-1.60361 2.13800 -0.81436 
-1.58668 2.17600 -0.82884 
-1.57547 2.19200 -0.83493 
-1.56403 2.19200 -0.83493 
-1.46968 2.24000 -0.85322 
-1.44959 2.28200 -0.86921 
-1.20863 2.37000 -0.90273 
-1.13421 2.43600 -0.92787 
-1.02692 2.40800 -0.91721 
-0.76581 2.01800 -0.76866 
-0.70906 1.93500 -0.73704 
-0.66845 1.86400 -0.71000 
-0.57161 1.80400 -0.68714 
-0.56398 1.82500 -0.69514 
-0.59692 2.74200 -1.04443 
-0.53502 2.83100 -1.07833 
-0.49295 2.84400 -1.08328 
-0.42616 2.84400 -1.08328 
-0.41334 2.85800 -1.08861 
-0.38713 2.88500 -1.09890 
-0.12491 3.10400 -1.18231 
0.00477 3.15200 -1.20060 
0.07021 3.13600 -1.19450 
0.07840 3.13600 -1.19450 
0.10347 3.15200 -1.20060 
0.15443 3.18500 -1.21317 
0.23045 3.20200 -1.21964 
0.34559 3.18500 -1.21317 
0.43997 3.08900 -1.17660 
0.61418 3.28800 -1.25240 
0.63642 3.27000 -1.24554 
0.68730 3.04200 -1.15870 
0.73030 2.75500 -1.04938 
0.80992 2.91200 -1.10918 
1.14245 3.25300 -1.23907 
1.48319 2.99800 -1.14194 
1.49422 2.89800 -1.10385 
1.50178 2.89800 -1.10385 
1.76304 2.32500 -0.88559 
1.77435 2.31600 -0.88216 
1.78643 2.31600 -0.88216 
1.91854 2.35200 -0.89588 
-1.63709 2.13800 -0.81994 
-1.55832 2.18400 -0.83758 
-1.46906 2.24800 -0.86213 
-1.44097 2.31600 -0.88821 
-1.30096 2.32500 -0.89166 
-1.24573 2.37000 -0.90892 
-1.18091 2.38900 -0.91620 
-1.08584 2.45600 -0.94190 
-0.56583 1.83100 -0.70221 
-0.52571 1.89300 -0.72598 
-0.57347 2.76700 -1.06117 
-0.44100 2.84400 -1.09070 
-0.39274 2.87100 -1.10106 
-0.27711 2.99800 -1.14976 
-0.18592 3.04200 -1.16664 
-0.07670 3.12000 -1.19655 
0.11993 3.15200 -1.20882 
0.20430 3.18500 -1.22148 
0.43769 3.07300 -1.17852 
0.54233 3.16900 -1.21534 
0.69613 2.70600 -1.03778 
0.90164 3.04200 -1.16664 
1.02714 3.18500 -1.22148 
1.07737 3.23600 -1.24104 
1.18091 3.21900 -1.23452 
1.19771 3.21900 -1.23452 
1.19974 3.20200 -1.22800 
1.51752 3.18500 -1.22148 
1.48624 2.91200 -1.11678 
1.61442 2.76700 -1.06117 
1.63532 2.70600 -1.03778 
1.74055 2.69400 -1.03317 
-1.60361 2.13800 -0.82552 
-1.59239 2.15300 -0.83131 
-1.55829 2.17600 -0.84020 
-1.44804 2.30800 -0.89116 
-1.40410 2.32500 -0.89773 
-1.33736 2.32500 -0.89773 
-1.32523 2.32500 -0.89773 
-1.31916 2.32500 -0.89773 
-1.27181 2.36100 -0.91163 
-1.25810 2.37000 -0.91510 
-1.21481 2.37000 -0.91510 
-0.54053 1.85900 -0.71780 
-0.53225 1.86400 -0.71973 
-0.52909 1.87000 -0.72204 
-0.60407 2.74200 -1.05874 
-0.50037 2.84400 -1.09812 
-0.46326 2.84400 -1.09812 
-0.41874 2.84400 -1.09812 
-0.34516 2.91200 -1.12438 
-0.33918 2.92600 -1.12978 
-0.19386 3.04200 -1.17457 
-0.09298 3.12000 -1.20469 
-0.00348 3.16900 -1.22361 
0.17019 3.16900 -1.22361 
0.36040 3.16900 -1.22361 
0.42385 3.08900 -1.19272 
0.52580 3.12000 -1.20469 
0.59289 3.21900 -1.24292 
0.63330 3.16900 -1.22361 
0.71340 2.71800 -1.04947 
0.93489 3.07300 -1.18654 
1.17467 3.20200 -1.23635 
1.24403 3.10400 -1.19851 
1.24607 3.08900 -1.19272 
1.48624 2.91200 -1.12438 
1.52777 2.76700 -1.06839 
1.57121 2.74200 -1.05874 
1.73591 2.48600 -0.95989 
1.79605 2.42700 -0.93711 
1.79423 2.33400 -0.90120 
1.83875 2.35200 -0.90815 
1.90627 2.35200 -0.90815 
-1.61452 2.12300 -0.82527 
-1.59239 2.15300 -0.83693 
-1.53529 2.20000 -0.85520 
-1.48666 2.24800 -0.87386 
-1.46065 2.29000 -0.89019 
-1.45439 2.29900 -0.89369 
-1.43493 2.31600 -0.90030 
-1.34863 2.33400 -0.90729 
-1.29381 2.33400 -0.90729 
-1.27434 2.34300 -0.91079 
-1.19007 2.37000 -0.92129 
-0.98351 2.37900 -0.92479 
-0.96621 2.35200 -0.91429 
-0.62811 1.80400 -0.70127 
-0.57942 1.79900 -0.69932 
-0.57061 1.83100 -0.71176 
-0.54362 1.85300 -0.72031 
-0.59256 2.75500 -1.07095 
-0.46326 2.84400 -1.10554 
-0.36454 2.88500 -1.12148 
-0.10871 3.10400 -1.20661 
0.06171 3.12000 -1.21283 
0.21041 3.15200 -1.22527 
0.28443 3.15200 -1.22527 
0.43328 3.04200 -1.18251 
0.60325 3.18500 -1.23810 
0.61852 3.13600 -1.21905 
0.65572 2.80500 -1.09038 
0.67084 2.71800 -1.05656 
0.84435 2.92600 -1.13742 
1.01650 3.15200 -1.22527 
1.06605 3.20200 -1.24471 
1.27972 3.07300 -1.19456 
1.38983 3.10400 -1.20661 
1.52055 2.76700 -1.07561 
1.56433 2.73000 -1.06123 
1.62729 2.64700 -1.02896 
1.63432 2.62500 -1.02041 
1.78879 2.68200 -1.04257 
1.76895 2.49600 -0.97027 
1.85811 2.36100 -0.91779 
1.89652 2.32500 -0.90379 
1.90259 2.32500 -0.90379 
-1.55894 2.16900 -0.84881 
-1.54196 2.16900 -0.84881 
-1.54126 2.17600 -0.85155 
-1.46039 2.29900 -0.89969 
-1.45406 2.30800 -0.90321 
-1.42284 2.31600 -0.90634 
-1.41017 2.32500 -0.90986 
-1.32426 2.33400 -0.91338 
-1.31817 2.33400 -0.91338 
-1.28046 2.34300 -0.91691 
-1.11148 2.45600 -0.96113 
-0.93609 2.30800 -0.90321 
-0.66786 1.87600 -0.73415 
-0.58103 1.80400 -0.70597 
-0.40588 2.85800 -1.11844 
-0.36454 2.88500 -1.12901 
-0.35275 2.91200 -1.13958 
-0.31159 2.95400 -1.15601 
-0.18690 3.05800 -1.19671 
-0.17892 3.05800 -1.19671 
-0.04436 3.13600 -1.22724 
0.01293 3.13600 -1.22724 
0.06140 3.10400 -1.21471 
0.13568 3.13600 -1.22724 
0.27481 3.13600 -1.22724 
0.39966 3.08900 -1.20884 
0.48643 3.02700 -1.18458 
0.62550 3.01200 -1.17871 
0.68295 2.68200 -1.04957 
1.09363 3.18500 -1.24641 
1.10195 3.18500 -1.24641 
1.43689 3.13600 -1.22724 
1.47999 2.88500 -1.12901 
1.51091 2.84400 -1.11297 
1.52233 2.70600 -1.05896 
1.62003 2.61300 -1.02257 
1.64802 2.62500 -1.02726 
1.78775 2.67000 -1.04487 
1.74334 2.50600 -0.98069 
1.81939 2.47600 -0.96895 
1.81011 2.44600 -0.95721 
1.80641 2.33400 -0.91338 
-1.56430 2.15300 -0.84817 
-1.54755 2.16100 -0.85132 
-1.54762 2.16900 -0.85447 
-1.49891 2.24000 -0.88244 
-1.31817 2.33400 -0.91947 
-1.01979 2.43600 -0.95966 
-0.56442 1.84200 -0.72565 
-0.53082 1.85900 -0.73235 
-0.53973 2.12300 -0.83635 
-0.52279 2.80500 -1.10502 
-0.50547 2.83100 -1.11527 
-0.47811 2.84400 -1.12039 
-0.43358 2.84400 -1.12039 
-0.41334 2.85800 -1.12590 
-0.26669 2.96900 -1.16963 
0.14313 3.12000 -1.22912 
0.17570 3.12000 -1.22912 
0.22340 3.10400 -1.22281 
0.48402 3.01200 -1.18657 
0.63383 2.74200 -1.08020 
1.16683 3.13600 -1.23542 
1.20352 3.10400 -1.22281 
1.21383 3.08900 -1.21690 
1.33475 3.08900 -1.21690 
1.45326 3.13600 -1.23542 
1.49470 3.12000 -1.22912 
1.47577 2.98300 -1.17515 
1.47104 2.91200 -1.14718 
1.47153 2.89800 -1.14166 
1.48030 2.87100 -1.13102 
1.59982 2.68200 -1.05657 
1.67556 2.63600 -1.03845 
1.82389 2.52700 -0.99551 
1.80127 2.41700 -0.95217 
1.79423 2.33400 -0.91947 
1.86427 2.36100 -0.93011 
1.86732 2.33400 -0.91947 
1.87105 2.31600 -0.91238 
-1.68912 2.16900 -0.86013 
-1.52883 2.22400 -0.88194 
-1.49253 2.24800 -0.89146 
-1.41017 2.32500 -0.92200 
-1.37829 2.34300 -0.92913 
-1.26565 2.36100 -0.93627 
-1.16600 2.43600 -0.96601 
-0.81375 2.10100 -0.83317 
-0.53082 1.85900 -0.73720 
-0.50079 1.91100 -0.75782 
-0.52701 2.07300 -0.82206 
-0.61413 2.75500 -1.09252 
-0.47592 2.83100 -1.12265 
-0.44100 2.84400 -1.12781 
-0.42616 2.84400 -1.12781 
-0.37207 2.88500 -1.14407 
-0.36454 2.88500 -1.14407 
-0.23125 3.01200 -1.19443 
0.09334 3.08900 -1.22497 
0.23960 3.10400 -1.23091 
0.28155 3.12000 -1.23726 
0.30754 3.13600 -1.24360 
0.46162 2.96900 -1.17738 
0.58912 3.02700 -1.20038 
0.61008 2.83100 -1.12265 
0.62246 2.75500 -1.09252 
0.64096 2.68200 -1.06357 
0.79840 2.79200 -1.10719 
0.94336 2.99800 -1.18888 
0.98103 3.04200 -1.20633 
1.12591 3.13600 -1.24360 
1.14228 3.13600 -1.24360 
1.31862 3.08900 -1.22497 
1.35893 3.08900 -1.22497 
1.47985 3.08900 -1.22497 
1.47384 3.02700 -1.20038 
1.48105 2.85800 -1.13336 
1.58585 2.64700 -1.04969 
1.58610 2.58000 -1.02312 
1.66094 2.61300 -1.03620 
1.80479 2.70600 -1.07308 
1.75795 2.52700 -1.00210 
1.83111 2.53700 -1.00607 
1.83773 2.53700 -1.00607 
1.79098 2.37000 -0.93984 
-1.64267 2.13800 -0.85342 
-1.52990 2.17600 -0.86859 
-1.51685 2.23200 -0.89094 
-1.48672 2.25700 -0.90092 
-1.44839 2.29900 -0.91769 
-1.37130 2.35200 -0.93884 
-1.28413 2.36100 -0.94243 
-1.04522 2.46600 -0.98435 
-0.64825 1.84800 -0.73766 
-0.51547 2.80500 -1.11966 
-0.50815 2.80500 -1.11966 
-0.46853 2.83100 -1.13004 
-0.41874 2.84400 -1.13523 
-0.37776 2.87100 -1.14601 
-0.21767 3.04200 -1.21427 
-0.17178 3.07300 -1.22664 
-0.09298 3.12000 -1.24540 
0.31411 3.12000 -1.24540 
0.33209 3.13600 -1.25179 
0.36110 3.10400 -1.23901 
0.42288 2.96900 -1.18513 
0.58262 2.95400 -1.17914 
0.59352 2.85800 -1.14082 
0.67710 2.65900 -1.06138 
0.69098 2.65900 -1.06138 
0.76642 2.73000 -1.08973 
0.88921 2.89800 -1.15679 
0.99690 3.04200 -1.21427 
1.06582 3.10400 -1.23901 
1.17112 3.10400 -1.23901 
1.23686 3.02700 -1.20828 
1.41536 3.08900 -1.23303 
1.54833 2.83100 -1.13004 
1.58535 2.80500 -1.11966 
1.62650 2.58000 -1.02985 
1.74679 2.68200 -1.07057 
1.78562 2.63600 -1.05220 
1.82028 2.55900 -1.02147 
1.80713 2.40800 -0.96119 
1.81250 2.33400 -0.93166 
1.84904 2.33400 -0.93166 
-1.50439 2.25700 -0.90681 
-1.48540 2.27300 -0.91324 
-1.45468 2.29000 -0.92007 
-1.42284 2.31600 -0.93051 
-1.40886 2.34300 -0.94136 
-1.30379 2.35200 -0.94498 
-1.29151 2.35200 -0.94498 
-1.16844 2.38900 -0.95984 
-1.16600 2.43600 -0.97873 
-0.77863 2.06600 -0.83007 
-0.69176 1.92900 -0.77503 
-0.64134 2.71800 -1.09203 
-0.52037 2.79200 -1.12176 
-0.39096 2.85800 -1.14828 
-0.23240 3.02700 -1.21618 
-0.00339 3.08900 -1.24109 
0.06049 3.05800 -1.22863 
0.10039 3.05800 -1.22863 
0.16423 3.05800 -1.22863 
0.38565 3.04200 -1.22220 
0.40354 2.99800 -1.20453 
0.59991 2.71800 -1.09203 
0.96978 2.98300 -1.19850 
1.02072 3.04200 -1.22220 
1.21317 3.02700 -1.21618 
1.25266 3.02700 -1.21618 
1.37721 3.05800 -1.22863 
1.38519 3.05800 -1.22863 
1.45701 3.05800 -1.22863 
1.45450 2.94000 -1.18122 
1.45740 2.88500 -1.15913 
1.50349 2.84400 -1.14265 
1.57055 2.85800 -1.14828 
1.66074 2.60200 -1.04542 
1.77686 2.61300 -1.04984 
1.80713 2.40800 -0.96748 
1.85254 2.30800 -0.92730 
1.85731 2.29900 -0.92368 
-1.64267 2.13800 -0.86458 
-1.61452 2.12300 -0.85851 
-1.23955 2.37000 -0.95840 
-1.03653 2.47600 -1.00126 
-0.86720 2.22400 -0.89936 
-0.55662 1.84800 -0.74731 
-0.54697 1.84800 -0.74731 
-0.60198 2.49600 -1.00935 
-0.61838 2.74200 -1.10883 
-0.60694 2.75500 -1.11408 
-0.55181 2.76700 -1.11894 
-0.48911 2.78000 -1.12419 
-0.44432 2.81800 -1.13956 
-0.41334 2.85800 -1.15574 
-0.30244 2.94000 -1.18889 
-0.22450 3.02700 -1.22408 
-0.14772 3.07300 -1.24268 
-0.13970 3.07300 -1.24268 
-0.11624 3.08900 -1.24915 
-0.10012 3.08900 -1.24915 
0.17925 3.04200 -1.23014 
0.25456 3.08900 -1.24915 
0.50036 2.96900 -1.20062 
0.53385 2.98300 -1.20628 
0.58119 2.73000 -1.10397 
0.61187 2.64700 -1.07041 
0.67124 2.63600 -1.06596 
0.73955 2.65900 -1.07526 
0.88748 2.84400 -1.15007 
0.89931 2.85800 -1.15574 
1.37001 3.04200 -1.23014 
1.44682 2.94000 -1.18889 
1.48864 2.84400 -1.15007 
1.60766 2.89800 -1.17191 
1.57882 2.70600 -1.09427 
1.80279 2.68200 -1.08456 
1.85421 2.56900 -1.03887 
1.79423 2.33400 -0.94384 
1.85131 2.29900 -0.92968 
1.88131 2.29900 -0.92968 
1.94288 2.30800 -0.93332 
-1.55894 2.16900 -0.88277 
-1.54762 2.16900 -0.88277 
-1.44839 2.29900 -0.93568 
-1.40035 2.37000 -0.96458 
-1.29645 2.36100 -0.96092 
-1.16803 2.42700 -0.98778 
-1.16440 2.44600 -0.99551 
-1.09670 2.46600 -1.00365 
-0.73948 2.01800 -0.82132 
-0.55662 1.84800 -0.75213 
-0.49810 1.88200 -0.76597 
-0.49113 1.89300 -0.77044 
-0.63145 2.70600 -1.10133 
-0.59256 2.75500 -1.12127 
-0.57818 2.75500 -1.12127 
-0.55661 2.75500 -1.12127 
-0.26534 2.95400 -1.20227 
-0.21660 3.02700 -1.23198 
-0.12366 3.07300 -1.25070 
-0.06788 3.08900 -1.25721 
0.31099 3.08900 -1.25721 
0.35750 3.07300 -1.25070 
0.38374 3.02700 -1.23198 
0.42642 2.94000 -1.19657 
0.56149 2.88500 -1.17418 
0.57007 2.78000 -1.13145 
0.80205 2.70600 -1.10133 
1.11598 3.04200 -1.23808 
1.14773 3.04200 -1.23808 
1.43482 2.88500 -1.17418 
1.50400 2.83100 -1.15220 
1.61463 2.80500 -1.14162 
1.71709 2.64700 -1.07732 
1.82848 2.58000 -1.05005 
1.83409 2.56900 -1.04557 
1.86034 2.55900 -1.04150 
1.82019 2.41700 -0.98371 
1.91131 2.29900 -0.93568 
1.93531 2.29900 -0.93568 
-1.63151 2.13800 -0.87574 
-1.59239 2.15300 -0.88188 
-1.58703 2.16100 -0.88516 
-1.58139 2.16100 -0.88516 
-1.56397 2.17600 -0.89130 
-1.52982 2.18400 -0.89458 
-1.46065 2.29000 -0.93800 
-1.41272 2.37000 -0.97076 
-1.30140 2.37000 -0.97076 
-1.16533 2.37000 -0.97076 
-0.64516 1.85300 -0.75900 
-0.63445 1.83600 -0.75204 
-0.49319 1.88200 -0.77088 
-0.47460 2.78000 -1.13870 
-0.38525 2.87100 -1.17598 
-0.09912 3.05800 -1.25257 
0.25069 3.04200 -1.24602 
0.28532 3.07300 -1.25872 
0.54133 2.89800 -1.18704 
0.55982 2.73000 -1.11822 
0.67529 2.62500 -1.07521 
0.71312 2.61300 -1.07030 
1.04763 2.98300 -1.22185 
1.06854 2.99800 -1.22800 
1.15999 3.01200 -1.23373 
1.26217 3.01200 -1.23373 
1.30933 3.01200 -1.23373 
1.37366 2.99800 -1.22800 
1.38236 2.98300 -1.22185 
1.43630 2.85800 -1.17065 
1.62303 2.88500 -1.18171 
1.61476 2.81800 -1.15427 
1.57264 2.56900 -1.05228 
1.61286 2.56900 -1.05228 
1.79472 2.67000 -1.09365 
1.85900 2.54800 -1.04367 
1.79944 2.32500 -0.95233 
-1.62593 2.13800 -0.88132 
-1.62035 2.13800 -0.88132 
-1.56965 2.17600 -0.89698 
-1.55829 2.17600 -0.89698 
-1.49053 2.29000 -0.94397 
-1.46639 2.29900 -0.94768 
-1.43599 2.30800 -0.95139 
-1.42781 2.33400 -0.96211 
-1.34574 2.36100 -0.97324 
-1.27666 2.37000 -0.97695 
-1.21786 2.35200 -0.96953 
-1.16803 2.42700 -1.00045 
-1.06018 2.48600 -1.02477 
-1.04491 2.49600 -1.02889 
-0.90658 2.32500 -0.95840 
-0.61468 1.82000 -0.75023 
-0.62162 2.69400 -1.11051 
-0.60855 2.73000 -1.12535 
-0.59692 2.74200 -1.13029 
-0.47961 2.76700 -1.14060 
-0.37207 2.88500 -1.18924 
-0.09811 3.02700 -1.24777 
-0.03492 3.02700 -1.24777 
0.07457 2.98300 -1.22964 
0.16883 2.99800 -1.23582 
0.36005 3.02700 -1.24777 
0.39963 2.96900 -1.22387 
0.47784 2.92600 -1.20614 
0.51355 2.91200 -1.20037 
0.67220 2.61300 -1.07712 
0.93944 2.84400 -1.17234 
1.01997 2.92600 -1.20614 
1.13326 2.98300 -1.22964 
1.41517 2.95400 -1.21768 
1.42288 2.95400 -1.21768 
1.43482 2.88500 -1.18924 
1.62265 2.87100 -1.18347 
1.61482 2.83100 -1.16698 
1.57182 2.68200 -1.10556 
1.73875 2.65900 -1.09608 
1.82814 2.43600 -1.00416 
1.81665 2.31600 -0.95469 
1.88313 2.31600 -0.95469 
1.91131 2.29900 -0.94768 
-1.54122 2.18400 -0.90598 
-1.52813 2.24000 -0.92921 
-1.42781 2.33400 -0.96820 
-1.42509 2.37000 -0.98313 
-1.39325 2.37900 -0.98687 
-1.25810 2.37000 -0.98313 
-1.20558 2.35200 -0.97567 
-1.13531 2.46600 -1.02296 
-0.99374 2.46600 -1.02296 
-0.82880 2.18400 -0.90598 
-0.60043 1.82000 -0.75498 
-0.58972 1.83100 -0.75954 
-0.55180 1.84800 -0.76660 
-0.58831 2.46600 -1.02296 
-0.60407 2.74200 -1.13745 
-0.58070 2.76700 -1.14782 
-0.23450 2.95400 -1.22539 
0.15945 2.96900 -1.23161 
0.21577 2.99800 -1.24364 
0.23250 3.01200 -1.24945 
0.35826 3.01200 -1.24945 
0.37224 2.99800 -1.24364 
0.45276 2.91200 -1.20797 
0.46795 2.91200 -1.20797 
0.53619 2.75500 -1.14284 
0.55661 2.64700 -1.09804 
0.59309 2.62500 -1.08891 
0.60679 2.62500 -1.08891 
0.64104 2.62500 -1.08891 
0.73728 2.60200 -1.07937 
1.06579 2.92600 -1.21378 
1.11453 2.95400 -1.22539 
1.18992 2.96900 -1.23161 
1.40846 2.94000 -1.21958 
1.42616 2.89800 -1.20216 
1.45967 2.83100 -1.17437 
1.46706 2.83100 -1.17437 
1.61476 2.81800 -1.16898 
1.60630 2.58000 -1.07025 
1.77235 2.64700 -1.09804 
1.80728 2.56900 -1.06568 
1.82926 2.44600 -1.01466 
1.81969 2.40800 -0.99890 
1.87225 2.32500 -0.96447 
-1.65419 2.15300 -0.89874 
-1.64857 2.15300 -0.89874 
-1.62086 2.16100 -0.90208 
-1.60422 2.16900 -0.90541 
-1.59252 2.18400 -0.91168 
-1.54692 2.18400 -0.91168 
-1.54115 2.19200 -0.91502 
-1.52911 2.21600 -0.92503 
-1.52746 2.26500 -0.94549 
-1.46065 2.29000 -0.95592 
-1.43599 2.30800 -0.96344 
-1.39946 2.37900 -0.99308 
-1.37561 2.37000 -0.98932 
-0.88098 2.29000 -0.95592 
-0.72425 2.00500 -0.83696 
-0.58073 1.84800 -0.77142 
-0.57591 1.84800 -0.77142 
-0.55180 1.84800 -0.77142 
-0.48773 1.89900 -0.79271 
-0.58116 2.43600 -1.01687 
-0.52293 2.76700 -1.15504 
-0.36277 2.87100 -1.19845 
-0.31476 2.91200 -1.21557 
-0.21038 2.94000 -1.22726 
-0.03441 2.98300 -1.24521 
-0.02663 2.98300 -1.24521 
0.03530 2.95400 -1.23310 
0.19912 2.98300 -1.24521 
0.45814 2.89800 -1.20972 
0.65856 2.61300 -1.09076 
0.68007 2.59100 -1.08157 
0.70411 2.58000 -1.07698 
0.72740 2.59100 -1.08157 
0.78130 2.63600 -1.10036 
0.82293 2.68200 -1.11956 
0.82993 2.68200 -1.11956 
1.00373 2.85800 -1.19303 
1.03077 2.87100 -1.19845 
1.10628 2.91200 -1.21557 
1.35594 2.92600 -1.22141 
1.53355 2.83100 -1.18176 
1.59255 2.84400 -1.18718 
1.69597 2.62500 -1.09576 
1.76705 2.56900 -1.07239 
1.85608 2.51700 -1.05068 
1.83686 2.33400 -0.97429 
1.93084 2.30800 -0.96344 
-1.46639 2.29900 -0.96568 
-1.46039 2.29900 -0.96568 
-1.42041 2.35200 -0.98794 
-1.32726 2.36100 -0.99172 
-1.13071 2.45600 -1.03163 
-1.06018 2.48600 -1.04423 
-0.77021 2.08700 -0.87663 
-0.59133 1.83600 -0.77120 
-0.60407 2.74200 -1.15176 
-0.44559 2.78000 -1.16772 
0.03514 2.94000 -1.23493 
0.14255 2.94000 -1.23493 
0.24583 2.98300 -1.25299 
0.33146 2.98300 -1.25299 
0.37449 2.95400 -1.24081 
0.44103 2.88500 -1.21183 
0.44638 2.87100 -1.20595 
0.48449 2.83100 -1.18914 
0.54054 2.63600 -1.10724 
0.55430 2.63600 -1.10724 
0.57254 2.62500 -1.10261 
0.71758 2.58000 -1.08371 
0.98511 2.80500 -1.17822 
1.13121 2.89800 -1.21729 
1.15188 2.91200 -1.22317 
1.17269 2.92600 -1.22905 
1.28722 2.92600 -1.22905 
1.30249 2.92600 -1.22905 
1.31906 2.91200 -1.22317 
1.32028 2.89800 -1.21729 
1.48239 2.81800 -1.18368 
1.49751 2.80500 -1.17822 
1.57176 2.67000 -1.12152 
1.57203 2.64700 -1.11186 
1.60639 2.59100 -1.08833 
1.76190 2.59100 -1.08833 
1.77353 2.55900 -1.07489 
1.80692 2.55900 -1.07489 
1.84620 2.48600 -1.04423 
1.83405 2.42700 -1.01945 
-1.62076 2.17600 -0.91969 
-1.60372 2.17600 -0.91969 
-1.58112 2.18400 -0.92308 
-1.39417 2.37000 -1.00169 
-1.32110 2.36100 -0.99788 
-1.25949 2.36100 -0.99788 
-1.23013 2.35200 -0.99408 
-1.20097 2.34300 -0.99028 
-1.17773 2.40800 -1.01775 
-1.11148 2.45600 -1.03804 
-1.03423 2.48600 -1.05072 
-0.62954 1.86400 -0.78783 
-0.60092 1.83600 -0.77599 
-0.59327 1.84200 -0.77853 
-0.58555 1.84800 -0.78106 
-0.54520 1.84200 -0.77853 
-0.56166 2.78000 -1.17498 
-0.48683 2.76700 -1.16948 
-0.47238 2.76700 -1.16948 
-0.41491 2.81800 -1.19104 
-0.35194 2.84400 -1.20203 
-0.29812 2.89800 -1.22485 
-0.23877 2.91200 -1.23077 
-0.14687 2.89800 -1.22485 
-0.10247 2.92600 -1.23668 
-0.04159 2.94000 -1.24260 
0.08842 2.92600 -1.23668 
0.21160 2.94000 -1.24260 
0.29740 2.95400 -1.24852 
0.66654 2.59100 -1.09509 
0.96455 2.76700 -1.16948 
1.00241 2.79200 -1.18005 
1.03635 2.80500 -1.18554 
1.21086 2.92600 -1.23668 
1.24904 2.92600 -1.23668 
1.33694 2.88500 -1.21935 
