ply
format ascii 1.0
comment pointcloud saved from Realsense Viewer
element vertex 1819
property float32 x
property float32 y
property float32 z
end_header
-1.30633 -0.288586 -2.112 
-1.30427 -0.290089 -2.123 
-1.30273 -0.291729 -2.135 
-1.30109 -0.293369 -2.147 
-1.29212 -0.293369 -2.147 
-1.29033 -0.295008 -2.159 
-1.28903 -0.296785 -2.172 
-1.28703 -0.298424 -2.184 
-1.29254 -0.30184 -2.209 
-1.29087 -0.303617 -2.222 
-1.29659 -0.307169 -2.248 
-1.29522 -0.309082 -2.262 
-1.29316 -0.310859 -2.275 
-1.2989 -0.314548 -2.302 
-1.30553 -0.318511 -2.331 
-1.30358 -0.320424 -2.345 
-1.29379 -0.320424 -2.345 
-1.29166 -0.322337 -2.359 
-1.28181 -0.322337 -2.359 
-1.27196 -0.322337 -2.359 
-1.27014 -0.324386 -2.374 
-1.26819 -0.326436 -2.389 
-1.25821 -0.326436 -2.389 
-1.24824 -0.326436 -2.389 
-1.24604 -0.328485 -2.404 
-1.24371 -0.330535 -2.419 
-1.23361 -0.330535 -2.419 
-1.22351 -0.330535 -2.419 
-1.22094 -0.332585 -2.434 
-1.21078 -0.332585 -2.434 
-1.2085 -0.334771 -2.45 
-1.19827 -0.334771 -2.45 
-1.20356 -0.339144 -2.482 
-1.20089 -0.34133 -2.498 
-1.19856 -0.343653 -2.515 
-1.20365 -0.348162 -2.548 
-1.20097 -0.350485 -2.565 
-1.19815 -0.352808 -2.582 
-1.19565 -0.355267 -2.6 
-1.2012 -0.360186 -2.636 
-1.19832 -0.362646 -2.654 
-1.19573 -0.365242 -2.673 
-1.19299 -0.367838 -2.692 
-1.1901 -0.370434 -2.711 
-1.18704 -0.373031 -2.73 
-1.18425 -0.375763 -2.75 
-1.1813 -0.378496 -2.77 
-1.17818 -0.381229 -2.79 
-1.17489 -0.383962 -2.81 
-1.17185 -0.386831 -2.831 
-1.16864 -0.389701 -2.852 
-1.16565 -0.392707 -2.874 
-1.16208 -0.395576 -2.895 
-1.15913 -0.398719 -2.918 
-1.14694 -0.398719 -2.918 
-1.14332 -0.401725 -2.94 
-1.13104 -0.401725 -2.94 
-1.12752 -0.404868 -2.963 
-1.1238 -0.408011 -2.986 
-1.11133 -0.408011 -2.986 
-1.09887 -0.408011 -2.986 
-1.0864 -0.408011 -2.986 
-1.07393 -0.408011 -2.986 
-1.06146 -0.408011 -2.986 
-1.05708 -0.411153 -3.009 
-1.05284 -0.414433 -3.033 
-1.04018 -0.414433 -3.033 
-1.03599 -0.417849 -3.058 
-1.03125 -0.421128 -3.082 
-1.01838 -0.421128 -3.082 
-1.01367 -0.424544 -3.107 
-1.00069 -0.424544 -3.107 
-0.979774 -0.421128 -3.082 
-0.951533 -0.414433 -3.033 
-0.93144 -0.411153 -3.009 
-0.897806 -0.401725 -2.94 
-0.871976 -0.395576 -2.895 
-0.834641 -0.383962 -2.81 
-0.811194 -0.378496 -2.77 
-0.788082 -0.373031 -2.73 
-0.765872 -0.367838 -2.692 
-0.749306 -0.365242 -2.673 
-0.732898 -0.362646 -2.654 
-0.716921 -0.360186 -2.636 
-0.701095 -0.357727 -2.618 
-0.690164 -0.357727 -2.618 
-0.683903 -0.360186 -2.636 
-0.672896 -0.360186 -2.636 
-0.66641 -0.362646 -2.654 
-0.655328 -0.362646 -2.654 
-0.644247 -0.362646 -2.654 
-0.637698 -0.365242 -2.673 
-0.626538 -0.365242 -2.673 
-0.615377 -0.365242 -2.673 
-0.599921 -0.362646 -2.654 
-0.584846 -0.360186 -2.636 
-0.569922 -0.357727 -2.618 
-0.555147 -0.355267 -2.6 
-0.544291 -0.355267 -2.6 
-0.533435 -0.355267 -2.6 
-0.518962 -0.352808 -2.582 
-0.508181 -0.352808 -2.582 
-0.494125 -0.350485 -2.565 
-0.483415 -0.350485 -2.565 
-0.472706 -0.350485 -2.565 
-0.465058 -0.352808 -2.582 
-0.451286 -0.350485 -2.565 
-0.443496 -0.352808 -2.582 
-0.432715 -0.352808 -2.582 
-0.421935 -0.352808 -2.582 
-0.41402 -0.355267 -2.6 
-0.403164 -0.355267 -2.6 
-0.395024 -0.357727 -2.618 
-0.384093 -0.357727 -2.618 
-0.375728 -0.360186 -2.636 
-0.367212 -0.362646 -2.654 
-0.356131 -0.362646 -2.654 
-0.34999 -0.367838 -2.692 
-0.34114 -0.370434 -2.711 
-0.332133 -0.373031 -2.73 
-0.320734 -0.373031 -2.73 
-0.311601 -0.375763 -2.75 
-0.300119 -0.375763 -2.75 
-0.290736 -0.378496 -2.77 
-0.27917 -0.378496 -2.77 
-0.271469 -0.383962 -2.81 
-0.261677 -0.386831 -2.831 
-0.25171 -0.389701 -2.852 
-0.241652 -0.392707 -2.874 
-0.23133 -0.395576 -2.895 
-0.22265 -0.401725 -2.94 
-0.21202 -0.404868 -2.963 
-0.199649 -0.404868 -2.963 
-0.188731 -0.408011 -2.986 
-0.174906 -0.404868 -2.963 
-0.162534 -0.404868 -2.963 
-0.150163 -0.404868 -2.963 
-0.137791 -0.404868 -2.963 
-0.124446 -0.401725 -2.94 
-0.11217 -0.401725 -2.94 
-0.0983657 -0.395576 -2.895 
-0.086278 -0.395576 -2.895 
-0.0736522 -0.392707 -2.874 
-0.0611803 -0.389701 -2.852 
-0.0492722 -0.389701 -2.852 
-0.0370889 -0.386831 -2.831 
-0.0252685 -0.386831 -2.831 
-0.0134481 -0.386831 -2.831 
-0.00162762 -0.386831 -2.831 
0.0101928 -0.386831 -2.831 
0.0220133 -0.386831 -2.831 
0.0340847 -0.389701 -2.852 
0.0459928 -0.389701 -2.852 
0.0583476 -0.392707 -2.874 
0.0703475 -0.392707 -2.874 
0.0829492 -0.395576 -2.895 
0.0957919 -0.398719 -2.918 
0.107976 -0.398719 -2.918 
0.121065 -0.401725 -2.94 
0.134384 -0.404868 -2.963 
0.146756 -0.404868 -2.963 
0.160362 -0.408011 -2.986 
0.17283 -0.408011 -2.986 
0.185298 -0.408011 -2.986 
0.199288 -0.411153 -3.009 
0.211852 -0.411153 -3.009 
0.224416 -0.411153 -3.009 
0.236979 -0.411153 -3.009 
0.249543 -0.411153 -3.009 
0.260103 -0.408011 -2.986 
0.272571 -0.408011 -2.986 
0.285039 -0.408011 -2.986 
0.297506 -0.408011 -2.986 
0.309974 -0.408011 -2.986 
0.319958 -0.404868 -2.963 
0.332329 -0.404868 -2.963 
0.344701 -0.404868 -2.963 
0.354301 -0.401725 -2.94 
0.366576 -0.401725 -2.94 
0.378852 -0.401725 -2.94 
0.391127 -0.401725 -2.94 
0.403403 -0.401725 -2.94 
0.415679 -0.401725 -2.94 
0.431302 -0.404868 -2.963 
0.443674 -0.404868 -2.963 
0.456045 -0.404868 -2.963 
0.472053 -0.408011 -2.986 
0.488252 -0.411153 -3.009 
0.500816 -0.411153 -3.009 
0.517475 -0.414433 -3.033 
0.538703 -0.421128 -3.082 
0.565352 -0.43165 -3.159 
0.593193 -0.442581 -3.239 
0.628071 -0.458158 -3.353 
0.659305 -0.470456 -3.443 
0.698922 -0.488082 -3.572 
0.756203 -0.51705 -3.784 
0.820763 -0.549708 -4.023 
0.893981 -0.586737 -4.294 
0.966276 -0.621718 -4.55 
1.04764 -0.66107 -4.838 
1.12478 -0.696324 -5.096 
1.22792 -0.746061 -5.46 
1.34693 -0.80345 -5.88 
1.48577 -0.870405 -6.37 
1.62039 -0.932576 -6.825 
1.74215 -0.98532 -7.211 
1.87867 -1.04449 -7.644 
2.03257 -1.11117 -8.132 
2.15826 -1.16049 -8.493 
2.29575 -1.21447 -8.888 
2.3885 -1.24344 -9.1 
2.54782 -1.30561 -9.555 
2.72394 -1.37434 -10.058 
2.76594 -1.37434 -10.058 
2.80793 -1.37434 -10.058 
2.77682 -1.33908 -9.8 
2.68031 -1.27377 -9.322 
2.53371 -1.18687 -8.686 
2.40606 -1.11117 -8.132 
2.20537 -1.00431 -7.35 
2.07634 -0.932576 -6.825 
1.9013 -0.842393 -6.165 
1.78325 -0.779538 -5.705 
1.68132 -0.725292 -5.308 
1.68038 -0.715453 -5.236 
1.72565 -0.725292 -5.308 
1.79786 -0.746061 -5.46 
1.87434 -0.76806 -5.621 
2.01632 -0.816021 -5.972 
2.21421 -0.885162 -6.478 
2.44884 -0.967147 -7.078 
2.78829 -1.08807 -7.963 
3.14929 -1.21447 -8.888 
3.34199 -1.27377 -9.322 
3.55428 -1.33908 -9.8 
3.78963 -1.4115 -10.33 
3.93925 -1.45072 -10.617 
4.09726 -1.49212 -10.92 
4.14286 -1.49212 -10.92 
4.18845 -1.49212 -10.92 
4.35851 -1.53598 -11.241 
4.40545 -1.53598 -11.241 
4.45238 -1.53598 -11.241 
4.49932 -1.53598 -11.241 
4.54625 -1.53598 -11.241 
4.46202 -1.49212 -10.92 
4.50762 -1.49212 -10.92 
4.55321 -1.49212 -10.92 
4.59881 -1.49212 -10.92 
4.51553 -1.45072 -10.617 
4.55986 -1.45072 -10.617 
4.60419 -1.45072 -10.617 
4.64852 -1.45072 -10.617 
4.69285 -1.45072 -10.617 
4.73718 -1.45072 -10.617 
4.91797 -1.49212 -10.92 
4.96357 -1.49212 -10.92 
5.00916 -1.49212 -10.92 
5.05476 -1.49212 -10.92 
5.10035 -1.49212 -10.92 
5.14595 -1.49212 -10.92 
5.19154 -1.49212 -10.92 
5.23714 -1.49212 -10.92 
5.28273 -1.49212 -10.92 
5.32833 -1.49212 -10.92 
5.37392 -1.49212 -10.92 
5.57883 -1.53598 -11.241 
5.46511 -1.49212 -10.92 
5.5107 -1.49212 -10.92 
5.5563 -1.49212 -10.92 
5.44646 -1.45072 -10.617 
5.49079 -1.45072 -10.617 
5.38549 -1.4115 -10.33 
5.42862 -1.4115 -10.33 
5.32768 -1.37434 -10.058 
5.36967 -1.37434 -10.058 
5.27285 -1.33908 -9.8 
5.31377 -1.33908 -9.8 
5.35469 -1.33908 -9.8 
5.26072 -1.30561 -9.555 
5.17136 -1.27377 -9.322 
5.0862 -1.24344 -9.1 
4.89107 -1.18687 -8.686 
4.71348 -1.13535 -8.309 
4.55045 -1.08807 -7.963 
4.40007 -1.04449 -7.644 
4.26153 -1.00431 -7.35 
4.13338 -0.967147 -7.078 
4.01413 -0.932576 -6.825 
3.97155 -0.916179 -6.705 
3.93094 -0.900466 -6.59 
3.95846 -0.900466 -6.59 
3.91823 -0.885162 -6.478 
3.94528 -0.885162 -6.478 
3.97233 -0.885162 -6.478 
3.99937 -0.885162 -6.478 
3.9593 -0.870405 -6.37 
3.98589 -0.870405 -6.37 
4.01249 -0.870405 -6.37 
4.03909 -0.870405 -6.37 
4.06568 -0.870405 -6.37 
4.16166 -0.885162 -6.478 
4.18871 -0.885162 -6.478 
4.21576 -0.885162 -6.478 
4.24281 -0.885162 -6.478 
4.34368 -0.900466 -6.59 
4.37119 -0.900466 -6.59 
4.39871 -0.900466 -6.59 
4.351 -0.885162 -6.478 
4.30506 -0.870405 -6.37 
4.26093 -0.856194 -6.266 
4.08595 -0.816021 -5.972 
3.98629 -0.791289 -5.791 
3.83595 -0.756856 -5.539 
3.69814 -0.725292 -5.308 
3.52475 -0.687169 -5.029 
3.36878 -0.652872 -4.778 
3.22702 -0.621718 -4.55 
3.13402 -0.600265 -4.393 
3.01386 -0.573893 -4.2 
2.9982 -0.567608 -4.154 
3.01554 -0.567608 -4.154 
3.03289 -0.567608 -4.154 
3.05023 -0.567608 -4.154 
3.06758 -0.567608 -4.154 
3.11908 -0.573893 -4.2 
3.17172 -0.580315 -4.247 
3.22475 -0.586737 -4.294 
3.20719 -0.580315 -4.247 
3.22492 -0.580315 -4.247 
3.24265 -0.580315 -4.247 
3.26038 -0.580315 -4.247 
3.31439 -0.586737 -4.294 
3.29585 -0.580315 -4.247 
3.27691 -0.573893 -4.2 
3.29445 -0.573893 -4.2 
3.24101 -0.561595 -4.11 
3.22329 -0.555583 -4.066 
3.24027 -0.555583 -4.066 
3.15631 -0.538366 -3.94 
3.14055 -0.532901 -3.9 
3.03299 -0.511995 -3.747 
2.99005 -0.502156 -3.675 
2.94897 -0.492728 -3.606 
2.90895 -0.483573 -3.539 
2.87086 -0.474828 -3.475 
2.83389 -0.466356 -3.413 
2.84814 -0.466356 -3.413 
2.83639 -0.462121 -3.382 
2.82607 -0.458158 -3.353 
2.8155 -0.454195 -3.324 
2.8047 -0.450233 -3.295 
2.81846 -0.450233 -3.295 
2.80815 -0.446407 -3.267 
2.7976 -0.442581 -3.239 
2.78769 -0.438892 -3.212 
2.77756 -0.435202 -3.185 
2.79086 -0.435202 -3.185 
2.80416 -0.435202 -3.185 
2.81745 -0.435202 -3.185 
2.85475 -0.438892 -3.212 
2.86816 -0.438892 -3.212 
2.90579 -0.442581 -3.239 
2.89498 -0.438892 -3.212 
2.93284 -0.442581 -3.239 
2.97184 -0.446407 -3.267 
2.98548 -0.446407 -3.267 
2.99912 -0.446407 -3.267 
3.01276 -0.446407 -3.267 
3.00046 -0.442581 -3.239 
3.01399 -0.442581 -3.239 
3.00227 -0.438892 -3.212 
2.99033 -0.435202 -3.185 
2.97911 -0.43165 -3.159 
2.94305 -0.424544 -3.107 
2.88562 -0.414433 -3.033 
2.87535 -0.411153 -3.009 
2.82169 -0.401725 -2.94 
2.79059 -0.395576 -2.895 
-1.49082 -0.224321 -1.593 
-1.48417 -0.224321 -1.593 
-1.47751 -0.224321 -1.593 
-1.4764 -0.225166 -1.599 
-1.46973 -0.225166 -1.599 
-1.46305 -0.225166 -1.599 
-1.45637 -0.225166 -1.599 
-1.45604 -0.226151 -1.606 
-1.45566 -0.227137 -1.613 
-1.44892 -0.227137 -1.613 
-1.44844 -0.228123 -1.62 
-1.44702 -0.228968 -1.626 
-1.44643 -0.229953 -1.633 
-1.44578 -0.230939 -1.64 
-1.4521 -0.233051 -1.655 
-1.4513 -0.234037 -1.662 
-1.45044 -0.235023 -1.669 
-1.44953 -0.236009 -1.676 
-1.44942 -0.237135 -1.684 
-1.44838 -0.238121 -1.691 
-1.44814 -0.239247 -1.699 
-1.44698 -0.240233 -1.706 
-1.43986 -0.240233 -1.706 
-1.43274 -0.240233 -1.706 
-1.42561 -0.240233 -1.706 
-1.42514 -0.24136 -1.714 
-1.41798 -0.24136 -1.714 
-1.41741 -0.242486 -1.722 
-1.41022 -0.242486 -1.722 
-1.40303 -0.242486 -1.722 
-1.40152 -0.243472 -1.729 
-1.40075 -0.244598 -1.737 
-1.3935 -0.244598 -1.737 
-1.39263 -0.245725 -1.745 
-1.39169 -0.246851 -1.753 
-1.39069 -0.247978 -1.761 
-1.38962 -0.249105 -1.769 
-1.38224 -0.249105 -1.769 
-1.38185 -0.250372 -1.778 
-1.38061 -0.251498 -1.786 
-1.3793 -0.252625 -1.794 
-1.37181 -0.252625 -1.794 
-1.37116 -0.253892 -1.803 
-1.36364 -0.253892 -1.803 
-1.36212 -0.255019 -1.811 
-1.35456 -0.255019 -1.811 
-1.3537 -0.256286 -1.82 
-1.35275 -0.257554 -1.829 
-1.34512 -0.257554 -1.829 
-1.34406 -0.258821 -1.838 
-1.3422 -0.259947 -1.846 
-1.341 -0.261215 -1.855 
-1.33972 -0.262482 -1.864 
-1.34552 -0.265158 -1.883 
-1.34405 -0.266425 -1.892 
-1.34321 -0.267833 -1.902 
-1.34159 -0.2691 -1.911 
-1.34687 -0.271776 -1.93 
-1.34575 -0.273184 -1.94 
-1.34454 -0.274592 -1.95 
-1.34325 -0.276 -1.96 
-1.34188 -0.277409 -1.97 
-1.34043 -0.278817 -1.98 
-1.33956 -0.280366 -1.991 
-1.33793 -0.281774 -2.001 
-1.33689 -0.283323 -2.012 
-1.32849 -0.283323 -2.012 
-1.32665 -0.284731 -2.022 
-1.32538 -0.28628 -2.033 
-1.31689 -0.28628 -2.033 
-1.31548 -0.287829 -2.044 
-1.31398 -0.289378 -2.055 
-1.31238 -0.290927 -2.066 
-1.3107 -0.292476 -2.077 
-1.30955 -0.294166 -2.089 
-1.30768 -0.295715 -2.1 
-1.30633 -0.297405 -2.112 
-1.30427 -0.298954 -2.123 
-1.30273 -0.300643 -2.135 
-1.30109 -0.302333 -2.147 
-1.29212 -0.302333 -2.147 
-1.29033 -0.304023 -2.159 
-1.28903 -0.305854 -2.172 
-1.28703 -0.307543 -2.184 
-1.29254 -0.311064 -2.209 
-1.29087 -0.312894 -2.222 
-1.29659 -0.316556 -2.248 
-1.29522 -0.318527 -2.262 
-1.29316 -0.320358 -2.275 
-1.2989 -0.32416 -2.302 
-1.30553 -0.328243 -2.331 
-1.30358 -0.330215 -2.345 
-1.29379 -0.330215 -2.345 
-1.29166 -0.332186 -2.359 
-1.28181 -0.332186 -2.359 
-1.27196 -0.332186 -2.359 
-1.27014 -0.334299 -2.374 
-1.26819 -0.336411 -2.389 
-1.25821 -0.336411 -2.389 
-1.24824 -0.336411 -2.389 
-1.24604 -0.338523 -2.404 
-1.24371 -0.340635 -2.419 
-1.23361 -0.340635 -2.419 
-1.22351 -0.340635 -2.419 
-1.22094 -0.342748 -2.434 
-1.21078 -0.342748 -2.434 
-1.2085 -0.345001 -2.45 
-1.2061 -0.347254 -2.466 
-1.20356 -0.349507 -2.482 
-1.20089 -0.35176 -2.498 
-1.19856 -0.354154 -2.515 
-1.20365 -0.358801 -2.548 
-1.20097 -0.361195 -2.565 
-1.19815 -0.363588 -2.582 
-1.20392 -0.368658 -2.618 
-1.2012 -0.371192 -2.636 
-1.19832 -0.373727 -2.654 
-1.19573 -0.376403 -2.673 
-1.19299 -0.379078 -2.692 
-1.1901 -0.381754 -2.711 
-1.18704 -0.384429 -2.73 
-1.18425 -0.387246 -2.75 
-1.1813 -0.390062 -2.77 
-1.17818 -0.392878 -2.79 
-1.17489 -0.395695 -2.81 
-1.17185 -0.398652 -2.831 
-1.16864 -0.401609 -2.852 
-1.16565 -0.404707 -2.874 
-1.16208 -0.407664 -2.895 
-1.15913 -0.410903 -2.918 
-1.14694 -0.410903 -2.918 
-1.14332 -0.414001 -2.94 
-1.13989 -0.41724 -2.963 
-1.12752 -0.41724 -2.963 
-1.1238 -0.420478 -2.986 
-1.11133 -0.420478 -2.986 
-1.09887 -0.420478 -2.986 
-1.0864 -0.420478 -2.986 
-1.07393 -0.420478 -2.986 
-1.06964 -0.423717 -3.009 
-1.05708 -0.423717 -3.009 
-1.05284 -0.427097 -3.033 
-1.04018 -0.427097 -3.033 
-1.03599 -0.430617 -3.058 
-1.03125 -0.433997 -3.082 
-1.01838 -0.433997 -3.082 
-1.00551 -0.433997 -3.082 
-0.992643 -0.433997 -3.082 
-0.964197 -0.427097 -3.033 
-0.936788 -0.420478 -2.986 
-0.910081 -0.414001 -2.94 
-0.884064 -0.407664 -2.895 
-0.852699 -0.398652 -2.831 
-0.81682 -0.387246 -2.75 
-0.793916 -0.381754 -2.711 
-0.766142 -0.373727 -2.654 
-0.744819 -0.368658 -2.618 
-0.723796 -0.363588 -2.582 
-0.708321 -0.361195 -2.565 
-0.692988 -0.358801 -2.548 
-0.677796 -0.356407 -2.531 
-0.667228 -0.356407 -2.531 
-0.656661 -0.356407 -2.531 
-0.646093 -0.356407 -2.531 
-0.639794 -0.358801 -2.548 
-0.629155 -0.358801 -2.548 
-0.622643 -0.361195 -2.565 
-0.611933 -0.361195 -2.565 
-0.601223 -0.361195 -2.565 
-0.590513 -0.361195 -2.565 
-0.579803 -0.361195 -2.565 
-0.565322 -0.358801 -2.548 
-0.550982 -0.356407 -2.531 
-0.540415 -0.356407 -2.531 
-0.526497 -0.354154 -2.515 
-0.512508 -0.35176 -2.498 
-0.502078 -0.35176 -2.498 
-0.488499 -0.349507 -2.482 
-0.478136 -0.349507 -2.482 
-0.464757 -0.347254 -2.466 
-0.454461 -0.347254 -2.466 
-0.447046 -0.349507 -2.482 
-0.436683 -0.349507 -2.482 
-0.42632 -0.349507 -2.482 
-0.415956 -0.349507 -2.482 
-0.405593 -0.349507 -2.482 
-0.39523 -0.349507 -2.482 
-0.387348 -0.35176 -2.498 
-0.376918 -0.35176 -2.498 
-0.368982 -0.354154 -2.515 
-0.358481 -0.354154 -2.515 
-0.350194 -0.356407 -2.531 
-0.339626 -0.356407 -2.531 
-0.333478 -0.361195 -2.565 
-0.322768 -0.361195 -2.565 
-0.314127 -0.363588 -2.582 
-0.305461 -0.366123 -2.6 
-0.296645 -0.368658 -2.618 
-0.285713 -0.368658 -2.618 
-0.276672 -0.371192 -2.636 
-0.267479 -0.373727 -2.654 
-0.258234 -0.376403 -2.673 
-0.250585 -0.381754 -2.711 
-0.242708 -0.387246 -2.75 
-0.232907 -0.390062 -2.77 
-0.224538 -0.395695 -2.81 
-0.215986 -0.401609 -2.852 
-0.205652 -0.404707 -2.874 
-0.195067 -0.407664 -2.895 
-0.185824 -0.414001 -2.94 
-0.173548 -0.414001 -2.94 
-0.161272 -0.414001 -2.94 
-0.147882 -0.410903 -2.918 
-0.135698 -0.410903 -2.918 
-0.123515 -0.410903 -2.918 
-0.110453 -0.407664 -2.895 
-0.0976522 -0.404707 -2.874 
-0.0856522 -0.404707 -2.874 
-0.0730884 -0.401609 -2.852 
-0.0611803 -0.401609 -2.852 
-0.0489094 -0.398652 -2.831 
-0.0370889 -0.398652 -2.831 
-0.0252685 -0.398652 -2.831 
-0.0134481 -0.398652 -2.831 
-0.00162762 -0.398652 -2.831 
0.0101928 -0.398652 -2.831 
0.0221766 -0.401609 -2.852 
0.0343476 -0.404707 -2.874 
0.0463476 -0.404707 -2.874 
0.0583476 -0.404707 -2.874 
0.0708616 -0.407664 -2.895 
0.0836082 -0.410903 -2.918 
0.0957919 -0.410903 -2.918 
0.10879 -0.414001 -2.94 
0.122012 -0.41724 -2.963 
0.134384 -0.41724 -2.963 
0.147895 -0.420478 -2.986 
0.160362 -0.420478 -2.986 
0.174161 -0.423717 -3.009 
0.186725 -0.423717 -3.009 
0.199288 -0.423717 -3.009 
0.211852 -0.423717 -3.009 
0.224416 -0.423717 -3.009 
0.236979 -0.423717 -3.009 
0.249543 -0.423717 -3.009 
0.260103 -0.420478 -2.986 
0.272571 -0.420478 -2.986 
0.285039 -0.420478 -2.986 
0.297506 -0.420478 -2.986 
0.309974 -0.420478 -2.986 
0.322441 -0.420478 -2.986 
0.334909 -0.420478 -2.986 
0.344701 -0.41724 -2.963 
0.357072 -0.41724 -2.963 
0.369444 -0.41724 -2.963 
0.381816 -0.41724 -2.963 
0.394187 -0.41724 -2.963 
0.406559 -0.41724 -2.963 
0.422182 -0.420478 -2.986 
0.43465 -0.420478 -2.986 
0.447118 -0.420478 -2.986 
0.463125 -0.423717 -3.009 
0.479483 -0.427097 -3.033 
0.492147 -0.427097 -3.033 
0.504811 -0.427097 -3.033 
0.52174 -0.430617 -3.058 
0.547617 -0.441178 -3.133 
0.565352 -0.44484 -3.159 
0.593193 -0.456105 -3.239 
0.622639 -0.468074 -3.324 
0.659305 -0.484831 -3.443 
0.698922 -0.502997 -3.572 
0.748809 -0.52764 -3.747 
0.812194 -0.560591 -3.981 
0.884196 -0.598048 -4.247 
0.966276 -0.640715 -4.55 
1.04764 -0.681271 -4.838 
1.14001 -0.727318 -5.165 
1.24569 -0.779983 -5.539 
1.368 -0.840957 -5.972 
1.48577 -0.897002 -6.37 
1.5919 -0.944175 -6.705 
1.71002 -0.9967 -7.078 
1.84181 -1.05528 -7.494 
1.99032 -1.12132 -7.963 
2.06652 -1.14512 -8.132 
2.19372 -1.19596 -8.493 
2.33286 -1.25158 -8.888 
2.4265 -1.28143 -9.1 
2.58772 -1.3455 -9.555 
2.69499 -1.38 -9.8 
2.73591 -1.38 -9.8 
2.7074 -1.3455 -9.555 
2.61648 -1.28143 -9.1 
2.47741 -1.19596 -8.493 
2.35606 -1.12132 -7.963 
2.20537 -1.035 -7.35 
2.03984 -0.944175 -6.705 
1.9013 -0.868134 -6.165 
1.75699 -0.79153 -5.621 
1.65851 -0.737316 -5.236 
1.65759 -0.727318 -5.165 
1.70224 -0.737316 -5.236 
1.74781 -0.747454 -5.308 
1.847 -0.779983 -5.539 
2.14175 -0.882357 -6.266 
2.40421 -0.978534 -6.949 
2.67659 -1.0764 -7.644 
3.00933 -1.19596 -8.493 
3.2624 -1.28143 -9.1 
3.46542 -1.3455 -9.555 
3.68984 -1.41633 -10.058 
3.73184 -1.41633 -10.058 
3.87589 -1.45464 -10.33 
3.91902 -1.45464 -10.33 
4.07224 -1.49505 -10.617 
4.11657 -1.49505 -10.617 
4.16089 -1.49505 -10.617 
4.20522 -1.49505 -10.617 
4.24955 -1.49505 -10.617 
4.29388 -1.49505 -10.617 
4.33821 -1.49505 -10.617 
4.26407 -1.45464 -10.33 
4.30721 -1.45464 -10.33 
4.35034 -1.45464 -10.33 
4.39347 -1.45464 -10.33 
4.4366 -1.45464 -10.33 
4.47973 -1.45464 -10.33 
4.52286 -1.45464 -10.33 
4.56599 -1.45464 -10.33 
4.60913 -1.45464 -10.33 
4.65226 -1.45464 -10.33 
4.82584 -1.49505 -10.617 
4.87017 -1.49505 -10.617 
4.9145 -1.49505 -10.617 
4.95883 -1.49505 -10.617 
5.00316 -1.49505 -10.617 
5.04749 -1.49505 -10.617 
5.09182 -1.49505 -10.617 
5.13615 -1.49505 -10.617 
5.32833 -1.53772 -10.92 
5.37392 -1.53772 -10.92 
5.41952 -1.53772 -10.92 
5.46511 -1.53772 -10.92 
5.5107 -1.53772 -10.92 
5.40213 -1.49505 -10.617 
5.44646 -1.49505 -10.617 
5.49079 -1.49505 -10.617 
5.38549 -1.45464 -10.33 
5.42862 -1.45464 -10.33 
5.32768 -1.41633 -10.058 
5.36967 -1.41633 -10.058 
5.41167 -1.41633 -10.058 
5.31377 -1.38 -9.8 
5.22082 -1.3455 -9.555 
5.26072 -1.3455 -9.555 
5.30061 -1.3455 -9.555 
5.0862 -1.28143 -9.1 
4.89107 -1.22313 -8.686 
4.71348 -1.17004 -8.309 
4.55045 -1.12132 -7.963 
4.48987 -1.09837 -7.8 
4.26153 -1.035 -7.35 
4.13338 -0.9967 -7.078 
4.01413 -0.961073 -6.825 
3.97155 -0.944175 -6.705 
3.93094 -0.927981 -6.59 
3.95846 -0.927981 -6.59 
3.91823 -0.91221 -6.478 
4.01349 -0.927981 -6.59 
3.97233 -0.91221 -6.478 
3.99937 -0.91221 -6.478 
3.9593 -0.897002 -6.37 
3.98589 -0.897002 -6.37 
4.01249 -0.897002 -6.37 
4.03909 -0.897002 -6.37 
4.06568 -0.897002 -6.37 
4.09228 -0.897002 -6.37 
4.18871 -0.91221 -6.478 
4.21576 -0.91221 -6.478 
4.24281 -0.91221 -6.478 
4.34368 -0.927981 -6.59 
4.37119 -0.927981 -6.59 
4.39871 -0.927981 -6.59 
4.351 -0.91221 -6.478 
4.30506 -0.897002 -6.37 
4.26093 -0.882357 -6.266 
4.08595 -0.840957 -5.972 
3.92709 -0.803359 -5.705 
3.72791 -0.758016 -5.383 
3.55043 -0.717601 -5.096 
3.39088 -0.681271 -4.838 
3.20803 -0.640715 -4.55 
3.08021 -0.611566 -4.343 
2.99633 -0.59143 -4.2 
2.91771 -0.57256 -4.066 
2.87333 -0.560591 -3.981 
2.88996 -0.560591 -3.981 
2.93724 -0.566505 -4.023 
2.95404 -0.566505 -4.023 
2.97084 -0.566505 -4.023 
3.01957 -0.57256 -4.066 
3.03655 -0.57256 -4.066 
3.11961 -0.584952 -4.154 
3.13695 -0.584952 -4.154 
3.1543 -0.584952 -4.154 
3.13805 -0.578756 -4.11 
3.2243 -0.59143 -4.2 
3.24184 -0.59143 -4.2 
3.22368 -0.584952 -4.154 
3.24102 -0.584952 -4.154 
3.18934 -0.57256 -4.066 
3.17241 -0.566505 -4.023 
3.15591 -0.560591 -3.981 
3.13986 -0.554817 -3.94 
3.09302 -0.543693 -3.861 
3.07774 -0.538201 -3.822 
3.00385 -0.52257 -3.711 
2.96158 -0.512572 -3.64 
2.92116 -0.502997 -3.572 
2.88183 -0.493703 -3.506 
2.87086 -0.489338 -3.475 
2.83389 -0.480607 -3.413 
2.84814 -0.480607 -3.413 
2.83639 -0.476242 -3.382 
2.82607 -0.472158 -3.353 
2.8155 -0.468074 -3.324 
2.8047 -0.463991 -3.295 
2.79451 -0.460048 -3.267 
2.80815 -0.460048 -3.267 
2.7976 -0.456105 -3.239 
2.78769 -0.452303 -3.212 
2.8011 -0.452303 -3.212 
2.79086 -0.448501 -3.185 
2.82793 -0.452303 -3.212 
2.86522 -0.456105 -3.239 
2.87875 -0.456105 -3.239 
2.89227 -0.456105 -3.239 
2.93091 -0.460048 -3.267 
2.96979 -0.463991 -3.295 
2.98355 -0.463991 -3.295 
3.02369 -0.468074 -3.324 
3.03757 -0.468074 -3.324 
3.05144 -0.468074 -3.324 
3.09207 -0.472158 -3.353 
3.0792 -0.468074 -3.324 
3.09308 -0.468074 -3.324 
3.10696 -0.468074 -3.324 
3.06732 -0.460048 -3.267 
3.05456 -0.456105 -3.239 
3.01693 -0.448501 -3.185 
3.00549 -0.44484 -3.159 
2.96899 -0.437517 -3.107 
2.95797 -0.433997 -3.082 
2.94771 -0.430617 -3.058 
2.91304 -0.423717 -3.009 
2.88088 -0.41724 -2.963 
-1.49082 -0.230972 -1.593 
-1.48417 -0.230972 -1.593 
-1.47751 -0.230972 -1.593 
-1.47086 -0.230972 -1.593 
-1.46973 -0.231842 -1.599 
-1.46305 -0.231842 -1.599 
-1.45637 -0.231842 -1.599 
-1.45604 -0.232857 -1.606 
-1.45566 -0.233872 -1.613 
-1.44892 -0.233872 -1.613 
-1.44844 -0.234887 -1.62 
-1.44702 -0.235757 -1.626 
-1.44643 -0.236772 -1.633 
-1.44578 -0.237787 -1.64 
-1.4521 -0.239962 -1.655 
-1.4513 -0.240977 -1.662 
-1.45044 -0.241992 -1.669 
-1.44953 -0.243006 -1.676 
-1.44942 -0.244166 -1.684 
-1.44838 -0.245181 -1.691 
-1.44814 -0.246341 -1.699 
-1.44698 -0.247356 -1.706 
-1.43986 -0.247356 -1.706 
-1.43274 -0.247356 -1.706 
-1.42561 -0.247356 -1.706 
-1.42514 -0.248516 -1.714 
-1.41798 -0.248516 -1.714 
-1.41741 -0.249676 -1.722 
-1.41022 -0.249676 -1.722 
-1.40874 -0.250691 -1.729 
-1.40152 -0.250691 -1.729 
-1.40075 -0.251851 -1.737 
-1.39992 -0.253011 -1.745 
-1.39263 -0.253011 -1.745 
-1.39169 -0.254171 -1.753 
-1.39069 -0.255331 -1.761 
-1.38334 -0.255331 -1.761 
-1.38224 -0.256491 -1.769 
-1.38185 -0.257796 -1.778 
-1.38061 -0.258956 -1.786 
-1.3793 -0.260116 -1.794 
-1.37181 -0.260116 -1.794 
-1.36432 -0.260116 -1.794 
-1.36364 -0.26142 -1.803 
-1.36212 -0.26258 -1.811 
-1.36129 -0.263885 -1.82 
-1.3537 -0.263885 -1.82 
-1.35275 -0.26519 -1.829 
-1.35173 -0.266495 -1.838 
-1.34406 -0.266495 -1.838 
-1.3422 -0.267655 -1.846 
-1.341 -0.26896 -1.855 
-1.33972 -0.270265 -1.864 
-1.34552 -0.27302 -1.883 
-1.34405 -0.274325 -1.892 
-1.34321 -0.275775 -1.902 
-1.34159 -0.27708 -1.911 
-1.34687 -0.279834 -1.93 
-1.34575 -0.281284 -1.94 
-1.34454 -0.282734 -1.95 
-1.34325 -0.284184 -1.96 
-1.34188 -0.285634 -1.97 
-1.34043 -0.287084 -1.98 
-1.33956 -0.288679 -1.991 
-1.33125 -0.288679 -1.991 
-1.33689 -0.291724 -2.012 
-1.32849 -0.291724 -2.012 
-1.32665 -0.293174 -2.022 
-1.32538 -0.294769 -2.033 
-1.31689 -0.294769 -2.033 
-1.31548 -0.296364 -2.044 
-1.31398 -0.297958 -2.055 
-1.31238 -0.299553 -2.066 
-1.31827 -0.302888 -2.089 
-1.30955 -0.302888 -2.089 
-1.30768 -0.304483 -2.1 
-1.30633 -0.306223 -2.112 
-1.30427 -0.307818 -2.123 
-1.30273 -0.309558 -2.135 
-1.30109 -0.311298 -2.147 
-1.29934 -0.313038 -2.159 
-1.2981 -0.314923 -2.172 
-1.29615 -0.316662 -2.184 
-1.29469 -0.318547 -2.197 
-1.29254 -0.320287 -2.209 
-1.29087 -0.322172 -2.222 
-1.29659 -0.325942 -2.248 
-1.29522 -0.327972 -2.262 
-1.29316 -0.329857 -2.275 
-1.2989 -0.333771 -2.302 
-1.29713 -0.335801 -2.316 
-1.2958 -0.337976 -2.331 
-1.29379 -0.340006 -2.345 
-1.284 -0.340006 -2.345 
-1.28181 -0.342036 -2.359 
-1.27196 -0.342036 -2.359 
-1.26211 -0.342036 -2.359 
-1.26023 -0.344211 -2.374 
-1.25821 -0.346386 -2.389 
-1.24824 -0.346386 -2.389 
-1.24604 -0.348561 -2.404 
-1.24371 -0.350736 -2.419 
-1.23361 -0.350736 -2.419 
-1.22351 -0.350736 -2.419 
-1.22094 -0.35291 -2.434 
-1.21873 -0.35523 -2.45 
-1.2085 -0.35523 -2.45 
-1.2061 -0.35755 -2.466 
-1.20356 -0.35987 -2.482 
-1.20089 -0.36219 -2.498 
-1.20619 -0.366975 -2.531 
-1.20365 -0.369439 -2.548 
-1.20893 -0.374369 -2.582 
-1.2065 -0.376979 -2.6 
-1.20392 -0.379589 -2.618 
-1.2012 -0.382199 -2.636 
-1.19832 -0.384809 -2.654 
-1.19573 -0.387563 -2.673 
-1.19299 -0.390318 -2.692 
-1.1901 -0.393073 -2.711 
-1.18704 -0.395828 -2.73 
-1.18425 -0.398728 -2.75 
-1.1813 -0.401628 -2.77 
-1.17818 -0.404528 -2.79 
-1.17489 -0.407427 -2.81 
-1.17185 -0.410472 -2.831 
-1.16864 -0.413517 -2.852 
-1.16565 -0.416707 -2.874 
-1.16208 -0.419752 -2.895 
-1.15913 -0.423086 -2.918 
-1.14694 -0.423086 -2.918 
-1.14332 -0.426276 -2.94 
-1.13989 -0.429611 -2.963 
-1.12752 -0.429611 -2.963 
-1.1238 -0.432946 -2.986 
-1.11133 -0.432946 -2.986 
-1.09887 -0.432946 -2.986 
-1.0864 -0.432946 -2.986 
-1.0822 -0.436281 -3.009 
-1.06964 -0.436281 -3.009 
-1.05708 -0.436281 -3.009 
-1.05284 -0.439761 -3.033 
-1.04018 -0.439761 -3.033 
-1.03599 -0.443385 -3.058 
-1.03125 -0.446865 -3.082 
-1.01045 -0.443385 -3.058 
-0.997681 -0.443385 -3.058 
-0.984913 -0.443385 -3.058 
-0.956567 -0.436281 -3.009 
-0.922357 -0.426276 -2.94 
-0.896151 -0.419752 -2.895 
-0.86452 -0.410472 -2.831 
-0.828302 -0.398728 -2.75 
-0.799592 -0.390318 -2.692 
-0.771953 -0.382199 -2.636 
-0.745358 -0.374369 -2.582 
-0.720068 -0.366975 -2.531 
-0.700249 -0.36219 -2.498 
-0.685401 -0.35987 -2.482 
-0.670686 -0.35755 -2.466 
-0.656105 -0.35523 -2.45 
-0.641657 -0.35291 -2.434 
-0.631494 -0.35291 -2.434 
-0.625416 -0.35523 -2.45 
-0.615186 -0.35523 -2.45 
-0.604957 -0.35523 -2.45 
-0.594727 -0.35523 -2.45 
-0.588314 -0.35755 -2.466 
-0.578018 -0.35755 -2.466 
-0.564038 -0.35523 -2.45 
-0.553808 -0.35523 -2.45 
-0.540029 -0.35291 -2.434 
-0.529866 -0.35291 -2.434 
-0.5165 -0.350736 -2.419 
-0.5064 -0.350736 -2.419 
-0.493223 -0.348561 -2.404 
-0.483185 -0.348561 -2.404 
-0.470195 -0.346386 -2.389 
-0.46022 -0.346386 -2.389 
-0.450245 -0.346386 -2.389 
-0.44027 -0.346386 -2.389 
-0.430296 -0.346386 -2.389 
-0.420321 -0.346386 -2.389 
-0.410346 -0.346386 -2.389 
-0.400371 -0.346386 -2.389 
-0.390396 -0.346386 -2.389 
-0.380421 -0.346386 -2.389 
-0.372772 -0.348561 -2.404 
-0.362734 -0.348561 -2.404 
-0.354897 -0.350736 -2.419 
-0.344797 -0.350736 -2.419 
-0.334697 -0.350736 -2.419 
-0.32661 -0.35291 -2.434 
-0.318527 -0.35523 -2.45 
-0.308297 -0.35523 -2.45 
-0.300014 -0.35755 -2.466 
-0.291598 -0.35987 -2.482 
-0.281234 -0.35987 -2.482 
-0.272617 -0.36219 -2.498 
-0.263972 -0.364655 -2.515 
-0.253471 -0.364655 -2.515 
-0.246158 -0.369439 -2.548 
-0.238661 -0.374369 -2.582 
-0.232647 -0.382199 -2.636 
-0.224751 -0.387563 -2.673 
-0.218145 -0.395828 -2.73 
-0.209776 -0.401628 -2.77 
-0.201072 -0.407427 -2.81 
-0.19217 -0.413517 -2.852 
-0.181652 -0.416707 -2.874 
-0.170892 -0.419752 -2.895 
-0.158804 -0.419752 -2.895 
-0.146716 -0.419752 -2.895 
-0.133652 -0.416707 -2.874 
-0.121652 -0.416707 -2.874 
-0.109652 -0.416707 -2.874 
-0.0969047 -0.413517 -2.852 
-0.0849965 -0.413517 -2.852 
-0.0725502 -0.410472 -2.831 
-0.0611803 -0.413517 -2.852 
-0.0489094 -0.410472 -2.831 
-0.0370889 -0.410472 -2.831 
-0.0252685 -0.410472 -2.831 
-0.0135478 -0.413517 -2.852 
-0.00163969 -0.413517 -2.852 
0.0102684 -0.413517 -2.852 
0.0223476 -0.416707 -2.874 
0.0345986 -0.419752 -2.895 
0.0466862 -0.419752 -2.895 
0.0587739 -0.419752 -2.895 
0.0714245 -0.423086 -2.918 
0.0836082 -0.423086 -2.918 
0.0965141 -0.426276 -2.94 
0.109641 -0.429611 -2.963 
0.122012 -0.429611 -2.963 
0.134384 -0.429611 -2.963 
0.147895 -0.432946 -2.986 
0.160362 -0.432946 -2.986 
0.174161 -0.436281 -3.009 
0.186725 -0.436281 -3.009 
0.199288 -0.436281 -3.009 
0.213542 -0.439761 -3.033 
0.226206 -0.439761 -3.033 
0.23887 -0.439761 -3.033 
0.249543 -0.436281 -3.009 
0.262107 -0.436281 -3.009 
0.27467 -0.436281 -3.009 
0.285039 -0.432946 -2.986 
0.297506 -0.432946 -2.986 
0.309974 -0.432946 -2.986 
0.322441 -0.432946 -2.986 
0.334909 -0.432946 -2.986 
0.347377 -0.432946 -2.986 
0.359844 -0.432946 -2.986 
0.372312 -0.432946 -2.986 
0.384779 -0.432946 -2.986 
0.397247 -0.432946 -2.986 
0.409715 -0.432946 -2.986 
0.422182 -0.432946 -2.986 
0.437998 -0.436281 -3.009 
0.454155 -0.439761 -3.033 
0.466819 -0.439761 -3.033 
0.479483 -0.439761 -3.033 
0.496203 -0.443385 -3.058 
0.512966 -0.446865 -3.082 
0.5301 -0.45049 -3.107 
0.547617 -0.45426 -3.133 
0.570005 -0.461799 -3.185 
0.593193 -0.469629 -3.239 
0.622639 -0.481953 -3.324 
0.653561 -0.494857 -3.413 
0.686008 -0.508342 -3.506 
0.741615 -0.538065 -3.711 
0.812194 -0.577213 -3.981 
0.884196 -0.615781 -4.247 
0.966276 -0.659713 -4.55 
1.06106 -0.71046 -4.9 
1.14001 -0.748883 -5.165 
1.26413 -0.815 -5.621 
1.368 -0.865892 -5.972 
1.48577 -0.923599 -6.37 
1.5919 -0.972171 -6.705 
1.71002 -1.02625 -7.078 
1.84181 -1.08657 -7.494 
1.94958 -1.13094 -7.8 
2.02357 -1.15457 -7.963 
2.14619 -1.20474 -8.309 
2.22918 -1.23142 -8.493 
2.36997 -1.28869 -8.888 
2.52462 -1.35161 -9.322 
2.62761 -1.3854 -9.555 
2.66751 -1.3854 -9.555 
2.64138 -1.35161 -9.322 
2.55552 -1.28869 -8.888 
2.42374 -1.20474 -8.309 
2.30783 -1.13094 -7.8 
2.16367 -1.04554 -7.211 
2.00485 -0.955497 -6.59 
1.87107 -0.879666 -6.067 
1.75699 -0.815 -5.621 
1.65851 -0.759178 -5.236 
1.63545 -0.738879 -5.096 
1.65672 -0.738879 -5.096 
1.7241 -0.759178 -5.236 
1.82066 -0.791656 -5.46 
2.31979 -0.972171 -6.705 
2.57364 -1.06569 -7.35 
2.94413 -1.20474 -8.309 
3.11398 -1.2594 -8.686 
3.38091 -1.35161 -9.322 
3.59519 -1.42092 -9.8 
3.63611 -1.42092 -9.8 
3.77383 -1.45833 -10.058 
3.81583 -1.45833 -10.058 
3.85783 -1.45833 -10.058 
3.89982 -1.45833 -10.058 
3.94182 -1.45833 -10.058 
3.98381 -1.45833 -10.058 
4.13468 -1.49777 -10.33 
4.17781 -1.49777 -10.33 
4.1098 -1.45833 -10.058 
4.1518 -1.45833 -10.058 
4.19379 -1.45833 -10.058 
4.23579 -1.45833 -10.058 
4.27778 -1.45833 -10.058 
4.20897 -1.42092 -9.8 
4.24989 -1.42092 -9.8 
4.40377 -1.45833 -10.058 
4.44577 -1.45833 -10.058 
4.48776 -1.45833 -10.058 
4.52976 -1.45833 -10.058 
4.69539 -1.49777 -10.33 
4.73852 -1.49777 -10.33 
4.78165 -1.49777 -10.33 
4.95883 -1.53938 -10.617 
5.00316 -1.53938 -10.617 
5.04749 -1.53938 -10.617 
5.09182 -1.53938 -10.617 
5.13615 -1.53938 -10.617 
5.18048 -1.53938 -10.617 
5.22481 -1.53938 -10.617 
5.26914 -1.53938 -10.617 
5.31347 -1.53938 -10.617 
5.3578 -1.53938 -10.617 
5.2561 -1.49777 -10.33 
5.29923 -1.49777 -10.33 
5.34236 -1.49777 -10.33 
5.38549 -1.49777 -10.33 
5.28568 -1.45833 -10.058 
5.32768 -1.45833 -10.058 
5.36967 -1.45833 -10.058 
5.27285 -1.42092 -9.8 
5.31377 -1.42092 -9.8 
5.22082 -1.3854 -9.555 
5.26072 -1.3854 -9.555 
5.17136 -1.35161 -9.322 
5.0862 -1.31943 -9.1 
4.89107 -1.2594 -8.686 
4.71348 -1.20474 -8.309 
4.55045 -1.15457 -7.963 
4.48987 -1.13094 -7.8 
4.34502 -1.08657 -7.494 
4.13338 -1.02625 -7.078 
4.08706 -1.00755 -6.949 
3.97155 -0.972171 -6.705 
3.93094 -0.955497 -6.59 
3.95846 -0.955497 -6.59 
3.98597 -0.955497 -6.59 
4.01349 -0.955497 -6.59 
3.97233 -0.939258 -6.478 
3.99937 -0.939258 -6.478 
4.02642 -0.939258 -6.478 
4.05347 -0.939258 -6.478 
4.08052 -0.939258 -6.478 
4.03909 -0.923599 -6.37 
4.06568 -0.923599 -6.37 
4.09228 -0.923599 -6.37 
4.11888 -0.923599 -6.37 
4.14547 -0.923599 -6.37 
4.24281 -0.939258 -6.478 
4.26985 -0.939258 -6.478 
4.37119 -0.955497 -6.59 
4.32395 -0.939258 -6.478 
4.27846 -0.923599 -6.37 
4.30506 -0.923599 -6.37 
4.12561 -0.879666 -6.067 
3.96211 -0.839648 -5.791 
3.81282 -0.80311 -5.539 
3.62611 -0.759178 -5.236 
3.41388 -0.71046 -4.9 
3.26683 -0.675807 -4.661 
3.09733 -0.63695 -4.393 
2.94617 -0.602297 -4.154 
2.87005 -0.583303 -4.023 
2.82729 -0.571268 -3.94 
2.78672 -0.559814 -3.861 
2.80284 -0.559814 -3.861 
2.79049 -0.554159 -3.822 
2.83509 -0.559814 -3.861 
2.88001 -0.565469 -3.9 
2.926 -0.571268 -3.94 
2.94245 -0.571268 -3.94 
3.02123 -0.583303 -4.023 
3.0705 -0.589537 -4.066 
3.08748 -0.589537 -4.066 
3.10445 -0.589537 -4.066 
3.15521 -0.595917 -4.11 
3.20633 -0.602297 -4.154 
3.18953 -0.595917 -4.11 
3.17236 -0.589537 -4.066 
3.15561 -0.583303 -4.023 
3.10696 -0.571268 -3.94 
3.12341 -0.571268 -3.94 
3.0769 -0.559814 -3.861 
3.03134 -0.548649 -3.784 
3.01734 -0.543285 -3.747 
2.97471 -0.532845 -3.675 
2.93391 -0.522841 -3.606 
2.89418 -0.513126 -3.539 
2.88183 -0.508342 -3.506 
2.84442 -0.499207 -3.443 
2.83389 -0.494857 -3.413 
2.82227 -0.490363 -3.382 
2.83639 -0.490363 -3.382 
2.82607 -0.486158 -3.353 
2.8155 -0.481953 -3.324 
2.8047 -0.477748 -3.295 
2.79451 -0.473689 -3.267 
2.80815 -0.473689 -3.267 
2.82179 -0.473689 -3.267 
2.81113 -0.469629 -3.239 
2.8011 -0.465714 -3.212 
2.81452 -0.465714 -3.212 
2.82793 -0.465714 -3.212 
2.86522 -0.469629 -3.239 
2.90363 -0.473689 -3.267 
2.91727 -0.473689 -3.267 
2.95603 -0.477748 -3.295 
2.96979 -0.477748 -3.295 
3.00981 -0.481953 -3.324 
3.05007 -0.486158 -3.353 
3.06407 -0.486158 -3.353 
3.07807 -0.486158 -3.353 
3.09207 -0.486158 -3.353 
3.10607 -0.486158 -3.353 
3.12007 -0.486158 -3.353 
3.10696 -0.481953 -3.324 
3.12084 -0.481953 -3.324 
3.10737 -0.477748 -3.295 
3.0946 -0.473689 -3.267 
3.08161 -0.469629 -3.239 
3.06933 -0.465714 -3.212 
3.05683 -0.461799 -3.185 
-1.50311 -0.238519 -1.599 
-1.49082 -0.237623 -1.593 
-1.48417 -0.237623 -1.593 
-1.48308 -0.238519 -1.599 
-1.4764 -0.238519 -1.599 
-1.46973 -0.238519 -1.599 
-1.46305 -0.238519 -1.599 
-1.45637 -0.238519 -1.599 
-1.45604 -0.239563 -1.606 
-1.45566 -0.240607 -1.613 
-1.44892 -0.240607 -1.613 
-1.44844 -0.241651 -1.62 
-1.44702 -0.242546 -1.626 
-1.44643 -0.24359 -1.633 
-1.44578 -0.244634 -1.64 
-1.4521 -0.246872 -1.655 
-1.4513 -0.247916 -1.662 
-1.45044 -0.24896 -1.669 
-1.44953 -0.250004 -1.676 
-1.44942 -0.251198 -1.684 
-1.44838 -0.252242 -1.691 
-1.44814 -0.253435 -1.699 
-1.44698 -0.254479 -1.706 
-1.43986 -0.254479 -1.706 
-1.43274 -0.254479 -1.706 
-1.42561 -0.254479 -1.706 
-1.42514 -0.255673 -1.714 
-1.4246 -0.256866 -1.722 
-1.41741 -0.256866 -1.722 
-1.41022 -0.256866 -1.722 
-1.40874 -0.25791 -1.729 
-1.408 -0.259104 -1.737 
-1.40075 -0.259104 -1.737 
-1.39992 -0.260297 -1.745 
-1.39263 -0.260297 -1.745 
-1.39169 -0.26149 -1.753 
-1.39069 -0.262684 -1.761 
-1.38962 -0.263877 -1.769 
-1.38224 -0.263877 -1.769 
-1.38185 -0.265219 -1.778 
-1.38061 -0.266413 -1.786 
-1.3793 -0.267606 -1.794 
-1.37181 -0.267606 -1.794 
-1.36432 -0.267606 -1.794 
-1.36364 -0.268949 -1.803 
-1.36212 -0.270142 -1.811 
-1.36129 -0.271484 -1.82 
-1.3537 -0.271484 -1.82 
-1.35275 -0.272827 -1.829 
-1.35173 -0.274169 -1.838 
-1.34991 -0.275363 -1.846 
-1.34875 -0.276705 -1.855 
-1.34751 -0.278048 -1.864 
-1.34691 -0.279539 -1.874 
-1.34552 -0.280882 -1.883 
-1.34405 -0.282225 -1.892 
-1.34321 -0.283716 -1.902 
-1.34861 -0.28655 -1.921 
-1.34687 -0.287893 -1.93 
-1.34575 -0.289385 -1.94 
-1.34454 -0.290876 -1.95 
-1.34325 -0.292368 -1.96 
-1.34188 -0.29386 -1.97 
-1.34043 -0.295351 -1.98 
-1.33956 -0.296992 -1.991 
-1.33125 -0.296992 -1.991 
-1.32958 -0.298484 -2.001 
-1.32849 -0.300125 -2.012 
-1.32665 -0.301616 -2.022 
-1.3182 -0.301616 -2.022 
-1.31689 -0.303257 -2.033 
-1.31548 -0.304898 -2.044 
-1.31398 -0.306539 -2.055 
-1.31238 -0.30818 -2.066 
-1.31827 -0.31161 -2.089 
-1.31645 -0.313251 -2.1 
-1.31515 -0.315041 -2.112 
-1.31313 -0.316682 -2.123 
-1.31164 -0.318472 -2.135 
-1.31005 -0.320262 -2.147 
-1.30109 -0.320262 -2.147 
-1.29934 -0.322052 -2.159 
-1.2981 -0.323991 -2.172 
-1.29615 -0.325781 -2.184 
-1.29469 -0.327721 -2.197 
-1.29254 -0.329511 -2.209 
-1.29087 -0.33145 -2.222 
-1.29659 -0.335328 -2.248 
-1.29522 -0.337416 -2.262 
-1.29316 -0.339356 -2.275 
-1.2989 -0.343383 -2.302 
-1.29713 -0.345471 -2.316 
-1.2958 -0.347709 -2.331 
-1.29379 -0.349797 -2.345 
-1.284 -0.349797 -2.345 
-1.28181 -0.351886 -2.359 
-1.27196 -0.351886 -2.359 
-1.26211 -0.351886 -2.359 
-1.26023 -0.354123 -2.374 
-1.25821 -0.356361 -2.389 
-1.24824 -0.356361 -2.389 
-1.24604 -0.358598 -2.404 
-1.24371 -0.360836 -2.419 
-1.23361 -0.360836 -2.419 
-1.22351 -0.360836 -2.419 
-1.22094 -0.363073 -2.434 
-1.21873 -0.36546 -2.45 
-1.2085 -0.36546 -2.45 
-1.2061 -0.367847 -2.466 
-1.21132 -0.37262 -2.498 
-1.20906 -0.375156 -2.515 
-1.20619 -0.377542 -2.531 
-1.21168 -0.382614 -2.565 
-1.20893 -0.38515 -2.582 
-1.2065 -0.387835 -2.6 
-1.20392 -0.39052 -2.618 
-1.2094 -0.39589 -2.654 
-1.2069 -0.398724 -2.673 
-1.20423 -0.401558 -2.692 
-1.19299 -0.401558 -2.692 
-1.1901 -0.404393 -2.711 
-1.18704 -0.407227 -2.73 
-1.18425 -0.41021 -2.75 
-1.18983 -0.416177 -2.79 
-1.17818 -0.416177 -2.79 
-1.17489 -0.41916 -2.81 
-1.17185 -0.422293 -2.831 
-1.16864 -0.425425 -2.852 
-1.16565 -0.428707 -2.874 
-1.16208 -0.431839 -2.895 
-1.15913 -0.43527 -2.918 
-1.15559 -0.438552 -2.94 
-1.15226 -0.441983 -2.963 
-1.13989 -0.441983 -2.963 
-1.13627 -0.445414 -2.986 
-1.1238 -0.445414 -2.986 
-1.11133 -0.445414 -2.986 
-1.09887 -0.445414 -2.986 
-1.09477 -0.448844 -3.009 
-1.0822 -0.448844 -3.009 
-1.06964 -0.448844 -3.009 
-1.06551 -0.452424 -3.033 
-1.05284 -0.452424 -3.033 
-1.04875 -0.456154 -3.058 
-1.03599 -0.456154 -3.058 
-1.02322 -0.456154 -3.058 
-1.01045 -0.456154 -3.058 
-0.989525 -0.452424 -3.033 
-0.969131 -0.448844 -3.009 
-0.941944 -0.441983 -2.963 
-0.908239 -0.431839 -2.895 
-0.882841 -0.425425 -2.852 
-0.845892 -0.413193 -2.77 
-0.810832 -0.401558 -2.692 
-0.777612 -0.39052 -2.618 
-0.75116 -0.382614 -2.565 
-0.726017 -0.375156 -2.515 
-0.701575 -0.367847 -2.466 
-0.682308 -0.363073 -2.434 
-0.663861 -0.358598 -2.404 
-0.649744 -0.356361 -2.389 
-0.635752 -0.354123 -2.374 
-0.621885 -0.351886 -2.359 
-0.612036 -0.351886 -2.359 
-0.602186 -0.351886 -2.359 
-0.592336 -0.351886 -2.359 
-0.582487 -0.351886 -2.359 
-0.572637 -0.351886 -2.359 
-0.562787 -0.351886 -2.359 
-0.552938 -0.351886 -2.359 
-0.539865 -0.349797 -2.345 
-0.530074 -0.349797 -2.345 
-0.520283 -0.349797 -2.345 
-0.507444 -0.347709 -2.331 
-0.497711 -0.347709 -2.331 
-0.487978 -0.347709 -2.331 
-0.478245 -0.347709 -2.331 
-0.465498 -0.345471 -2.316 
-0.455828 -0.345471 -2.316 
-0.44346 -0.343383 -2.302 
-0.433849 -0.343383 -2.302 
-0.424237 -0.343383 -2.302 
-0.414625 -0.343383 -2.302 
-0.405014 -0.343383 -2.302 
-0.395402 -0.343383 -2.302 
-0.38579 -0.343383 -2.302 
-0.378467 -0.345471 -2.316 
-0.368796 -0.345471 -2.316 
-0.359126 -0.345471 -2.316 
-0.349456 -0.345471 -2.316 
-0.339786 -0.345471 -2.316 
-0.332254 -0.347709 -2.331 
-0.322521 -0.347709 -2.331 
-0.314667 -0.349797 -2.345 
-0.304876 -0.349797 -2.345 
-0.295085 -0.349797 -2.345 
-0.286997 -0.351886 -2.359 
-0.278909 -0.354123 -2.374 
-0.268997 -0.354123 -2.374 
-0.260722 -0.356361 -2.389 
-0.252321 -0.358598 -2.404 
-0.242284 -0.358598 -2.404 
-0.23669 -0.36546 -2.45 
-0.229418 -0.370233 -2.482 
-0.22488 -0.380078 -2.548 
-0.2171 -0.38515 -2.582 
-0.212072 -0.39589 -2.654 
-0.205308 -0.404393 -2.711 
-0.19821 -0.413193 -2.77 
-0.18934 -0.41916 -2.81 
-0.180262 -0.425425 -2.852 
-0.169652 -0.428707 -2.874 
-0.156445 -0.425425 -2.852 
-0.144537 -0.425425 -2.852 
-0.132629 -0.425425 -2.852 
-0.119832 -0.422293 -2.831 
-0.108813 -0.425425 -2.852 
-0.0969047 -0.425425 -2.852 
-0.0843707 -0.422293 -2.831 
-0.0725502 -0.422293 -2.831 
-0.0611803 -0.425425 -2.852 
-0.0492722 -0.425425 -2.852 
-0.0373641 -0.425425 -2.852 
-0.0254559 -0.425425 -2.852 
-0.0136523 -0.428707 -2.874 
-0.00165234 -0.428707 -2.874 
0.0104232 -0.431839 -2.895 
0.0225109 -0.431839 -2.895 
0.0345986 -0.431839 -2.895 
0.0470571 -0.43527 -2.918 
0.0592408 -0.43527 -2.918 
0.071963 -0.438552 -2.94 
0.0842386 -0.438552 -2.94 
0.0972692 -0.441983 -2.963 
0.109641 -0.441983 -2.963 
0.122959 -0.445414 -2.986 
0.135427 -0.445414 -2.986 
0.147895 -0.445414 -2.986 
0.161598 -0.448844 -3.009 
0.17555 -0.452424 -3.033 
0.188214 -0.452424 -3.033 
0.200878 -0.452424 -3.033 
0.213542 -0.452424 -3.033 
0.226206 -0.452424 -3.033 
0.23887 -0.452424 -3.033 
0.251533 -0.452424 -3.033 
0.264197 -0.452424 -3.033 
0.276861 -0.452424 -3.033 
0.287234 -0.448844 -3.009 
0.299798 -0.448844 -3.009 
0.312361 -0.448844 -3.009 
0.324925 -0.448844 -3.009 
0.337489 -0.448844 -3.009 
0.347377 -0.445414 -2.986 
0.359844 -0.445414 -2.986 
0.372312 -0.445414 -2.986 
0.387743 -0.448844 -3.009 
0.400307 -0.448844 -3.009 
0.412871 -0.448844 -3.009 
0.425434 -0.448844 -3.009 
0.441491 -0.452424 -3.033 
0.454155 -0.452424 -3.033 
0.470667 -0.456154 -3.058 
0.487229 -0.459734 -3.082 
0.500098 -0.459734 -3.082 
0.512966 -0.459734 -3.082 
0.5301 -0.463463 -3.107 
0.552162 -0.471219 -3.159 
0.574837 -0.479125 -3.212 
0.598321 -0.48733 -3.267 
0.622639 -0.495832 -3.324 
0.653561 -0.509108 -3.413 
0.686008 -0.522981 -3.506 
0.73442 -0.54819 -3.675 
0.803829 -0.587719 -3.94 
0.874411 -0.626503 -4.2 
0.977956 -0.686915 -4.605 
1.06106 -0.73092 -4.9 
1.15568 -0.78104 -5.236 
1.26413 -0.838469 -5.621 
1.38977 -0.904998 -6.067 
1.48577 -0.950196 -6.37 
1.5919 -1.00017 -6.705 
1.71002 -1.05581 -7.078 
1.80642 -1.09638 -7.35 
1.91059 -1.14023 -7.644 
2.02357 -1.18782 -7.963 
2.10047 -1.21303 -8.132 
2.18088 -1.23943 -8.309 
2.3161 -1.29567 -8.686 
2.46449 -1.35742 -9.1 
2.56354 -1.39054 -9.322 
2.60246 -1.39054 -9.322 
2.57848 -1.35742 -9.1 
2.49744 -1.29567 -8.686 
2.37211 -1.21303 -8.132 
2.26167 -1.14023 -7.644 
2.12376 -1.05581 -7.078 
2.00485 -0.983012 -6.59 
1.84177 -0.890827 -5.972 
1.73136 -0.826238 -5.539 
1.63603 -0.770449 -5.165 
1.61395 -0.750162 -5.029 
1.63494 -0.750162 -5.029 
1.678 -0.760157 -5.096 
1.76997 -0.79178 -5.308 
1.87013 -0.826238 -5.539 
2.04126 -0.890827 -5.972 
2.24126 -0.966306 -6.478 
2.52497 -1.07565 -7.211 
2.82153 -1.18782 -7.963 
2.97882 -1.23943 -8.309 
3.22351 -1.3258 -8.888 
3.41984 -1.39054 -9.322 
3.45876 -1.39054 -9.322 
3.58511 -1.42529 -9.555 
3.625 -1.42529 -9.555 
3.6649 -1.42529 -9.555 
3.70479 -1.42529 -9.555 
3.74469 -1.42529 -9.555 
3.88162 -1.46184 -9.8 
3.92254 -1.46184 -9.8 
3.96346 -1.46184 -9.8 
4.00438 -1.46184 -9.8 
4.0453 -1.46184 -9.8 
4.08622 -1.46184 -9.8 
4.12713 -1.46184 -9.8 
4.16805 -1.46184 -9.8 
4.20897 -1.46184 -9.8 
4.24989 -1.46184 -9.8 
4.29081 -1.46184 -9.8 
4.33173 -1.46184 -9.8 
4.37265 -1.46184 -9.8 
4.52976 -1.50032 -10.058 
4.57175 -1.50032 -10.058 
4.61375 -1.50032 -10.058 
4.78165 -1.5409 -10.33 
4.82478 -1.5409 -10.33 
4.86791 -1.5409 -10.33 
4.91105 -1.5409 -10.33 
4.95418 -1.5409 -10.33 
4.99731 -1.5409 -10.33 
5.04044 -1.5409 -10.33 
5.08357 -1.5409 -10.33 
5.1267 -1.5409 -10.33 
5.16984 -1.5409 -10.33 
5.21297 -1.5409 -10.33 
5.2561 -1.5409 -10.33 
5.15969 -1.50032 -10.058 
5.20169 -1.50032 -10.058 
5.24369 -1.50032 -10.058 
5.28568 -1.50032 -10.058 
5.19102 -1.46184 -9.8 
5.23193 -1.46184 -9.8 
5.27285 -1.46184 -9.8 
5.18093 -1.42529 -9.555 
5.22082 -1.42529 -9.555 
5.13243 -1.39054 -9.322 
5.17136 -1.39054 -9.322 
5.0862 -1.35742 -9.1 
4.89107 -1.29567 -8.686 
4.71348 -1.23943 -8.309 
4.55045 -1.18782 -7.963 
4.40007 -1.14023 -7.644 
4.26153 -1.09638 -7.35 
4.21104 -1.07565 -7.211 
4.08706 -1.03656 -6.949 
3.97155 -1.00017 -6.705 
3.99954 -1.00017 -6.705 
3.95846 -0.983012 -6.59 
3.98597 -0.983012 -6.59 
4.01349 -0.983012 -6.59 
4.04101 -0.983012 -6.59 
3.99937 -0.966306 -6.478 
4.02642 -0.966306 -6.478 
4.05347 -0.966306 -6.478 
4.08052 -0.966306 -6.478 
4.03909 -0.950196 -6.37 
4.13461 -0.966306 -6.478 
4.09228 -0.950196 -6.37 
4.11888 -0.950196 -6.37 
4.21576 -0.966306 -6.478 
4.24281 -0.966306 -6.478 
4.19867 -0.950196 -6.37 
4.2969 -0.966306 -6.478 
4.32395 -0.966306 -6.478 
4.27846 -0.950196 -6.37 
4.23477 -0.934682 -6.266 
4.12561 -0.904998 -6.067 
3.90327 -0.850999 -5.705 
3.70544 -0.802968 -5.383 
3.52916 -0.760157 -5.096 
3.32888 -0.712721 -4.778 
3.15188 -0.670805 -4.497 
2.99439 -0.633514 -4.247 
2.85326 -0.6001 -4.023 
2.7823 -0.581752 -3.9 
2.71535 -0.564449 -3.784 
2.70444 -0.55893 -3.747 
2.69395 -0.55356 -3.711 
2.73573 -0.55893 -3.747 
2.75138 -0.55893 -3.747 
2.76702 -0.55893 -3.747 
2.81014 -0.564449 -3.784 
2.85432 -0.570117 -3.822 
2.92886 -0.581752 -3.9 
2.97535 -0.587719 -3.94 
3.02293 -0.593835 -3.981 
3.03956 -0.593835 -3.981 
3.08842 -0.6001 -4.023 
3.13841 -0.606514 -4.066 
3.12202 -0.6001 -4.023 
3.13881 -0.6001 -4.023 
3.09051 -0.587719 -3.94 
3.04466 -0.575935 -3.861 
3.02986 -0.570117 -3.822 
3.01554 -0.564449 -3.784 
2.97286 -0.55356 -3.711 
2.93118 -0.542969 -3.64 
2.89134 -0.532826 -3.572 
2.8794 -0.527903 -3.539 
2.86719 -0.522981 -3.506 
2.83004 -0.513583 -3.443 
2.84442 -0.513583 -3.443 
2.80815 -0.504484 -3.382 
2.82227 -0.504484 -3.382 
2.81207 -0.500158 -3.353 
2.80162 -0.495832 -3.324 
2.79094 -0.491506 -3.295 
2.78086 -0.48733 -3.267 
2.77055 -0.483153 -3.239 
2.76087 -0.479125 -3.212 
2.77428 -0.479125 -3.212 
2.78769 -0.479125 -3.212 
2.8011 -0.479125 -3.212 
2.79086 -0.475098 -3.185 
2.80416 -0.475098 -3.185 
2.86522 -0.483153 -3.239 
2.90363 -0.48733 -3.267 
2.91727 -0.48733 -3.267 
2.98205 -0.495832 -3.324 
2.99593 -0.495832 -3.324 
3.03607 -0.500158 -3.353 
3.07645 -0.504484 -3.382 
3.09057 -0.504484 -3.382 
3.10469 -0.504484 -3.382 
3.11881 -0.504484 -3.382 
3.13293 -0.504484 -3.382 
3.14705 -0.504484 -3.382 
3.16117 -0.504484 -3.382 
3.17529 -0.504484 -3.382 
3.13472 -0.495832 -3.324 
3.1486 -0.495832 -3.324 
3.13488 -0.491506 -3.295 
3.12189 -0.48733 -3.267 
3.13553 -0.48733 -3.267 
3.17616 -0.491506 -3.295 
3.18992 -0.491506 -3.295 
3.23187 -0.495832 -3.324 
3.30238 -0.504484 -3.382 
3.74232 -0.564449 -3.784 
4.08189 -0.613078 -4.11 
4.18881 -0.626503 -4.2 
-1.50969 -0.246268 -1.606 
-1.49643 -0.245195 -1.599 
-1.48976 -0.245195 -1.599 
-1.48308 -0.245195 -1.599 
-1.48287 -0.246268 -1.606 
-1.47616 -0.246268 -1.606 
-1.46305 -0.245195 -1.599 
-1.45637 -0.245195 -1.599 
-1.45604 -0.246268 -1.606 
-1.45566 -0.247342 -1.613 
-1.45521 -0.248415 -1.62 
-1.44844 -0.248415 -1.62 
-1.44702 -0.249335 -1.626 
-1.44643 -0.250409 -1.633 
-1.44578 -0.251482 -1.64 
-1.4521 -0.253782 -1.655 
-1.4513 -0.254855 -1.662 
-1.45044 -0.255929 -1.669 
-1.44953 -0.257002 -1.676 
-1.44942 -0.258229 -1.684 
-1.44239 -0.258229 -1.684 
-1.44132 -0.259302 -1.691 
-1.44105 -0.260529 -1.699 
-1.43986 -0.261603 -1.706 
-1.43274 -0.261603 -1.706 
-1.42561 -0.261603 -1.706 
-1.42514 -0.262829 -1.714 
-1.4246 -0.264056 -1.722 
-1.41741 -0.264056 -1.722 
-1.41596 -0.265129 -1.729 
-1.40874 -0.265129 -1.729 
-1.408 -0.266356 -1.737 
-1.4072 -0.267583 -1.745 
-1.39992 -0.267583 -1.745 
-1.39901 -0.26881 -1.753 
-1.39805 -0.270036 -1.761 
-1.39069 -0.270036 -1.761 
-1.38962 -0.271263 -1.769 
-1.38224 -0.271263 -1.769 
-1.38185 -0.272643 -1.778 
-1.38061 -0.27387 -1.786 
-1.37315 -0.27387 -1.786 
-1.37181 -0.275097 -1.794 
-1.36432 -0.275097 -1.794 
-1.36364 -0.276477 -1.803 
-1.36212 -0.277704 -1.811 
-1.36129 -0.279084 -1.82 
-1.36039 -0.280464 -1.829 
-1.35941 -0.281844 -1.838 
-1.35762 -0.283071 -1.846 
-1.34991 -0.283071 -1.846 
-1.34875 -0.284451 -1.855 
-1.34751 -0.285831 -1.864 
-1.35338 -0.288744 -1.883 
-1.35195 -0.290124 -1.892 
-1.35115 -0.291658 -1.902 
-1.34957 -0.293038 -1.911 
-1.34861 -0.294571 -1.921 
-1.34687 -0.295951 -1.93 
-1.34575 -0.297485 -1.94 
-1.34454 -0.299018 -1.95 
-1.34325 -0.300552 -1.96 
-1.34188 -0.302085 -1.97 
-1.34043 -0.303618 -1.98 
-1.33956 -0.305305 -1.991 
-1.33125 -0.305305 -1.991 
