ply
format ascii 1.0
comment pointcloud saved from Realsense Viewer
element vertex 1878
property float32 x
property float32 y
property float32 z
end_header
-1.09369 2.27500 0.99999 
-1.05181 2.41900 1.06329 
-1.05824 2.53100 1.11252 
-1.07690 2.71100 1.19164 
-1.07393 2.98600 1.31252 
-1.06964 3.00900 1.32263 
-1.03599 3.05800 1.34417 
-1.00907 3.13300 1.37714 
-0.94805 3.38200 1.48659 
-0.01501 3.15900 1.38856 
0.04931 3.05800 1.34417 
0.06208 3.05800 1.34417 
0.07485 3.05800 1.34417 
0.08762 3.05800 1.34417 
0.46478 2.94000 1.29230 
0.52616 2.94000 1.29230 
0.70065 3.50600 1.54109 
0.81195 3.90000 1.71428 
1.21590 5.30800 2.33317 
1.49580 5.79100 2.54548 
1.54334 5.88000 2.58460 
1.61736 5.97200 2.62504 
1.64229 5.97200 2.62504 
2.09292 5.70500 2.50768 
2.24986 5.62100 2.47076 
2.46298 5.79100 2.54548 
1.74416 3.26700 1.43604 
2.14562 3.57200 1.57010 
2.22283 3.67500 1.61538 
2.45778 3.98100 1.74988 
3.01383 4.66100 2.04878 
3.08021 4.34300 1.90900 
3.05483 4.02300 1.76834 
2.98394 3.78400 1.66329 
2.94402 3.67500 1.61538 
2.90380 3.60600 1.58505 
2.86463 3.38200 1.48659 
2.89287 3.38200 1.48659 
2.89878 3.32400 1.46109 
2.87875 3.23900 1.42373 
2.63005 2.85200 1.25362 
2.60190 2.71100 1.19164 
2.63154 2.73000 1.19999 
-1.52111 1.64000 0.71403 
-1.50551 1.67600 0.72970 
-1.46348 1.68400 0.73318 
-1.45645 1.68400 0.73318 
-1.44132 1.69100 0.73623 
-1.43426 1.69100 0.73623 
-1.43230 1.71400 0.74625 
-1.42251 1.73700 0.75626 
-1.49650 2.01200 0.87599 
-1.43236 1.97000 0.85770 
-1.36465 1.92100 0.83637 
-1.33972 2.05500 0.89471 
-1.34444 2.08900 0.90951 
-1.27419 2.14700 0.93477 
-1.26328 2.15900 0.93999 
-1.17264 2.20900 0.96176 
-1.13978 2.23500 0.97308 
-1.11825 2.24800 0.97874 
-1.10633 2.26200 0.98484 
-1.07729 2.83100 1.23257 
-1.01485 3.03300 1.32052 
-0.99106 3.15900 1.37537 
-0.98592 3.18500 1.38669 
-0.10914 3.21200 1.39845 
0.10118 3.08200 1.34185 
0.41257 2.91800 1.27045 
0.49785 2.91800 1.27045 
1.05460 4.77800 2.08026 
1.31507 5.53900 2.41159 
1.64229 5.97200 2.60011 
1.66723 5.97200 2.60011 
1.84574 6.06700 2.64147 
2.07611 5.79100 2.52130 
2.06910 5.70500 2.48386 
2.14056 5.70500 2.48386 
2.28348 5.70500 2.48386 
2.33112 5.70500 2.48386 
2.35494 5.70500 2.48386 
2.43880 5.79100 2.52130 
2.46298 5.79100 2.52130 
2.48716 5.79100 2.52130 
2.43286 5.02900 2.18954 
2.32230 4.71900 2.05457 
2.00475 3.94000 1.71541 
1.74535 3.29500 1.43459 
1.75780 3.26700 1.42240 
1.78017 3.18500 1.38669 
1.79347 3.18500 1.38669 
2.42406 3.90000 1.69799 
2.94534 4.49700 1.95792 
3.04230 4.39300 1.91264 
3.06941 4.11000 1.78942 
3.04115 3.94000 1.71541 
3.02656 3.90000 1.69799 
3.01242 3.86100 1.68101 
2.93118 3.64000 1.58479 
2.87940 3.53900 1.54082 
2.85880 3.44300 1.49902 
2.83639 3.38200 1.47246 
2.85051 3.38200 1.47246 
2.86807 3.35300 1.45984 
2.88724 3.29500 1.43459 
2.73365 3.03300 1.32052 
2.59887 2.83100 1.23257 
2.58367 2.69200 1.17205 
-1.50619 1.66900 0.71968 
-1.49922 1.66900 0.71968 
-1.47752 1.67600 0.72270 
-1.44239 1.68400 0.72615 
-1.44132 1.69100 0.72917 
-1.43179 1.72200 0.74254 
-1.43039 1.72900 0.74556 
-1.42177 1.74500 0.75246 
-1.46426 1.99100 0.85853 
-1.41691 1.96000 0.84517 
-1.35663 1.92100 0.82835 
-1.33216 1.98000 0.85379 
-1.33509 2.02200 0.87190 
-1.33086 2.12300 0.91545 
-1.32056 2.13500 0.92063 
-1.21213 2.19700 0.94736 
-1.15844 2.23500 0.96375 
-1.15580 2.24800 0.96935 
-1.13702 2.24800 0.96935 
-1.13466 2.26200 0.97539 
-1.07305 2.73000 1.17720 
-1.06943 2.75000 1.18582 
-1.06930 2.81000 1.21169 
-1.04018 3.03300 1.30785 
-1.01939 3.00900 1.29750 
-0.99426 3.00900 1.29750 
-0.98952 3.03300 1.30785 
-0.96983 3.13300 1.35097 
-0.75288 3.21200 1.38504 
-0.73947 3.21200 1.38504 
-0.10914 3.21200 1.38504 
-0.09573 3.21200 1.38504 
-0.01501 3.15900 1.36218 
-0.00182 3.15900 1.36218 
0.41257 2.91800 1.25826 
0.59994 3.13300 1.35097 
0.63924 3.26700 1.40875 
1.31507 5.53900 2.38846 
2.01632 5.97200 2.57517 
2.07611 5.79100 2.49712 
2.11674 5.70500 2.46004 
2.23584 5.70500 2.46004 
2.52738 5.46000 2.35439 
2.51421 5.38300 2.32119 
2.12549 4.24700 1.83134 
1.78662 3.29500 1.42083 
1.80038 3.29500 1.42083 
1.82007 3.18500 1.37340 
1.85996 3.18500 1.37340 
2.11637 3.47500 1.49845 
2.24726 3.64000 1.56960 
2.91391 4.39300 1.89429 
3.05618 3.98100 1.71664 
3.04285 3.90000 1.68171 
2.93118 3.64000 1.56960 
2.88183 3.50600 1.51181 
2.85714 3.32400 1.43333 
2.87635 3.26700 1.40875 
2.70376 2.98600 1.28759 
2.57959 2.81000 1.21169 
2.52895 2.73000 1.17720 
2.52747 2.69200 1.16081 
-1.53480 1.64000 0.70033 
-1.51385 1.64700 0.70332 
-1.51429 1.65500 0.70674 
-1.51375 1.66200 0.70973 
-1.48452 1.67600 0.71571 
-1.47052 1.67600 0.71571 
-1.45645 1.68400 0.71912 
-1.44239 1.68400 0.71912 
-1.44132 1.69100 0.72211 
-1.43274 1.70600 0.72852 
-1.43179 1.72200 0.73535 
-1.42976 1.73700 0.74175 
-1.51238 2.02200 0.86346 
-1.50394 2.02200 0.86346 
-1.36299 1.93000 0.82417 
-1.33257 1.92100 0.82033 
-1.33216 1.98000 0.84552 
-1.33398 2.10000 0.89677 
-1.27599 2.13500 0.91171 
-1.25800 2.19700 0.93819 
-1.20953 2.20900 0.94331 
-1.18395 2.24800 0.95997 
-1.09705 2.30200 0.98303 
-1.07194 2.33100 0.99541 
-1.05872 2.38900 1.02018 
-1.05533 2.40400 1.02659 
-1.07598 2.54800 1.08808 
-1.07297 2.67300 1.14146 
-1.07337 2.85200 1.21790 
-0.97977 3.08200 1.31611 
-0.96178 3.10700 1.32679 
-0.72605 3.21200 1.37163 
-0.05596 3.23900 1.38316 
0.15789 2.94000 1.25547 
0.47349 2.91800 1.24608 
0.52616 2.94000 1.25547 
1.06784 4.83800 2.06598 
1.47162 5.79100 2.47294 
1.82407 6.16500 2.63265 
1.97852 6.16500 2.63265 
2.00426 6.16500 2.63265 
2.01632 5.97200 2.55024 
2.04126 5.97200 2.55024 
2.23584 5.70500 2.43622 
2.45173 5.88000 2.51095 
2.47628 5.88000 2.51095 
2.52538 5.88000 2.51095 
2.58388 5.79100 2.47294 
2.56932 5.70500 2.43622 
2.36066 4.83800 2.06598 
1.81622 3.32400 1.41945 
1.81414 3.29500 1.40707 
1.81236 3.26700 1.39511 
1.80867 3.21200 1.37163 
1.83336 3.18500 1.36010 
1.94559 3.23900 1.38316 
2.45663 3.90000 1.66543 
2.75859 4.29400 1.83368 
3.07899 4.39300 1.87595 
3.09925 4.29400 1.83368 
3.11908 4.20000 1.79353 
3.10373 4.11000 1.75510 
2.84814 3.41300 1.45746 
2.83639 3.38200 1.44422 
2.85051 3.38200 1.44422 
2.85407 3.35300 1.43184 
2.86807 3.35300 1.43184 
2.87635 3.26700 1.39511 
2.76495 3.08200 1.31611 
2.73365 3.03300 1.29519 
2.65437 2.91800 1.24608 
2.56123 2.79000 1.19142 
2.52895 2.73000 1.16580 
2.51395 2.65400 1.13334 
-1.48529 1.66900 0.70575 
-1.46352 1.67600 0.70871 
-1.45653 1.67600 0.70871 
-1.43761 1.72900 0.73112 
-1.42177 1.74500 0.73788 
-1.37104 1.93000 0.81611 
-1.31765 1.91100 0.80808 
-1.32145 1.94000 0.82034 
-1.31689 2.03300 0.85967 
-1.32256 2.05500 0.86897 
-1.31937 2.07700 0.87827 
-1.31515 2.11200 0.89307 
-1.28316 2.14700 0.90787 
-1.27419 2.14700 0.90787 
-1.27089 2.17200 0.91844 
-1.26717 2.19700 0.92902 
-1.25376 2.22200 0.93959 
-1.13865 2.28900 0.96792 
-1.08439 2.31600 0.97934 
-1.07472 2.31600 0.97934 
-1.05833 2.43400 1.02923 
-1.05811 2.63600 1.11465 
-0.97419 2.98600 1.26265 
-0.95149 3.15900 1.33580 
-0.71863 3.23900 1.36963 
-0.12152 3.18500 1.34680 
0.01156 3.21200 1.35822 
0.02477 3.18500 1.34680 
0.05094 3.15900 1.33580 
0.14789 2.98600 1.26265 
0.15789 2.94000 1.24320 
0.16756 2.89500 1.22417 
0.18889 2.85200 1.20599 
0.26636 2.91800 1.23390 
0.31261 2.89500 1.22417 
0.32470 2.89500 1.22417 
0.34888 2.89500 1.22417 
0.49785 2.91800 1.23390 
0.68206 3.41300 1.44321 
0.80383 3.86100 1.63265 
1.05460 4.77800 2.02041 
1.29194 5.53900 2.34220 
1.33454 5.62100 2.37688 
1.49424 5.88000 2.48640 
1.51879 5.88000 2.48640 
1.64309 6.06700 2.56547 
1.77259 6.16500 2.60691 
1.84981 6.16500 2.60691 
2.05574 6.16500 2.60691 
2.06619 5.97200 2.52530 
2.10029 5.79100 2.44876 
2.12447 5.79100 2.44876 
2.47628 5.88000 2.48640 
2.50083 5.88000 2.48640 
2.55970 5.79100 2.44876 
1.92219 3.74700 1.58444 
1.79360 3.41300 1.44321 
1.84165 3.29500 1.39331 
1.88435 3.15900 1.33580 
2.38356 3.78400 1.60009 
2.79445 4.29400 1.81575 
2.86261 4.34300 1.83647 
3.09835 4.34300 1.83647 
3.15303 4.29400 1.81575 
3.13625 4.24700 1.79587 
3.12089 4.11000 1.73794 
3.07280 3.98100 1.68339 
3.07405 3.94000 1.66606 
3.01554 3.78400 1.60009 
2.93391 3.60600 1.52482 
2.86239 3.41300 1.44321 
2.86807 3.35300 1.41784 
2.87102 3.32400 1.40558 
2.87635 3.26700 1.38147 
2.83075 3.18500 1.34680 
-1.52072 1.64700 0.68957 
-1.50697 1.64700 0.68957 
-1.47135 1.66900 0.69878 
-1.46438 1.66900 0.69878 
-1.44953 1.67600 0.70171 
-1.43274 1.70600 0.71427 
-1.42829 1.75300 0.73395 
-1.42097 1.75300 0.73395 
-1.32543 1.97000 0.82480 
-1.30976 2.02200 0.84657 
-1.29891 2.10000 0.87923 
-1.28316 2.14700 0.89891 
-1.22150 2.24800 0.94120 
-1.21022 2.26200 0.94706 
-1.17395 2.30200 0.96380 
-1.11953 2.28900 0.95836 
-1.07472 2.31600 0.96967 
-1.06195 2.46600 1.03247 
-1.06881 2.53100 1.05968 
-1.04711 2.63600 1.10364 
-1.04294 2.71100 1.13505 
-1.01292 2.91800 1.22171 
-0.98856 2.91800 1.22171 
-0.96669 2.96300 1.24055 
-0.74568 3.23900 1.35611 
-0.72485 3.26700 1.36783 
-0.14570 3.13300 1.31173 
-0.08372 3.26700 1.36783 
-0.07008 3.26700 1.36783 
0.14789 2.98600 1.25018 
0.19035 2.87400 1.20329 
0.25218 2.89500 1.21208 
0.30291 2.91800 1.22171 
0.37035 2.87400 1.20329 
0.49393 2.89500 1.21208 
0.52222 2.91800 1.22171 
0.58558 3.05800 1.28033 
0.79571 3.82200 1.60020 
1.42326 5.79100 2.42458 
1.51879 5.88000 2.46185 
1.85396 6.26600 2.62346 
1.88012 6.26600 2.62346 
1.95861 6.26600 2.62346 
2.06619 5.97200 2.50037 
2.31790 5.79100 2.42458 
2.37808 5.88000 2.46185 
2.57449 5.88000 2.46185 
2.50458 5.46000 2.28600 
1.87407 3.35300 1.40384 
1.89500 3.13300 1.31173 
2.48919 3.90000 1.63286 
2.75082 4.20000 1.75846 
2.91996 4.29400 1.79782 
3.09835 4.34300 1.81833 
3.13625 4.24700 1.77814 
3.08942 3.98100 1.66677 
2.85880 3.44300 1.44152 
2.86239 3.41300 1.42896 
2.86807 3.35300 1.40384 
2.87635 3.26700 1.36783 
2.83075 3.18500 1.33350 
2.56786 2.81000 1.17649 
-1.50697 1.64700 0.68269 
-1.50047 1.65500 0.68601 
-1.49294 1.66200 0.68891 
-1.46438 1.66900 0.69181 
-1.43986 1.70600 0.70715 
-1.43274 1.70600 0.70715 
-1.42906 1.74500 0.72331 
-1.51238 2.02200 0.83813 
-1.48810 2.01200 0.83399 
-1.41591 1.97000 0.81658 
-1.39339 1.95000 0.80829 
-1.38525 1.95000 0.80829 
-1.36195 1.94000 0.80414 
-1.34687 1.93000 0.80000 
-1.33881 1.93000 0.80000 
-1.33075 1.93000 0.80000 
-1.32269 1.93000 0.80000 
-1.32689 1.96000 0.81243 
-1.29891 2.10000 0.87046 
-1.27791 2.18400 0.90528 
-1.22798 2.20900 0.91564 
-1.22593 2.22200 0.92103 
-1.21010 2.31600 0.96000 
-1.17142 2.31600 0.96000 
-1.07472 2.31600 0.96000 
-1.05207 2.37400 0.98404 
-1.02832 2.67300 1.10797 
-1.02912 2.89500 1.19999 
-0.96419 2.91800 1.20953 
-0.96913 3.00900 1.24725 
-0.95149 3.15900 1.30942 
-0.76577 3.26700 1.35419 
-0.75213 3.26700 1.35419 
-0.65346 3.18500 1.32020 
-0.64016 3.18500 1.32020 
-0.25754 2.91800 1.20953 
-0.20120 2.98600 1.23771 
-0.19170 3.03300 1.25720 
-0.14570 3.13300 1.29865 
0.06521 3.21200 1.33139 
0.11593 3.13300 1.29865 
0.13756 3.03300 1.25720 
0.16756 2.89500 1.19999 
0.25218 2.89500 1.19999 
0.35835 2.87400 1.19129 
0.45767 2.89500 1.19999 
0.95128 4.39300 1.82092 
1.72111 6.16500 2.55543 
1.88012 6.26600 2.59729 
1.93244 6.26600 2.59729 
2.03000 6.16500 2.55543 
2.08346 5.88000 2.43730 
2.10801 5.88000 2.43730 
2.37808 5.88000 2.43730 
2.57449 5.88000 2.43730 
2.55970 5.79100 2.40040 
2.46926 5.38300 2.23129 
2.38069 4.96400 2.05761 
2.05188 4.06600 1.68538 
1.87997 3.60600 1.49471 
1.91000 3.44300 1.42714 
1.85328 3.26700 1.35419 
1.81651 3.13300 1.29865 
1.82959 3.13300 1.29865 
1.81268 3.08200 1.27751 
1.80919 3.03300 1.25720 
2.41516 3.78400 1.56849 
2.90573 4.24700 1.76041 
2.97374 4.29400 1.77989 
3.02581 4.34300 1.80020 
3.04546 4.29400 1.77989 
3.13510 4.29400 1.77989 
3.13625 4.24700 1.76041 
3.13662 4.20000 1.74093 
3.12143 4.06600 1.68538 
3.09051 3.94000 1.63315 
2.97471 3.67500 1.52331 
2.87317 3.44300 1.42714 
2.89607 3.35300 1.38984 
2.88490 3.32400 1.37782 
-1.53480 1.64000 0.67294 
-1.47135 1.66900 0.68484 
-1.45741 1.66900 0.68484 
-1.43701 1.73700 0.71274 
-1.41591 1.97000 0.80835 
-1.32689 1.96000 0.80425 
-1.30451 2.00100 0.82107 
-1.29335 2.07700 0.85226 
-1.26487 2.20900 0.90642 
-1.22593 2.22200 0.91175 
-1.22150 2.24800 0.92242 
-1.22525 2.34500 0.96222 
-1.19588 2.34500 0.96222 
-1.07194 2.33100 0.95648 
-1.05103 2.56500 1.05250 
-1.03644 2.58200 1.05947 
-0.96669 2.96300 1.21581 
-0.68582 3.21200 1.31798 
-0.67806 3.23900 1.32906 
-0.22613 2.98600 1.22525 
-0.11005 3.23900 1.32906 
-0.04280 3.26700 1.34055 
-0.01552 3.26700 1.34055 
0.03839 3.21200 1.31798 
0.09203 3.21200 1.31798 
0.26636 2.91800 1.19734 
0.57620 3.00900 1.23468 
0.94045 4.34300 1.78207 
1.04157 4.71900 1.93635 
1.14606 5.09600 2.09104 
1.25072 5.46000 2.24041 
1.49424 5.88000 2.41274 
1.51879 5.88000 2.41274 
1.80163 6.26600 2.57113 
1.96452 6.37000 2.61381 
2.03710 6.26600 2.57113 
2.06326 6.26600 2.57113 
2.14865 5.79100 2.37622 
2.50083 5.88000 2.41274 
2.21305 4.49700 1.84526 
2.18021 4.39300 1.80258 
2.10197 4.20000 1.72339 
2.00475 3.94000 1.61670 
1.87174 3.32400 1.36394 
1.87251 3.03300 1.24453 
2.11207 3.35300 1.37584 
2.39154 3.74700 1.53751 
2.90573 4.24700 1.74267 
3.04546 4.29400 1.76196 
3.17169 4.20000 1.72339 
3.13841 4.06600 1.66840 
3.13881 4.02300 1.65076 
2.93608 3.57200 1.46570 
2.89647 3.50600 1.43862 
2.89988 3.47500 1.42590 
2.87664 3.41300 1.40046 
-1.42906 1.74500 0.70874 
-1.42829 1.75300 0.71199 
-1.46290 2.01200 0.81718 
-1.32389 1.98000 0.80419 
-1.30451 2.00100 0.81272 
-1.29616 2.00100 0.81272 
-1.29210 2.08900 0.84846 
-1.28490 2.13500 0.86714 
-1.28316 2.14700 0.87201 
-1.25800 2.19700 0.89232 
-1.25565 2.20900 0.89720 
-1.23504 2.34500 0.95243 
-1.16650 2.34500 0.95243 
-1.08439 2.31600 0.94066 
-1.05880 2.34500 0.95243 
-1.02961 2.56500 1.04179 
-1.02510 2.63600 1.07063 
-1.01383 2.85200 1.15835 
-0.96691 3.08200 1.25177 
-0.96983 3.13300 1.27248 
-0.20437 3.03300 1.23187 
-0.14691 3.15900 1.28304 
-0.12255 3.21200 1.30457 
-0.08444 3.29500 1.33828 
0.05223 3.23900 1.31554 
0.13647 3.00900 1.22212 
0.22635 2.87400 1.16729 
0.29292 2.94000 1.19410 
0.31261 2.89500 1.17582 
0.32470 2.89500 1.17582 
0.33435 2.87400 1.16729 
0.35835 2.87400 1.16729 
0.41835 2.87400 1.16729 
0.51811 2.89500 1.17582 
0.61302 3.13300 1.27248 
1.23308 5.38300 2.18633 
1.69537 6.16500 2.50395 
1.82779 6.26600 2.54497 
1.96452 6.37000 2.58721 
2.15712 5.88000 2.38819 
2.23077 5.88000 2.38819 
2.35353 5.88000 2.38819 
2.54993 5.88000 2.38819 
2.55970 5.79100 2.35205 
2.41239 5.16500 2.09779 
2.31144 4.77800 1.94061 
2.24697 4.60500 1.87035 
2.00068 3.90000 1.58401 
1.98857 3.78400 1.53689 
1.85328 3.26700 1.32691 
1.83549 3.21200 1.30457 
1.79981 3.08200 1.25177 
1.77826 2.94000 1.19410 
3.00960 4.29400 1.74403 
3.02753 4.29400 1.74403 
3.04546 4.29400 1.74403 
3.08132 4.29400 1.74403 
3.15303 4.29400 1.74403 
3.15539 4.06600 1.65143 
3.17236 4.06600 1.65143 
3.15561 4.02300 1.63396 
3.10798 3.90000 1.58401 
3.09302 3.86100 1.56817 
2.91111 3.50600 1.42398 
2.89287 3.38200 1.37362 
-1.54165 1.64000 0.65925 
-1.50056 1.64000 0.65925 
-1.48600 1.66200 0.66809 
-1.45824 1.66200 0.66809 
-1.45130 1.66200 0.66809 
-1.44953 1.67600 0.67372 
-1.44132 1.69100 0.67975 
-1.43898 1.72200 0.69221 
-1.50394 2.02200 0.81280 
-1.50363 2.03300 0.81722 
-1.39830 1.98000 0.79592 
-1.39003 1.98000 0.79592 
-1.33366 1.97000 0.79190 
-1.29616 2.00100 0.80436 
-1.28650 2.06600 0.83049 
-1.29210 2.08900 0.83974 
-1.27599 2.13500 0.85823 
-1.24144 2.18400 0.87792 
-1.23720 2.20900 0.88797 
-1.22798 2.20900 0.88797 
-1.22911 2.26200 0.90928 
-1.24483 2.34500 0.94264 
-1.10776 2.34500 0.94264 
-1.05181 2.41900 0.97239 
-1.06174 2.56500 1.03108 
-1.04032 2.56500 1.03108 
-0.97977 3.08200 1.23890 
-0.96983 3.13300 1.25940 
-0.95674 3.13300 1.25940 
-0.77273 3.23900 1.30201 
-0.75857 3.29500 1.32452 
-0.71120 3.26700 1.31327 
-0.60354 3.13300 1.25940 
-0.26151 2.96300 1.19107 
-0.23860 2.98600 1.20031 
0.10456 3.18500 1.28031 
0.11689 3.15900 1.26985 
0.17965 2.89500 1.16373 
0.21591 2.89500 1.16373 
0.29073 2.91800 1.17298 
0.30291 2.91800 1.17298 
0.35560 2.85200 1.14645 
0.43035 2.87400 1.15529 
1.46969 5.88000 2.36364 
1.54255 5.97200 2.40062 
1.64309 6.06700 2.43881 
1.77547 6.26600 2.51881 
1.80163 6.26600 2.51881 
1.93792 6.37000 2.56061 
2.05192 6.47800 2.60403 
2.11558 6.26600 2.51881 
2.12439 6.06700 2.43881 
2.14972 6.06700 2.43881 
2.21580 5.97200 2.40062 
2.20622 5.88000 2.36364 
2.47628 5.88000 2.36364 
2.52538 5.88000 2.36364 
2.50802 5.62100 2.25953 
2.44678 5.38300 2.16386 
2.43486 5.30800 2.13371 
2.07894 4.15400 1.66982 
1.96664 3.57200 1.43587 
1.87174 3.32400 1.33618 
1.72687 2.89500 1.16373 
3.13461 4.34300 1.74580 
3.20719 4.24700 1.70721 
3.15591 3.98100 1.60028 
2.94038 3.50600 1.40934 
2.90514 3.41300 1.37196 
2.91939 3.41300 1.37196 
-1.52795 1.64000 0.65240 
-1.52111 1.64000 0.65240 
-1.49322 1.64700 0.65518 
-1.47906 1.66200 0.66115 
-1.43395 1.69900 0.67587 
-1.42976 1.73700 0.69099 
-1.40633 1.75300 0.69735 
-1.50363 2.03300 0.80874 
-1.44655 2.00100 0.79601 
-1.42269 1.99100 0.79203 
-1.37349 1.98000 0.78765 
-1.36523 1.98000 0.78765 
-1.35696 1.98000 0.78765 
-1.29799 1.99100 0.79203 
-1.28468 2.07700 0.82624 
-1.25816 2.13500 0.84931 
-1.24730 2.14700 0.85409 
-1.23833 2.14700 0.85409 
-1.22798 2.20900 0.87875 
-1.22593 2.22200 0.88392 
-1.24123 2.30200 0.91575 
-1.26391 2.41900 0.96229 
-1.21341 2.41900 0.96229 
-1.16110 2.37400 0.94439 
-1.13407 2.35900 0.93842 
-1.05181 2.41900 0.96229 
-1.05506 2.45000 0.97462 
-1.05848 2.48200 0.98735 
-1.03281 2.60000 1.03429 
-1.00717 2.61800 1.04145 
-0.99625 2.77000 1.10192 
-0.98014 2.79000 1.10987 
-0.96913 3.00900 1.19699 
-0.95674 3.13300 1.24632 
-0.77273 3.23900 1.28849 
-0.71120 3.26700 1.29963 
-0.64016 3.18500 1.26701 
-0.56356 3.05800 1.21649 
-0.27175 2.94000 1.16955 
-0.17767 3.23900 1.28849 
-0.08593 3.35300 1.33384 
-0.05693 3.29500 1.31077 
0.08065 3.29500 1.31077 
0.18108 2.91800 1.16079 
0.19326 2.91800 1.16079 
0.29292 2.94000 1.16955 
0.44235 2.87400 1.14329 
0.45435 2.87400 1.14329 
0.47835 2.87400 1.14329 
0.56739 2.96300 1.17869 
0.64729 3.23900 1.28849 
0.82824 3.90000 1.55144 
1.11638 4.96400 1.97470 
1.44513 5.88000 2.33909 
1.74930 6.26600 2.49264 
1.93792 6.37000 2.53402 
1.99783 6.47800 2.57698 
2.05192 6.47800 2.57698 
2.15070 6.37000 2.53402 
2.14175 6.26600 2.49264 
2.29061 5.97200 2.37569 
2.39035 5.97200 2.37569 
2.51134 5.79100 2.30369 
2.25484 4.66100 1.85417 
2.02561 3.98100 1.58366 
2.07237 3.82200 1.52041 
2.00801 3.67500 1.46193 
1.85541 3.29500 1.31077 
1.82208 3.21200 1.27775 
2.81200 4.11000 1.63498 
3.06339 4.29400 1.70817 
3.15275 4.34300 1.72767 
3.15303 4.29400 1.70817 
3.22368 4.15400 1.65248 
3.22385 4.11000 1.63498 
3.20632 4.06600 1.61747 
3.22329 4.06600 1.61747 
3.09557 3.74700 1.49057 
2.96806 3.53900 1.40783 
2.94340 3.47500 1.38237 
-1.53480 1.64000 0.64555 
-1.49372 1.64000 0.64555 
-1.49322 1.64700 0.64831 
-1.48665 1.65500 0.65146 
-1.44953 1.67600 0.65972 
-1.42976 1.73700 0.68373 
-1.42177 1.74500 0.68688 
-1.49515 2.03300 0.80025 
-1.43819 2.00100 0.78765 
-1.38944 1.99100 0.78372 
-1.28650 2.06600 0.81324 
-1.27260 2.10000 0.82662 
-1.23141 2.13500 0.84040 
-1.22593 2.22200 0.87464 
-1.26611 2.40400 0.94628 
-1.19321 2.41900 0.95219 
-1.17578 2.40400 0.94628 
-1.05833 2.43400 0.95809 
-1.06530 2.49800 0.98329 
-0.97637 2.91800 1.14861 
-0.97475 3.10700 1.22301 
-0.96178 3.10700 1.22301 
-0.96468 3.15900 1.24347 
-0.74482 3.29500 1.29701 
-0.67241 3.21200 1.26434 
-0.56356 3.05800 1.20372 
-0.25300 3.00900 1.18443 
-0.22054 3.08200 1.21317 
-0.04317 3.29500 1.29701 
0.01186 3.29500 1.29701 
0.08207 3.35300 1.31984 
0.09524 3.32400 1.30842 
0.34635 2.87400 1.13129 
0.37035 2.87400 1.13129 
0.43035 2.87400 1.13129 
0.68999 3.38200 1.33125 
0.75074 3.60600 1.41943 
1.10198 4.90000 1.92878 
1.29194 5.53900 2.18031 
1.39908 5.79100 2.27951 
1.83153 6.37000 2.50742 
1.94373 6.47800 2.54993 
2.22023 6.26600 2.46648 
2.26167 6.16500 2.42672 
2.32705 6.06700 2.38815 
2.37771 6.06700 2.38815 
2.45371 6.06700 2.38815 
2.50437 6.06700 2.38815 
2.41269 5.30800 2.08938 
2.26319 4.71900 1.85754 
2.10775 4.24700 1.67174 
2.06378 4.02300 1.58357 
2.11990 3.94000 1.55090 
1.79202 3.15900 1.24347 
1.74587 3.03300 1.19388 
1.73128 2.98600 1.17538 
1.67544 2.77000 1.09035 
3.25837 4.15400 1.63514 
3.27533 4.11000 1.61782 
3.29250 4.11000 1.61782 
3.22211 3.94000 1.55090 
3.12614 3.78400 1.48949 
3.11121 3.74700 1.47493 
2.99574 3.57200 1.40604 
2.98284 3.53900 1.39305 
-1.51426 1.64000 0.63870 
-1.44132 1.69100 0.65857 
-1.43426 1.69100 0.65857 
-1.43395 1.69900 0.66168 
-1.43230 1.71400 0.66752 
-1.43179 1.72200 0.67064 
-1.42148 2.00100 0.77930 
-1.36886 2.02200 0.78748 
-1.32122 2.00100 0.77930 
-1.31287 2.00100 0.77930 
-1.30132 2.02200 0.78748 
-1.29682 2.05500 0.80033 
-1.29014 2.10000 0.81785 
-1.23336 2.12300 0.82681 
-1.22555 2.17200 0.84589 
-1.23048 2.19700 0.85563 
-1.23855 2.26200 0.88094 
-1.28847 2.46600 0.96039 
-1.29476 2.49800 0.97286 
-1.28257 2.51500 0.97948 
-1.24502 2.48200 0.96662 
-1.15281 2.41900 0.94209 
-1.06850 2.43400 0.94793 
-1.06881 2.53100 0.98571 
-1.02195 2.60000 1.01258 
-0.97811 2.85200 1.11072 
-0.96178 3.10700 1.21003 
-0.75857 3.29500 1.28325 
-0.71730 3.29500 1.28325 
-0.65346 3.18500 1.24041 
-0.61663 3.13300 1.22016 
-0.56356 3.05800 1.19095 
-0.49657 2.96300 1.15395 
-0.30094 2.98600 1.16291 
-0.25300 3.00900 1.17187 
-0.24236 3.03300 1.18121 
-0.22054 3.08200 1.20030 
-0.15872 3.41300 1.32921 
-0.08985 3.50600 1.36543 
-0.07454 3.47500 1.35335 
-0.00189 3.29500 1.28325 
0.16289 3.03300 1.18121 
0.28284 2.96300 1.15395 
0.41835 2.87400 1.11929 
0.43035 2.87400 1.11929 
0.52635 2.87400 1.11929 
0.81167 3.82200 1.48849 
1.08804 4.83800 1.88418 
1.35448 5.70500 2.22183 
1.54176 6.06700 2.36282 
1.88963 6.47800 2.52288 
1.94373 6.47800 2.52288 
1.97078 6.47800 2.52288 
2.25709 6.37000 2.48082 
2.35105 6.26600 2.44032 
2.44186 6.16500 2.40098 
2.52538 5.88000 2.28999 
2.33924 4.96400 1.93325 
2.22775 4.60500 1.79343 
2.05188 4.06600 1.58352 
2.13097 4.02300 1.56677 
2.05177 3.78400 1.47369 
1.98888 3.64000 1.41761 
1.76252 3.10700 1.21003 
1.70558 2.96300 1.15395 
1.64038 2.75000 1.07100 
1.63950 2.69200 1.04841 
2.84632 4.11000 1.60066 
3.22492 4.24700 1.65401 
3.27691 4.20000 1.63571 
3.18975 3.86100 1.50368 
-1.52111 1.64000 0.63186 
-1.50780 1.63300 0.62916 
-1.50098 1.63300 0.62916 
-1.47259 1.64700 0.63455 
-1.47283 1.65500 0.63764 
-1.44132 1.69100 0.65151 
-1.43426 1.69100 0.65151 
-1.43395 1.69900 0.65459 
-1.42251 1.73700 0.66923 
-1.31168 2.01200 0.77518 
-1.28869 2.11200 0.81371 
-1.23753 2.10000 0.80908 
-1.25107 2.51500 0.96897 
-1.12667 2.45000 0.94393 
-1.07920 2.48200 0.95626 
-1.07275 2.61800 1.00866 
-1.07642 2.65400 1.02253 
-1.00308 2.63600 1.01559 
-0.97215 3.05800 1.17818 
-0.69159 3.23900 1.24792 
-0.59854 3.10700 1.19706 
-0.26769 3.03300 1.16855 
-0.19120 3.23900 1.24792 
-0.12368 3.64000 1.40241 
0.06990 3.44300 1.32651 
0.15518 3.13300 1.20708 
0.19929 3.00900 1.15930 
0.27257 2.98600 1.15044 
0.28504 2.98600 1.15044 
0.32470 2.89500 1.11538 
0.40635 2.87400 1.10729 
0.55877 2.91800 1.12424 
0.63130 3.15900 1.21709 
1.07455 4.77800 1.84086 
1.69855 6.37000 2.45422 
1.83554 6.47800 2.49583 
1.91668 6.47800 2.49583 
1.97078 6.47800 2.49583 
2.15182 6.70500 2.58329 
2.26830 6.47800 2.49583 
2.36347 6.37000 2.45422 
2.39007 6.37000 2.45422 
2.50437 6.06700 2.33748 
2.37997 5.23600 2.01732 
2.31851 4.96400 1.91252 
2.27154 4.77800 1.84086 
2.20114 4.55000 1.75302 
2.08443 4.20000 1.61817 
1.95173 3.57200 1.37621 
1.86007 3.35300 1.29184 
2.79887 4.06600 1.56654 
2.99633 4.20000 1.61817 
3.17169 4.20000 1.61817 
3.25937 4.20000 1.61817 
3.29445 4.20000 1.61817 
3.36114 4.11000 1.58349 
-1.52795 1.64000 0.62501 
-1.47317 1.64000 0.62501 
-1.47259 1.64700 0.62768 
-1.45901 1.65500 0.63073 
-1.45210 1.65500 0.63073 
-1.44347 1.66900 0.63606 
-1.43426 1.69100 0.64444 
-1.42514 1.71400 0.65321 
-1.45329 2.02200 0.77059 
-1.42796 2.02200 0.77059 
-1.41026 2.03300 0.77478 
-1.40082 2.04400 0.77897 
-1.39229 2.04400 0.77897 
-1.38262 2.05500 0.78317 
-1.29751 2.11200 0.80489 
-1.24027 2.24800 0.85672 
-1.34020 2.56500 0.97753 
-1.30421 2.60000 0.99087 
-1.12788 2.49800 0.95200 
-1.11029 2.48200 0.94590 
-1.09355 2.51500 0.95847 
-1.09034 2.58200 0.98401 
-1.05065 2.67300 1.01869 
-0.99326 2.73000 1.04041 
-0.99001 2.85200 1.08691 
-0.98666 2.98600 1.13797 
-0.29543 3.05800 1.16541 
-0.28266 3.05800 1.16541 
-0.25712 3.05800 1.16541 
-0.13888 3.64000 1.38722 
-0.12487 3.67500 1.40055 
-0.00193 3.35300 1.27784 
0.02585 3.32400 1.26679 
0.04007 3.35300 1.27784 
0.08506 3.47500 1.32433 
0.12089 3.26700 1.24506 
0.18673 3.00900 1.14674 
0.34635 2.87400 1.09529 
0.40635 2.87400 1.09529 
0.51041 2.85200 1.08691 
1.61849 6.26600 2.38799 
1.67195 6.37000 2.42763 
2.12382 6.70500 2.55530 
2.26380 6.70500 2.55530 
2.30752 6.59000 2.51147 
2.52306 6.37000 2.42763 
2.24349 4.71900 1.79843 
2.14353 4.39300 1.67419 
2.11315 4.29400 1.63646 
2.05410 3.94000 1.50155 
1.72054 3.03300 1.15589 
1.67852 2.89500 1.10329 
1.61677 2.67300 1.01869 
2.96125 4.20000 1.60063 
2.97879 4.20000 1.60063 
3.06532 4.24700 1.61855 
3.08306 4.24700 1.61855 
3.13662 4.20000 1.60063 
3.20633 4.15400 1.58310 
3.29445 4.20000 1.60063 
3.39712 4.15400 1.58310 
-1.51491 1.62600 0.61288 
-1.48052 1.63300 0.61552 
-1.46571 1.64700 0.62080 
-1.45210 1.65500 0.62381 
-1.45130 1.66200 0.62645 
-1.43553 1.67600 0.63173 
-1.41741 1.72200 0.64907 
-1.41526 1.73700 0.65472 
-1.44484 2.02200 0.76215 
-1.42643 2.04400 0.77044 
-1.36546 2.05500 0.77459 
-1.35688 2.05500 0.77459 
-1.29751 2.11200 0.79607 
-1.25517 2.27500 0.85751 
-1.28181 2.35900 0.88917 
-1.36629 2.63600 0.99358 
-1.27164 2.60000 0.98001 
-1.10458 2.56500 0.96682 
-1.09113 2.63600 0.99358 
-1.05811 2.69200 1.01469 
-0.99001 2.85200 1.07500 
-0.98565 2.87400 1.08329 
-0.98666 2.98600 1.12551 
-0.95938 3.05800 1.15265 
-0.95404 3.08200 1.16169 
-0.90830 3.05800 1.15265 
-0.87000 3.05800 1.15265 
-0.79311 3.21200 1.21069 
-0.44146 3.00900 1.13418 
-0.35927 3.05800 1.15265 
-0.15264 3.60600 1.35920 
-0.13888 3.64000 1.37202 
0.02607 3.35300 1.26384 
0.04007 3.35300 1.26384 
0.07118 3.50600 1.32151 
0.08582 3.50600 1.32151 
0.20412 3.08200 1.16169 
0.25153 3.03300 1.14322 
0.30291 2.91800 1.09988 
0.34888 2.89500 1.09121 
0.44235 2.87400 1.08329 
0.53835 2.87400 1.08329 
0.62091 3.10700 1.17111 
0.71681 3.44300 1.29776 
0.86206 3.98100 1.50055 
0.95858 4.34300 1.63700 
1.29194 5.53900 2.08780 
1.67195 6.37000 2.40103 
1.69855 6.37000 2.40103 
1.78144 6.47800 2.44174 
1.88963 6.47800 2.44174 
2.31979 6.70500 2.52730 
2.41758 6.59000 2.48395 
2.49646 6.37000 2.40103 
2.56035 6.26600 2.36183 
2.36837 5.30800 2.00073 
2.34769 5.16500 1.94683 
2.33761 5.09600 1.92082 
2.25159 4.77800 1.80096 
2.08443 4.20000 1.58310 
2.07894 4.15400 1.56576 
2.05188 4.06600 1.53259 
1.84607 3.35300 1.26384 
1.69234 2.94000 1.10817 
1.62845 2.73000 1.02901 
1.60518 2.60000 0.98001 
2.75247 4.02300 1.51638 
2.97879 4.20000 1.58310 
3.01386 4.20000 1.58310 
3.03140 4.20000 1.58310 
3.04894 4.20000 1.58310 
3.15521 4.11000 1.54917 
3.22368 4.15400 1.56576 
3.41998 4.24700 1.60081 
-1.48052 1.63300 0.60870 
-1.45210 1.65500 0.61690 
-1.41849 1.70600 0.63592 
-1.40152 1.72900 0.64449 
-1.40075 1.73700 0.64747 
-1.40609 2.07700 0.77421 
-1.35406 2.07700 0.77421 
-1.26467 2.27500 0.84801 
-1.29166 2.35900 0.87932 
-1.38547 2.67300 0.99637 
-1.38408 2.69200 1.00345 
-1.32966 2.67300 0.99637 
-1.29805 2.65400 0.98928 
-1.28697 2.65400 0.98928 
-1.27589 2.65400 0.98928 
-1.16581 2.58200 0.96245 
-1.11648 2.61800 0.97587 
-1.00054 2.75000 1.02507 
-0.99890 2.81000 1.04743 
-0.97419 2.98600 1.11304 
-0.77970 3.21200 1.19728 
-0.75921 3.23900 1.20735 
-0.75213 3.26700 1.21778 
-0.52940 3.00900 1.12161 
-0.46302 2.98600 1.11304 
-0.23924 3.15900 1.17752 
-0.21643 3.21200 1.19728 
-0.16458 3.53900 1.31917 
-0.15264 3.60600 1.34415 
-0.06349 3.67500 1.36987 
-0.00198 3.44300 1.28339 
0.01229 3.41300 1.27220 
0.12300 3.32400 1.23903 
0.33435 2.87400 1.07129 
0.37305 2.89500 1.07912 
0.44558 2.89500 1.07912 
0.45435 2.87400 1.07129 
0.66081 3.23900 1.20735 
0.94777 4.29400 1.60060 
1.27352 5.46000 2.03523 
1.44281 5.97200 2.22608 
1.78144 6.47800 2.41469 
1.83976 6.59000 2.45644 
2.09583 6.70500 2.49931 
2.30432 6.82500 2.54404 
2.33281 6.82500 2.54404 
2.45977 6.70500 2.49931 
2.06160 4.15400 1.54841 
2.06886 4.06600 1.51561 
2.05885 3.98100 1.48393 
1.90103 3.50600 1.30687 
1.64038 2.75000 1.02507 
2.76927 4.02300 1.49958 
2.83282 4.06600 1.51561 
2.97879 4.20000 1.56556 
3.01386 4.20000 1.56556 
3.04894 4.20000 1.56556 
3.08492 4.15400 1.54841 
3.08657 4.11000 1.53201 
3.45783 4.29400 1.60060 
-1.50133 1.62600 0.59931 
-1.50098 1.63300 0.60189 
-1.48734 1.63300 0.60189 
-1.46571 1.64700 0.60705 
-1.42720 1.69100 0.62326 
-1.41976 1.69900 0.62621 
-1.41849 1.70600 0.62879 
-1.41596 1.72900 0.63727 
-1.41422 2.08900 0.76996 
-1.38659 2.10000 0.77401 
-1.37782 2.10000 0.77401 
-1.34160 2.11200 0.77843 
-1.33279 2.11200 0.77843 
-1.28654 2.12300 0.78249 
-1.27106 2.11200 0.77843 
-1.26224 2.11200 0.77843 
-1.23578 2.11200 0.77843 
-1.22697 2.11200 0.77843 
-1.25376 2.22200 0.81898 
-1.28291 2.69200 0.99221 
-1.22321 2.63600 0.97157 
-1.21220 2.63600 0.97157 
-1.16308 2.60000 0.95830 
-1.01606 2.73000 1.00622 
-0.99454 2.83100 1.04344 
-0.97906 2.96300 1.09209 
-0.97419 2.98600 1.10057 
-0.88277 3.05800 1.12711 
-0.83822 3.08200 1.13595 
-0.65346 3.18500 1.17392 
-0.50042 2.98600 1.10057 
-0.36503 3.10700 1.14517 
-0.30267 3.13300 1.15475 
-0.25243 3.15900 1.16434 
-0.17611 3.47500 1.28081 
-0.12609 3.71100 1.36779 
-0.03159 3.53900 1.30439 
0.01229 3.41300 1.25795 
0.07185 3.53900 1.30439 
0.08582 3.50600 1.29223 
0.09865 3.44300 1.26901 
0.16320 3.29500 1.21446 
0.18284 3.15900 1.16434 
0.19442 3.13300 1.15475 
0.24470 3.10700 1.14517 
0.31261 2.89500 1.06703 
0.32470 2.89500 1.06703 
0.33679 2.89500 1.06703 
0.36096 2.89500 1.06703 
0.55437 2.89500 1.06703 
0.71056 3.41300 1.25795 
0.77302 3.64000 1.34162 
1.29194 5.53900 2.04155 
1.37490 5.79100 2.13443 
1.46576 6.06700 2.23616 
1.67325 6.47800 2.38764 
1.89479 6.59000 2.42892 
2.00485 6.59000 2.42892 
2.15182 6.70500 2.47131 
2.43178 6.70500 2.47131 
2.48777 6.70500 2.47131 
2.47262 6.59000 2.42892 
2.53878 6.47800 2.38764 
2.56035 6.26600 2.30950 
2.43762 5.62100 2.07177 
2.09522 4.29400 1.58267 
2.07894 4.15400 1.53107 
2.06886 4.06600 1.49863 
2.00854 3.82200 1.40870 
1.84791 3.38200 1.24653 
1.78017 3.18500 1.17392 
1.70270 2.89500 1.06703 
2.76927 4.02300 1.48279 
2.81585 4.06600 1.49863 
2.83282 4.06600 1.49863 
2.96351 4.15400 1.53107 
3.05023 4.15400 1.53107 
3.13841 4.06600 1.49863 
-1.50932 1.62000 0.59033 
-1.46571 1.64700 0.60017 
-1.43651 1.66900 0.60819 
-1.39430 1.72900 0.63005 
-1.44178 2.06600 0.75285 
-1.38570 2.11200 0.76962 
-1.36632 2.12300 0.77362 
-1.35746 2.12300 0.77362 
-1.27768 2.12300 0.77362 
-1.25995 2.12300 0.77362 
-1.24883 2.19700 0.80059 
-1.30809 2.38900 0.87056 
-1.41390 2.75000 1.00210 
-1.38948 2.77000 1.00939 
-1.35648 2.75000 1.00210 
-1.34500 2.75000 1.00210 
-1.16818 2.63600 0.96056 
-1.15717 2.63600 0.96056 
-1.12218 2.71100 0.98789 
-1.07305 2.73000 0.99482 
-0.95657 3.00900 1.09648 
-0.94400 3.00900 1.09648 
-0.92107 3.05800 1.11434 
-0.83822 3.08200 1.12309 
-0.81285 3.13300 1.14167 
-0.77314 3.18500 1.16062 
-0.71264 3.21200 1.17046 
-0.59372 3.08200 1.12309 
-0.54197 3.00900 1.09648 
-0.51684 3.00900 1.09648 
-0.50042 2.98600 1.08810 
-0.47549 2.98600 1.08810 
-0.19622 3.32400 1.21127 
-0.13888 3.64000 1.32642 
-0.11060 3.71100 1.35229 
-0.01665 3.50600 1.27759 
0.09957 3.47500 1.26630 
0.12515 3.38200 1.23241 
0.16320 3.29500 1.20070 
0.32470 2.89500 1.05494 
0.45087 2.85200 1.03927 
1.04823 4.66100 1.69848 
1.39603 5.88000 2.14268 
1.61915 6.47800 2.36059 
1.64620 6.47800 2.36059 
1.78473 6.59000 2.40141 
1.92230 6.59000 2.40141 
1.97733 6.59000 2.40141 
2.06783 6.70500 2.44331 
2.12382 6.70500 2.44331 
2.34779 6.70500 2.44331 
2.47262 6.59000 2.40141 
2.45764 6.47800 2.36059 
2.54965 6.37000 2.32124 
2.57625 6.37000 2.32124 
2.42518 5.53900 2.01842 
2.30687 5.02900 1.83258 
2.13795 4.49700 1.63871 
1.96198 3.67500 1.33918 
1.92190 3.57200 1.30164 
1.74749 3.05800 1.11434 
1.76026 3.05800 1.11434 
2.83282 4.06600 1.48166 
2.94617 4.15400 1.51372 
2.96351 4.15400 1.51372 
3.03289 4.15400 1.51372 
3.05023 4.15400 1.51372 
3.03655 4.06600 1.48166 
3.05352 4.06600 1.48166 
3.13881 4.02300 1.46599 
2.88306 2.94000 1.07134 
-1.50812 1.62600 0.58573 
-1.50133 1.62600 0.58573 
-1.43651 1.66900 0.60122 
-1.43553 1.67600 0.60374 
-1.41976 1.69900 0.61202 
-1.40152 1.72900 0.62283 
-1.45674 2.10000 0.75647 
-1.41064 2.12300 0.76476 
-1.40079 2.13500 0.76908 
-1.35621 2.13500 0.76908 
-1.39951 2.79000 1.00503 
-1.31056 2.75000 0.99062 
-1.16507 2.65400 0.95604 
-1.12684 2.75000 0.99062 
-1.01938 2.77000 0.99783 
-1.00344 2.79000 1.00503 
-1.00192 2.85200 1.02737 
-0.99285 2.89500 1.04286 
-0.92621 3.03300 1.09257 
-0.88821 3.03300 1.09257 
-0.83822 3.08200 1.11022 
-0.81285 3.13300 1.12859 
-0.55895 3.03300 1.09257 
-0.50428 3.00900 1.08392 
-0.41034 3.05800 1.10157 
-0.38783 3.08200 1.11022 
-0.24529 3.23900 1.16677 
-0.20649 3.26700 1.17686 
-0.13758 3.60600 1.29898 
0.11204 3.41300 1.22945 
0.16464 3.32400 1.19739 
0.17545 3.26700 1.17686 
0.18435 3.18500 1.14732 
0.32470 2.89500 1.04286 
0.40027 2.83100 1.01980 
0.52635 2.87400 1.03529 
0.54228 2.89500 1.04286 
0.93739 4.24700 1.52988 
1.03564 4.60500 1.65884 
1.61915 6.47800 2.33355 
1.92230 6.59000 2.37389 
2.00485 6.59000 2.37389 
2.29180 6.70500 2.41532 
2.52306 6.37000 2.29464 
2.51908 6.16500 2.22080 
2.47628 5.88000 2.11813 
2.32613 5.16500 1.86057 
2.27706 4.96400 1.78816 
2.13704 4.20000 1.51295 
1.78847 3.10700 1.11922 
1.78694 3.08200 1.11022 
1.75506 2.96300 1.06735 
2.94928 4.11000 1.48053 
3.00443 4.02300 1.44919 
3.07280 3.98100 1.43406 
3.08942 3.98100 1.43406 
3.17241 4.02300 1.44919 
2.79078 2.81000 1.01224 
-1.48002 1.64000 0.58392 
-1.45044 1.66900 0.59425 
-1.42720 1.69100 0.60208 
-1.41022 1.72200 0.61312 
-1.39584 1.72200 0.61312 
-1.38708 1.72900 0.61561 
-1.45496 2.12300 0.75590 
-1.42753 2.13500 0.76017 
-1.40752 2.15900 0.76871 
-1.39850 2.15900 0.76871 
-1.25056 2.18400 0.77761 
-1.34865 2.48200 0.88372 
-1.38304 2.56500 0.91327 
-1.40886 2.65400 0.94496 
-1.42418 2.77000 0.98626 
-1.32009 2.77000 0.98626 
-1.17051 2.69200 0.95849 
-1.15614 2.71100 0.96525 
-1.13832 2.75000 0.97914 
-1.11190 2.77000 0.98626 
-1.02350 2.75000 0.97914 
-1.01938 2.77000 0.98626 
-0.94400 3.00900 1.07136 
-0.91354 3.03300 1.07990 
-0.89375 3.00900 1.07136 
-0.86289 3.03300 1.07990 
-0.81907 3.10700 1.10625 
-0.79977 3.13300 1.11551 
-0.60659 3.08200 1.09735 
-0.50428 3.00900 1.07136 
-0.38783 3.08200 1.09735 
-0.06230 3.60600 1.28392 
0.02630 3.38200 1.20416 
0.04042 3.38200 1.20416 
0.30759 2.96300 1.05498 
0.43896 2.85200 1.01546 
0.49035 2.87400 1.02329 
0.53019 2.89500 1.03077 
0.93739 4.24700 1.51215 
1.03564 4.60500 1.63961 
1.56556 6.37000 2.26804 
1.78473 6.59000 2.34638 
1.81224 6.59000 2.34638 
2.20781 6.70500 2.38732 
2.23581 6.70500 2.38732 
2.31979 6.70500 2.38732 
2.46986 6.37000 2.26804 
2.45570 6.26600 2.23102 
2.53419 6.26600 2.23102 
2.34620 5.30800 1.88992 
2.11917 4.49700 1.60116 
2.10775 4.24700 1.51215 
2.14901 4.29400 1.52888 
2.06581 3.90000 1.38860 
2.02017 3.78400 1.34730 
1.93682 3.57200 1.27181 
1.86007 3.35300 1.19384 
1.83740 3.23900 1.15325 
2.94928 4.11000 1.46337 
2.98360 4.11000 1.46337 
3.01792 4.11000 1.46337 
3.01957 4.06600 1.44770 
3.00825 3.94000 1.40284 
3.09051 3.94000 1.40284 
3.07013 3.18500 1.13402 
2.86311 2.89500 1.03077 
-1.50133 1.62600 0.57215 
-1.48052 1.63300 0.57461 
-1.47946 1.64700 0.57954 
-1.47974 1.65500 0.58235 
-1.47283 1.65500 0.58235 
-1.44253 1.67600 0.58974 
-1.43535 1.68400 0.59256 
-1.41308 1.69100 0.59502 
-1.41267 1.69900 0.59784 
-1.42506 2.17200 0.76427 
-1.37972 2.17200 0.76427 
-1.27089 2.17200 0.76427 
-1.26182 2.17200 0.76427 
-1.28201 2.28900 0.80544 
-1.37387 2.54800 0.89658 
-1.41501 2.73000 0.96062 
-1.35292 2.79000 0.98173 
-1.34127 2.79000 0.98173 
-1.28759 2.75000 0.96766 
-1.20423 2.69200 0.94725 
-1.19299 2.69200 0.94725 
-1.11190 2.77000 0.97470 
-1.08877 2.77000 0.97470 
-0.82535 3.08200 1.08448 
-0.79313 3.10700 1.09328 
-0.77360 3.13300 1.10243 
-0.55895 3.03300 1.06724 
-0.53363 3.03300 1.06724 
-0.47031 3.03300 1.06724 
-0.31030 3.21200 1.13022 
-0.18075 3.29500 1.15943 
-0.16993 3.35300 1.17984 
-0.15872 3.41300 1.20095 
-0.04593 3.50600 1.23368 
-0.03073 3.44300 1.21151 
-0.01621 3.41300 1.20095 
0.06990 3.44300 1.21151 
0.08506 3.47500 1.22277 
0.15207 3.35300 1.17984 
0.18747 3.23900 1.13973 
0.21094 3.18500 1.12072 
0.22241 3.15900 1.11158 
0.26637 3.05800 1.07604 
0.31510 2.91800 1.02677 
0.37383 2.81000 0.98877 
1.67466 6.59000 2.31886 
1.83976 6.59000 2.31886 
1.94373 6.47800 2.27945 
2.34945 6.47800 2.27945 
2.36347 6.37000 2.24145 
2.48186 6.26600 2.20485 
2.46760 6.16500 2.16931 
2.49009 5.97200 2.10140 
2.43880 5.79100 2.03771 
2.42640 5.70500 2.00745 
2.41415 5.62100 1.97789 
2.40206 5.53900 1.94904 
2.25633 4.96400 1.74671 
2.09419 4.44400 1.56374 
2.13108 4.29400 1.51095 
2.23524 4.39300 1.54579 
2.00801 3.67500 1.29314 
1.93007 3.35300 1.17984 
2.88375 4.06600 1.43073 
2.98360 4.11000 1.44621 
3.00259 4.06600 1.43073 
2.98969 3.98100 1.40082 
3.01242 3.86100 1.35859 
3.07541 3.90000 1.37232 
3.09170 3.90000 1.37232 
3.04251 3.21200 1.13022 
3.04616 3.13300 1.10243 
2.92817 2.98600 1.05070 
-1.50133 1.62600 0.56536 
-1.48775 1.62600 0.56536 
-1.47906 1.66200 0.57788 
-1.47212 1.66200 0.57788 
-1.45653 1.67600 0.58275 
-1.44942 1.68400 0.58553 
-1.42014 1.69100 0.58796 
-1.41308 1.69100 0.58796 
-1.40367 1.71400 0.59596 
-1.49761 2.17200 0.75520 
-1.37972 2.17200 0.75520 
-1.37065 2.17200 0.75520 
-1.27089 2.17200 0.75520 
-1.25275 2.17200 0.75520 
-1.26304 2.22200 0.77259 
-1.38975 2.61800 0.91028 
-1.36457 2.79000 0.97008 
-1.23537 2.71100 0.94262 
-1.18175 2.69200 0.93601 
-1.03094 2.77000 0.96313 
-1.01938 2.77000 0.96313 
-0.98565 2.87400 0.99929 
-0.97637 2.91800 1.01459 
-0.76052 3.13300 1.08934 
-0.70820 3.13300 1.08934 
-0.65043 3.10700 1.08030 
-0.55895 3.03300 1.05457 
-0.41692 3.10700 1.08030 
-0.37800 3.10700 1.08030 
-0.17921 3.26700 1.13594 
-0.11913 3.50600 1.21904 
-0.06057 3.50600 1.21904 
0.04042 3.38200 1.17592 
0.05504 3.41300 1.18670 
0.25560 3.08200 1.07161 
0.29980 3.00900 1.04623 
0.31747 2.94000 1.02224 
0.32470 2.89500 1.00659 
0.33679 2.89500 1.00659 
0.38556 2.81000 0.97704 
0.45435 2.87400 0.99929 
0.46635 2.87400 0.99929 
0.49035 2.87400 0.99929 
0.50602 2.89500 1.00659 
1.03564 4.60500 1.60116 
1.39603 5.88000 2.04448 
1.75721 6.59000 2.29134 
1.81224 6.59000 2.29134 
1.86727 6.59000 2.29134 
1.93792 6.37000 2.21485 
2.07091 6.37000 2.21485 
2.24126 6.47800 2.25240 
2.35688 5.38300 1.87167 
2.30456 5.16500 1.79587 
2.26488 5.02900 1.74858 
2.26938 4.49700 1.56361 
2.33412 4.55000 1.58204 
2.31686 4.44400 1.54518 
2.30861 4.39300 1.52745 
2.01814 3.50600 1.21904 
1.98607 3.35300 1.16584 
2.88375 4.06600 1.41375 
2.98764 4.02300 1.39880 
2.96143 3.90000 1.35603 
3.01568 3.21200 1.11681 
3.05825 3.15900 1.09839 
3.04616 3.13300 1.08934 
3.00945 3.08200 1.07161 
-1.52285 1.62000 0.55651 
-1.51609 1.62000 0.55651 
-1.50932 1.62000 0.55651 
-1.50812 1.62600 0.55857 
-1.48052 1.63300 0.56098 
-1.42832 1.68400 0.57850 
-1.39646 2.18400 0.75026 
-1.38734 2.18400 0.75026 
-1.36158 2.17200 0.74614 
-1.35251 2.17200 0.74614 
-1.29810 2.17200 0.74614 
-1.25800 2.19700 0.75472 
-1.29580 2.33100 0.80076 
-1.33995 2.46600 0.84713 
-1.36635 2.77000 0.95156 
-1.34322 2.77000 0.95156 
-1.33165 2.77000 0.95156 
-1.26683 2.73000 0.93782 
-1.25543 2.73000 0.93782 
-1.15614 2.71100 0.93130 
-1.12347 2.77000 0.95156 
-1.01509 2.79000 0.95843 
-0.99890 2.81000 0.96530 
-0.58428 3.03300 1.04191 
-0.54197 3.00900 1.03367 
-0.43930 3.08200 1.05874 
-0.35205 3.10700 1.06733 
-0.33908 3.10700 1.06733 
-0.24954 3.29500 1.13191 
-0.22013 3.26700 1.12230 
-0.20472 3.23900 1.11268 
-0.19120 3.23900 1.11268 
-0.16699 3.29500 1.13191 
-0.11699 3.44300 1.18276 
-0.07454 3.47500 1.19375 
-0.04471 3.41300 1.17245 
-0.00193 3.35300 1.15184 
0.01207 3.35300 1.15184 
0.11102 3.38200 1.16180 
0.12515 3.38200 1.16180 
0.24470 3.10700 1.06733 
0.31747 2.94000 1.00996 
0.38556 2.81000 0.96530 
0.45435 2.87400 0.98729 
0.46635 2.87400 0.98729 
0.48184 2.89500 0.99450 
0.62091 3.10700 1.06733 
0.66653 3.26700 1.12230 
0.71681 3.44300 1.18276 
0.86206 3.98100 1.36757 
1.04823 4.66100 1.60117 
1.96452 6.37000 2.18825 
2.23049 6.37000 2.18825 
2.27256 6.26600 2.15253 
2.41612 6.16500 2.11783 
2.26488 5.02900 1.72759 
2.19174 4.77800 1.64136 
2.15753 4.66100 1.60117 
2.32388 4.60500 1.58193 
2.37252 4.44400 1.52662 
2.23863 4.06600 1.39677 
2.97307 3.98100 1.36757 
2.96143 3.90000 1.33975 
2.94793 3.86100 1.32635 
3.10865 3.23900 1.11268 
-1.44942 1.68400 0.57146 
-1.41267 1.69900 0.57655 
-1.40367 1.71400 0.58164 
-1.52239 2.23500 0.75845 
-1.38734 2.18400 0.74114 
-1.36910 2.18400 0.74114 
-1.30717 2.17200 0.73707 
-1.26487 2.20900 0.74962 
-1.27633 2.26200 0.76761 
-1.30151 2.35900 0.80053 
-1.37882 2.61800 0.88842 
-1.35648 2.75000 0.93321 
-1.18175 2.69200 0.91353 
-1.15284 2.73000 0.92642 
-1.13158 2.79000 0.94678 
-1.07333 2.79000 0.94678 
-1.06169 2.79000 0.94678 
-0.91888 3.00900 1.02110 
-0.89375 3.00900 1.02110 
-0.84952 2.98600 1.01330 
-0.77388 3.08200 1.04588 
-0.62740 3.05800 1.03773 
-0.50830 3.03300 1.02925 
-0.40069 3.08200 1.04588 
-0.32100 3.18500 1.08083 
-0.26105 3.26700 1.10866 
-0.20302 3.21200 1.08999 
-0.00189 3.29500 1.11816 
0.05360 3.32400 1.12800 
0.11102 3.38200 1.14768 
0.16464 3.32400 1.12800 
0.18909 3.26700 1.10866 
0.26637 3.05800 1.03773 
0.35299 2.83100 0.96070 
0.38556 2.81000 0.95357 
0.49393 2.89500 0.98242 
0.86206 3.98100 1.35095 
1.88473 6.37000 2.16166 
1.98477 6.26600 2.12636 
2.08942 6.26600 2.12636 
2.11558 6.26600 2.12636 
2.45570 6.26600 2.12636 
2.47904 6.06700 2.05883 
2.33268 4.66100 1.58171 
2.54247 4.83800 1.64177 
2.48837 4.66100 1.58171 
2.36416 4.29400 1.45717 
2.93181 3.86100 1.31023 
2.94793 3.86100 1.31023 
2.90783 3.74700 1.27154 
2.85502 3.08200 1.04588 
3.10865 3.23900 1.09915 
3.04616 3.13300 1.06318 
2.98601 3.05800 1.03773 
2.84234 2.87400 0.97529 
-1.48903 1.62000 0.54298 
-1.47283 1.65500 0.55471 
-1.47052 1.67600 0.56175 
-1.52186 2.24800 0.75347 
-1.49439 2.23500 0.74911 
-1.46640 2.23500 0.74911 
-1.42167 2.20900 0.74040 
-1.39560 2.19700 0.73638 
-1.28552 2.19700 0.73638 
-1.26717 2.19700 0.73638 
-1.35608 2.51500 0.84296 
-1.38547 2.67300 0.89592 
-1.38252 2.71100 0.90866 
-1.35802 2.73000 0.91503 
-1.19299 2.69200 0.90229 
-1.15614 2.71100 0.90866 
-1.06169 2.79000 0.93514 
-1.05004 2.79000 0.93514 
-0.97146 2.94000 0.98541 
-0.93144 3.00900 1.00854 
-0.84297 2.96300 0.99312 
-0.81211 2.98600 1.00083 
-0.68559 3.03300 1.01658 
-0.63494 3.03300 1.01658 
-0.55029 2.98600 1.00083 
-0.48695 3.05800 1.02496 
-0.47791 3.08200 1.03301 
-0.43930 3.08200 1.03301 
-0.34192 3.13300 1.05010 
-0.24741 3.26700 1.09501 
-0.17619 3.21200 1.07658 
-0.15193 3.26700 1.09501 
-0.01552 3.26700 1.09501 
0.02519 3.23900 1.08563 
0.06689 3.29500 1.10440 
0.10912 3.32400 1.11412 
0.18909 3.26700 1.09501 
0.29980 3.00900 1.00854 
0.38556 2.81000 0.94184 
0.45435 2.87400 0.96329 
0.49785 2.91800 0.97804 
0.55071 2.94000 0.98541 
0.59346 3.03300 1.01658 
1.16734 5.09600 1.70805 
1.82779 6.26600 2.10020 
1.88012 6.26600 2.10020 
1.90130 6.16500 2.06635 
2.16791 6.26600 2.10020 
2.36347 6.37000 2.13506 
2.52306 6.37000 2.13506 
2.41462 5.79100 1.94099 
2.25250 5.09600 1.70805 
2.16467 4.71900 1.58169 
2.15753 4.66100 1.56225 
2.13795 4.49700 1.50728 
2.26620 4.60500 1.54348 
2.44146 4.83800 1.62157 
2.62941 4.96400 1.66380 
2.61597 4.90000 1.64235 
2.45270 4.20000 1.40773 
2.87005 4.02300 1.34841 
2.93468 4.06600 1.36282 
2.92045 4.02300 1.34841 
2.91569 3.86100 1.29411 
2.85519 3.64000 1.22003 
2.78431 3.03300 1.01658 
2.92843 3.13300 1.05010 
3.06808 3.23900 1.08563 
3.08274 3.21200 1.07658 
3.07013 3.18500 1.06753 
2.96160 3.03300 1.01658 
2.79422 2.79000 0.93514 
2.79732 2.77000 0.92843 
-1.50812 1.62600 0.53820 
-1.49579 1.62000 0.53622 
-1.47212 1.66200 0.55012 
-1.46438 1.66900 0.55244 
-1.45653 1.67600 0.55475 
-1.45645 1.68400 0.55740 
-1.40303 1.72200 0.56998 
-1.39350 1.73700 0.57494 
-1.37899 1.73700 0.57494 
-1.49356 2.26200 0.74872 
-1.47493 2.24800 0.74408 
-1.45707 2.23500 0.73978 
-1.36633 2.20900 0.73118 
-1.32798 2.22200 0.73548 
-1.30358 2.34500 0.77619 
-1.37730 2.63600 0.87251 
-1.37562 2.65400 0.87847 
-1.03410 2.81000 0.93011 
-1.02237 2.81000 0.93011 
-0.99001 2.85200 0.94401 
-0.93144 3.00900 0.99598 
-0.91888 3.00900 0.99598 
-0.84297 2.96300 0.98075 
-0.83060 2.96300 0.98075 
-0.72358 3.03300 1.00392 
-0.69273 3.00900 0.99598 
-0.61263 2.98600 0.98836 
-0.54605 2.96300 0.98075 
-0.51684 3.00900 0.99598 
-0.47791 3.08200 1.02014 
-0.39424 3.13300 1.03702 
-0.33429 3.18500 1.05423 
-0.31291 3.23900 1.07211 
-0.19967 3.15900 1.04563 
-0.12465 3.26700 1.08137 
0.01147 3.18500 1.05423 
0.06633 3.26700 1.08137 
0.10817 3.29500 1.09064 
0.13688 3.32400 1.10024 
0.22986 3.08200 1.02014 
0.26637 3.05800 1.01219 
0.28133 3.08200 1.02014 
0.30219 3.03300 1.00392 
0.31236 3.00900 0.99598 
0.43349 2.89500 0.95824 
0.48184 2.89500 0.95824 
0.52616 2.94000 0.97314 
0.59346 3.03300 1.00392 
0.78810 3.71100 1.22834 
1.64620 6.47800 2.14421 
1.67325 6.47800 2.14421 
1.72735 6.47800 2.14421 
1.77834 6.37000 2.10846 
1.80163 6.26600 2.07404 
2.06326 6.26600 2.07404 
2.43059 6.47800 2.14421 
2.51908 6.16500 2.04061 
2.26143 5.16500 1.70961 
2.24697 4.60500 1.52425 
2.32230 4.71900 1.56198 
2.67118 5.16500 1.70961 
2.70583 5.02900 1.66459 
2.61909 4.55000 1.50604 
2.90073 4.06600 1.34584 
2.93468 4.06600 1.34584 
2.94245 3.94000 1.30414 
2.92886 3.90000 1.29090 
2.82126 3.67500 1.21642 
2.83661 3.67500 1.21642 
2.94151 3.13300 1.03702 
-1.51609 1.62000 0.52945 
-1.47370 1.63300 0.53370 
-1.46518 1.66200 0.54318 
-1.44239 1.68400 0.55037 
-1.43535 1.68400 0.55037 
-1.43426 1.69100 0.55266 
-1.41849 1.70600 0.55756 
-1.39430 1.72900 0.56508 
-1.37899 1.73700 0.56769 
-1.54006 2.28900 0.74810 
-1.50214 2.27500 0.74352 
-1.43840 2.23500 0.73045 
-1.40220 2.22200 0.72620 
-1.39292 2.22200 0.72620 
-1.28720 2.24800 0.73470 
-1.38020 2.60000 0.84974 
-1.14660 2.77000 0.90530 
-1.01063 2.81000 0.91837 
-0.97146 2.94000 0.96086 
-0.95657 3.00900 0.98341 
-0.94400 3.00900 0.98341 
-0.77471 2.98600 0.97589 
-0.75637 2.96300 0.96838 
-0.50428 3.00900 0.98341 
-0.49563 3.03300 0.99126 
-0.48695 3.05800 0.99943 
-0.47418 3.05800 0.99943 
-0.34759 3.18500 1.04093 
-0.28348 3.21200 1.04976 
-0.18494 3.13300 1.02394 
-0.16010 3.15900 1.03244 
-0.11005 3.23900 1.05858 
-0.00182 3.15900 1.03244 
0.01137 3.15900 1.03244 
0.05136 3.18500 1.04093 
0.06521 3.21200 1.04976 
0.07928 3.23900 1.05858 
0.21699 3.08200 1.00727 
0.32244 2.98600 0.97589 
0.36751 2.85200 0.93210 
0.37942 2.85200 0.93210 
0.39435 2.87400 0.93929 
0.45767 2.89500 0.94615 
0.52616 2.94000 0.96086 
0.55933 2.98600 0.97589 
0.59835 3.05800 0.99943 
1.27352 5.46000 1.78446 
1.46576 6.06700 1.98284 
1.67325 6.47800 2.11716 
1.82779 6.26600 2.04788 
2.15070 6.37000 2.08187 
2.26830 6.47800 2.11716 
2.57176 6.70500 2.19135 
2.54965 6.37000 2.08187 
2.51908 6.16500 2.01487 
2.35580 5.53900 1.81028 
2.17886 4.83800 1.58117 
2.15753 4.66100 1.52332 
2.35134 4.77800 1.56156 
2.43183 4.90000 1.60144 
2.48432 4.96400 1.62235 
2.85135 5.38300 1.75929 
2.87383 5.38300 1.75929 
2.83182 5.02900 1.64360 
2.80010 4.90000 1.60144 
2.84556 3.05800 0.99943 
2.98197 3.10700 1.01544 
2.93627 3.03300 0.99126 
-1.50953 1.61300 0.52043 
-1.50280 1.61300 0.52043 
-1.47418 1.62600 0.52463 
-1.46571 1.64700 0.53140 
-1.43535 1.68400 0.54334 
-1.39584 1.72200 0.55560 
-1.33935 2.28900 0.73854 
-1.32979 2.28900 0.73854 
-1.31068 2.28900 0.73854 
-1.31337 2.34500 0.75661 
-1.38142 2.58200 0.83308 
-1.38020 2.60000 0.83888 
-1.35036 2.69200 0.86857 
-1.33912 2.69200 0.86857 
