ply
format ascii 1.0
comment pointcloud saved from Realsense Viewer
element vertex 1857
property float32 x
property float32 y
property float32 z
end_header
0.726262 0.129027 -1.691 
0.730287 0.128493 -1.684 
0.737319 0.128493 -1.684 
0.74435 0.128493 -1.684 
0.751381 0.128493 -1.684 
0.758413 0.128493 -1.684 
0.761808 0.127882 -1.676 
0.768805 0.127882 -1.676 
0.775803 0.127882 -1.676 
0.782801 0.127882 -1.676 
0.7865 0.127348 -1.669 
0.793469 0.127348 -1.669 
0.797081 0.126814 -1.662 
0.80402 0.126814 -1.662 
0.81096 0.126814 -1.662 
0.821344 0.127348 -1.669 
0.824838 0.126814 -1.662 
0.828275 0.12628 -1.655 
0.831148 0.125669 -1.647 
0.838024 0.125669 -1.647 
0.849005 0.12628 -1.655 
0.859536 0.126814 -1.662 
0.866475 0.126814 -1.662 
0.869736 0.12628 -1.655 
0.876646 0.12628 -1.655 
0.887293 0.126814 -1.662 
0.897999 0.127348 -1.669 
0.913101 0.128493 -1.684 
0.920132 0.128493 -1.684 
0.927164 0.128493 -1.684 
0.938078 0.129027 -1.691 
0.94961 0.129637 -1.699 
0.956704 0.129637 -1.699 
0.967769 0.130171 -1.706 
0.979464 0.130782 -1.714 
0.98662 0.130782 -1.714 
0.993777 0.130782 -1.714 
1.00561 0.131392 -1.722 
1.0128 0.131392 -1.722 
1.01999 0.131392 -1.722 
1.02718 0.131392 -1.722 
1.03857 0.131926 -1.729 
1.04579 0.131926 -1.729 
1.04875 0.131392 -1.722 
1.05594 0.131392 -1.722 
1.06313 0.131392 -1.722 
1.07964 0.132537 -1.737 
1.10191 0.134368 -1.761 
1.12501 0.136275 -1.786 
1.15402 0.13887 -1.82 
1.18396 0.14154 -1.855 
1.21548 0.144363 -1.892 
1.24795 0.147263 -1.93 
1.30221 0.15268 -2.001 
1.35314 0.15764 -2.066 
1.39934 0.161989 -2.123 
1.4407 0.165728 -2.172 
1.45778 0.166644 -2.184 
1.47563 0.167636 -2.197 
1.48481 0.167636 -2.197 
1.49398 0.167636 -2.197 
1.50315 0.167636 -2.197 
1.51232 0.167636 -2.197 
1.5215 0.167636 -2.197 
1.53903 0.168551 -2.209 
1.54826 0.168551 -2.209 
1.55748 0.168551 -2.209 
1.5667 0.168551 -2.209 
1.57593 0.168551 -2.209 
1.58515 0.168551 -2.209 
1.59437 0.168551 -2.209 
1.6036 0.168551 -2.209 
1.61282 0.168551 -2.209 
1.62204 0.168551 -2.209 
1.63127 0.168551 -2.209 
1.64049 0.168551 -2.209 
1.64971 0.168551 -2.209 
1.65894 0.168551 -2.209 
1.6591 0.167636 -2.197 
1.66827 0.167636 -2.197 
1.66752 0.166644 -2.184 
1.67664 0.166644 -2.184 
1.67649 0.165728 -2.172 
1.68556 0.165728 -2.172 
1.68449 0.164736 -2.159 
1.68409 0.16382 -2.147 
1.68359 0.162905 -2.135 
1.68299 0.161989 -2.123 
1.69186 0.161989 -2.123 
1.69191 0.16115 -2.112 
1.69107 0.160234 -2.1 
1.68122 0.158479 -2.077 
1.68094 0.15764 -2.066 
1.68956 0.15764 -2.066 
1.68915 0.156801 -2.055 
1.68864 0.155961 -2.044 
1.69718 0.155961 -2.044 
1.69653 0.155122 -2.033 
1.70502 0.155122 -2.033 
1.70424 0.154283 -2.022 
1.722 0.155122 -2.033 
1.73049 0.155122 -2.033 
1.73897 0.155122 -2.033 
1.74746 0.155122 -2.033 
1.76545 0.155961 -2.044 
1.77399 0.155961 -2.044 
1.78252 0.155961 -2.044 
1.80069 0.156801 -2.055 
1.80927 0.156801 -2.055 
1.82759 0.15764 -2.066 
1.84599 0.158479 -2.077 
1.85466 0.158479 -2.077 
1.8741 0.159395 -2.089 
1.88282 0.159395 -2.089 
1.9015 0.160234 -2.1 
1.91027 0.160234 -2.1 
1.93001 0.16115 -2.112 
1.93882 0.16115 -2.112 
1.94764 0.16115 -2.112 
1.96665 0.161989 -2.123 
1.98668 0.162905 -2.135 
1.9956 0.162905 -2.135 
2.01578 0.16382 -2.147 
2.03606 0.164736 -2.159 
2.05739 0.165728 -2.172 
2.07787 0.166644 -2.184 
2.09941 0.167636 -2.197 
2.1201 0.168551 -2.209 
2.14186 0.169543 -2.222 
2.16372 0.170535 -2.235 
2.17305 0.170535 -2.235 
2.19508 0.171527 -2.248 
2.21819 0.172595 -2.262 
2.22764 0.172595 -2.262 
2.24994 0.173587 -2.275 
2.27334 0.174655 -2.289 
2.29587 0.175647 -2.302 
2.30548 0.175647 -2.302 
2.31509 0.175647 -2.302 
2.33884 0.176715 -2.316 
-1.743 0.133146 -1.846 
-1.7353 0.133146 -1.846 
-1.72759 0.133146 -1.846 
-1.72827 0.133795 -1.855 
-1.72052 0.133795 -1.855 
-1.69708 0.132569 -1.838 
-1.6894 0.132569 -1.838 
-1.68905 0.133146 -1.846 
-1.68134 0.133146 -1.846 
-1.68179 0.133795 -1.855 
-1.67405 0.133795 -1.855 
-1.67439 0.134444 -1.864 
-1.67555 0.135165 -1.874 
-1.66772 0.135165 -1.874 
-1.6599 0.135165 -1.874 
-1.66001 0.135815 -1.883 
-1.65214 0.135815 -1.883 
-1.65214 0.136464 -1.892 
-1.64424 0.136464 -1.892 
-1.63634 0.136464 -1.892 
-1.62844 0.136464 -1.892 
-1.62054 0.136464 -1.892 
-1.61264 0.136464 -1.892 
-1.60474 0.136464 -1.892 
-1.59684 0.136464 -1.892 
-1.58138 0.135815 -1.883 
-1.57352 0.135815 -1.883 
-1.56566 0.135815 -1.883 
-1.5578 0.135815 -1.883 
-1.55734 0.136464 -1.892 
-1.54944 0.136464 -1.892 
-1.54154 0.136464 -1.892 
-1.54175 0.137185 -1.902 
-1.53381 0.137185 -1.902 
-1.52587 0.137185 -1.902 
-1.51793 0.137185 -1.902 
-1.50998 0.137185 -1.902 
-1.50204 0.137185 -1.902 
-1.4941 0.137185 -1.902 
-1.49319 0.137834 -1.911 
-1.48521 0.137834 -1.911 
-1.47723 0.137834 -1.911 
-1.47694 0.138555 -1.921 
-1.46892 0.138555 -1.921 
-1.46775 0.139204 -1.93 
-1.45969 0.139204 -1.93 
-1.45163 0.139204 -1.93 
-1.45105 0.139926 -1.94 
-1.44295 0.139926 -1.94 
-1.43485 0.139926 -1.94 
-1.42675 0.139926 -1.94 
-1.41865 0.139926 -1.94 
-1.41055 0.139926 -1.94 
-1.40245 0.139926 -1.94 
-1.40154 0.140647 -1.95 
-1.39339 0.140647 -1.95 
-1.39236 0.141368 -1.96 
-1.38417 0.141368 -1.96 
-1.37599 0.141368 -1.96 
-1.3678 0.141368 -1.96 
-1.35962 0.141368 -1.96 
-1.35144 0.141368 -1.96 
-1.35011 0.14209 -1.97 
-1.34188 0.14209 -1.97 
-1.33366 0.14209 -1.97 
-1.32543 0.14209 -1.97 
-1.32389 0.142811 -1.98 
-1.31562 0.142811 -1.98 
-1.30736 0.142811 -1.98 
-1.30631 0.143604 -1.991 
-1.29799 0.143604 -1.991 
-1.28968 0.143604 -1.991 
-1.28137 0.143604 -1.991 
-1.27305 0.143604 -1.991 
-1.27109 0.144325 -2.001 
-1.26274 0.144325 -2.001 
-1.25438 0.144325 -2.001 
-1.25288 0.145119 -2.012 
-1.24448 0.145119 -2.012 
-1.23608 0.145119 -2.012 
-1.22768 0.145119 -2.012 
-1.21928 0.145119 -2.012 
-1.21689 0.14584 -2.022 
-1.20845 0.14584 -2.022 
-1.20001 0.14584 -2.022 
-1.19805 0.146634 -2.033 
-1.18956 0.146634 -2.033 
-1.18107 0.146634 -2.033 
-1.17258 0.146634 -2.033 
-1.17039 0.147427 -2.044 
-1.16186 0.147427 -2.044 
-1.15332 0.147427 -2.044 
-1.14479 0.147427 -2.044 
-1.14237 0.14822 -2.055 
-1.13379 0.14822 -2.055 
-1.12521 0.14822 -2.055 
-1.11663 0.14822 -2.055 
-1.11398 0.149014 -2.066 
-1.10535 0.149014 -2.066 
-1.10257 0.149807 -2.077 
-1.09389 0.149807 -2.077 
-1.09149 0.150673 -2.089 
-1.08847 0.151466 -2.1 
-1.08587 0.152332 -2.112 
-1.08266 0.153125 -2.123 
-1.07987 0.15399 -2.135 
-1.07697 0.154856 -2.147 
-1.07398 0.155721 -2.159 
-1.06496 0.155721 -2.159 
-1.05595 0.155721 -2.159 
-1.05324 0.156659 -2.172 
-1.03792 0.155721 -2.159 
-1.0351 0.156659 -2.172 
-1.02603 0.156659 -2.172 
-1.01088 0.155721 -2.159 
-1.00186 0.155721 -2.159 
-0.992847 0.155721 -2.159 
-0.983832 0.155721 -2.159 
-0.980687 0.156659 -2.172 
-0.971619 0.156659 -2.172 
-0.96255 0.156659 -2.172 
-0.958749 0.157525 -2.184 
-0.94963 0.157525 -2.184 
-0.940511 0.157525 -2.184 
-0.936936 0.158462 -2.197 
-0.927762 0.158462 -2.197 
-0.923607 0.159328 -2.209 
-0.919764 0.160265 -2.222 
-0.910487 0.160265 -2.222 
-0.906482 0.161203 -2.235 
-0.902368 0.162141 -2.248 
-0.898543 0.163151 -2.262 
-0.894208 0.164088 -2.275 
-0.890154 0.165098 -2.289 
-0.880596 0.165098 -2.289 
-0.875986 0.166036 -2.302 
-0.871643 0.167045 -2.316 
-0.861973 0.167045 -2.316 
-0.857823 0.168127 -2.331 
-0.84809 0.168127 -2.331 
-0.838357 0.168127 -2.331 
-0.833601 0.169137 -2.345 
-0.82381 0.169137 -2.345 
-0.814019 0.169137 -2.345 
-0.804228 0.169137 -2.345 
-0.794437 0.169137 -2.345 
-0.78933 0.170147 -2.359 
-0.77948 0.170147 -2.359 
-0.76963 0.170147 -2.359 
-0.759781 0.170147 -2.359 
-0.749931 0.170147 -2.359 
-0.744787 0.171229 -2.374 
-0.734875 0.171229 -2.374 
-0.724963 0.171229 -2.374 
-0.71505 0.171229 -2.374 
-0.709594 0.172311 -2.389 
-0.699619 0.172311 -2.389 
-0.689644 0.172311 -2.389 
-0.683936 0.173393 -2.404 
-0.673899 0.173393 -2.404 
-0.663861 0.173393 -2.404 
-0.657903 0.174474 -2.419 
-0.647803 0.174474 -2.419 
-0.641657 0.175556 -2.434 
-0.631494 0.175556 -2.434 
-0.625416 0.17671 -2.45 
-0.619204 0.177864 -2.466 
-0.608907 0.177864 -2.466 
-0.598611 0.177864 -2.466 
-0.592132 0.179018 -2.482 
-0.581768 0.179018 -2.482 
-0.571405 0.179018 -2.482 
-0.561042 0.179018 -2.482 
-0.550679 0.179018 -2.482 
-0.543798 0.180172 -2.498 
-0.533368 0.180172 -2.498 
-0.522938 0.180172 -2.498 
-0.512508 0.180172 -2.498 
-0.502078 0.180172 -2.498 
-0.491648 0.180172 -2.498 
-0.484493 0.181399 -2.515 
-0.473992 0.181399 -2.515 
-0.463491 0.181399 -2.515 
-0.45299 0.181399 -2.515 
-0.442489 0.181399 -2.515 
-0.434736 0.182553 -2.531 
-0.424168 0.182553 -2.531 
-0.413601 0.182553 -2.531 
-0.403033 0.182553 -2.531 
-0.392465 0.182553 -2.531 
-0.381897 0.182553 -2.531 
-0.371329 0.182553 -2.531 
-0.363185 0.183779 -2.548 
-0.352546 0.183779 -2.548 
-0.344188 0.185005 -2.565 
-0.333478 0.185005 -2.565 
-0.322768 0.185005 -2.565 
-0.314127 0.186231 -2.582 
-0.305461 0.187529 -2.6 
-0.294605 0.187529 -2.6 
-0.285713 0.188828 -2.618 
-0.274782 0.188828 -2.618 
-0.265665 0.190126 -2.636 
-0.256398 0.191424 -2.654 
-0.247073 0.192795 -2.673 
-0.237589 0.194165 -2.692 
-0.226349 0.194165 -2.692 
-0.216627 0.195535 -2.711 
-0.206747 0.196906 -2.73 
-0.195348 0.196906 -2.73 
-0.186644 0.199791 -2.77 
-0.176343 0.201233 -2.79 
-0.165874 0.202676 -2.81 
-0.154141 0.202676 -2.81 
-0.143473 0.204191 -2.831 
-0.132629 0.205705 -2.852 
-0.120721 0.205705 -2.852 
-0.109652 0.207292 -2.874 
-0.0976522 0.207292 -2.874 
-0.086278 0.208807 -2.895 
-0.0741904 0.208807 -2.895 
-0.0621027 0.208807 -2.895 
-0.0500151 0.208807 -2.895 
-0.0376523 0.207292 -2.874 
-0.0256523 0.207292 -2.874 
-0.0136523 0.207292 -2.874 
-0.00165234 0.207292 -2.874 
0.0104232 0.208807 -2.895 
0.0225109 0.208807 -2.895 
0.0345986 0.208807 -2.895 
0.0466862 0.208807 -2.895 
0.0592408 0.210466 -2.918 
0.0714245 0.210466 -2.918 
0.0842386 0.212052 -2.94 
0.0965141 0.212052 -2.94 
0.109641 0.213711 -2.963 
0.122012 0.213711 -2.963 
0.134384 0.213711 -2.963 
0.146756 0.213711 -2.963 
0.159127 0.213711 -2.963 
0.171499 0.213711 -2.963 
0.18387 0.213711 -2.963 
0.196242 0.213711 -2.963 
0.208613 0.213711 -2.963 
0.220985 0.213711 -2.963 
0.233357 0.213711 -2.963 
0.247636 0.21537 -2.986 
0.260103 0.21537 -2.986 
0.272571 0.21537 -2.986 
0.287234 0.217029 -3.009 
0.299798 0.217029 -3.009 
0.314853 0.21876 -3.033 
0.327517 0.21876 -3.033 
0.34018 0.21876 -3.033 
0.352844 0.21876 -3.033 
0.368521 0.220563 -3.058 
0.381289 0.220563 -3.058 
0.39715 0.222294 -3.082 
0.410019 0.222294 -3.082 
0.422887 0.222294 -3.082 
0.435756 0.222294 -3.082 
0.448624 0.222294 -3.082 
0.465236 0.224098 -3.107 
0.478209 0.224098 -3.107 
0.491182 0.224098 -3.107 
0.508373 0.225973 -3.133 
0.521455 0.225973 -3.133 
0.534536 0.225973 -3.133 
0.552162 0.227848 -3.159 
0.565352 0.227848 -3.159 
0.583304 0.229723 -3.185 
0.596602 0.229723 -3.185 
0.609901 0.229723 -3.185 
0.623199 0.229723 -3.185 
0.636498 0.229723 -3.185 
0.655305 0.231671 -3.212 
0.668716 0.231671 -3.212 
0.682127 0.231671 -3.212 
0.695538 0.231671 -3.212 
0.70895 0.231671 -3.212 
0.722361 0.231671 -3.212 
0.735772 0.231671 -3.212 
0.749183 0.231671 -3.212 
0.762595 0.231671 -3.212 
0.776006 0.231671 -3.212 
0.789417 0.231671 -3.212 
0.802828 0.231671 -3.212 
0.823101 0.233618 -3.239 
0.836625 0.233618 -3.239 
0.857498 0.235638 -3.267 
0.871139 0.235638 -3.267 
0.88478 0.235638 -3.267 
0.890721 0.233618 -3.239 
0.889169 0.229723 -3.185 
0.887734 0.225973 -3.133 
0.879251 0.220563 -3.058 
0.871017 0.21537 -2.986 
0.863365 0.210466 -2.918 
0.849444 0.204191 -2.831 
0.842707 0.199791 -2.77 
0.836077 0.195535 -2.711 
0.823953 0.190126 -2.636 
0.776043 0.17671 -2.45 
0.63723 0.137834 -1.911 
0.614485 0.131271 -1.82 
0.613197 0.129395 -1.794 
0.612038 0.127592 -1.769 
0.619424 0.127592 -1.769 
0.623976 0.127015 -1.761 
0.631329 0.127015 -1.761 
0.63578 0.126438 -1.753 
0.6431 0.126438 -1.753 
0.647451 0.125861 -1.745 
0.654737 0.125861 -1.745 
0.658988 0.125284 -1.737 
0.66624 0.125284 -1.737 
0.670391 0.124707 -1.729 
0.674867 0.124202 -1.722 
0.678888 0.123625 -1.714 
0.686045 0.123625 -1.714 
0.689966 0.123048 -1.706 
0.694229 0.122543 -1.699 
0.69802 0.121966 -1.691 
0.702162 0.121461 -1.684 
0.709193 0.121461 -1.684 
0.716225 0.121461 -1.684 
0.723256 0.121461 -1.684 
0.730287 0.121461 -1.684 
0.733816 0.120884 -1.676 
0.740814 0.120884 -1.676 
0.747812 0.120884 -1.676 
0.75481 0.120884 -1.676 
0.761808 0.120884 -1.676 
0.765594 0.120379 -1.669 
0.772563 0.120379 -1.669 
0.782801 0.120884 -1.676 
0.789799 0.120884 -1.676 
0.793469 0.120379 -1.669 
0.800438 0.120379 -1.669 
0.807406 0.120379 -1.669 
0.814375 0.120379 -1.669 
0.821344 0.120379 -1.669 
0.824838 0.119875 -1.662 
0.824271 0.118793 -1.647 
0.827615 0.118288 -1.64 
0.838024 0.118793 -1.647 
0.844901 0.118793 -1.647 
0.855915 0.11937 -1.655 
0.862826 0.11937 -1.655 
0.865532 0.118793 -1.647 
0.872409 0.118793 -1.647 
0.883556 0.11937 -1.655 
0.894233 0.119875 -1.662 
0.908763 0.120884 -1.676 
0.915761 0.120884 -1.676 
0.927164 0.121461 -1.684 
0.938078 0.121966 -1.691 
0.94961 0.122543 -1.699 
0.960646 0.123048 -1.706 
0.972307 0.123625 -1.714 
0.984035 0.124202 -1.722 
0.991225 0.124202 -1.722 
0.993777 0.123625 -1.714 
1.00561 0.124202 -1.722 
1.0128 0.124202 -1.722 
1.01999 0.124202 -1.722 
1.02718 0.124202 -1.722 
1.03437 0.124202 -1.722 
1.04156 0.124202 -1.722 
1.04387 0.123625 -1.714 
1.05103 0.123625 -1.714 
1.05819 0.123625 -1.714 
1.07032 0.124202 -1.722 
1.08689 0.125284 -1.737 
1.10926 0.127015 -1.761 
1.13247 0.128818 -1.786 
1.16162 0.131271 -1.82 
1.18593 0.133146 -1.846 
1.22984 0.137185 -1.902 
1.27553 0.141368 -1.96 
1.32432 0.14584 -2.022 
1.37693 0.150673 -2.089 
1.41616 0.15399 -2.135 
1.44977 0.156659 -2.172 
1.45884 0.156659 -2.172 
1.47602 0.157525 -2.184 
1.48514 0.157525 -2.184 
1.49426 0.157525 -2.184 
1.51232 0.158462 -2.197 
1.5215 0.158462 -2.197 
1.53067 0.158462 -2.197 
1.53984 0.158462 -2.197 
1.54902 0.158462 -2.197 
1.55819 0.158462 -2.197 
1.56736 0.158462 -2.197 
1.58515 0.159328 -2.209 
1.59437 0.159328 -2.209 
1.6036 0.159328 -2.209 
1.61282 0.159328 -2.209 
1.62204 0.159328 -2.209 
1.63127 0.159328 -2.209 
1.64049 0.159328 -2.209 
1.64971 0.159328 -2.209 
1.65894 0.159328 -2.209 
1.6591 0.158462 -2.197 
1.66827 0.158462 -2.197 
1.66752 0.157525 -2.184 
1.67664 0.157525 -2.184 
1.67649 0.156659 -2.172 
1.67547 0.155721 -2.159 
1.67513 0.154856 -2.147 
1.68409 0.154856 -2.147 
1.68359 0.15399 -2.135 
1.68299 0.153125 -2.123 
1.68309 0.152332 -2.112 
1.6823 0.151466 -2.1 
1.69107 0.151466 -2.1 
1.68122 0.149807 -2.077 
1.68094 0.149014 -2.066 
1.68057 0.14822 -2.055 
1.68915 0.14822 -2.055 
1.68864 0.147427 -2.044 
1.68804 0.146634 -2.033 
1.69653 0.146634 -2.033 
1.70502 0.146634 -2.033 
1.71351 0.146634 -2.033 
1.722 0.146634 -2.033 
1.73049 0.146634 -2.033 
1.73897 0.146634 -2.033 
1.74746 0.146634 -2.033 
1.76545 0.147427 -2.044 
1.77399 0.147427 -2.044 
1.79211 0.14822 -2.055 
1.80069 0.14822 -2.055 
1.80927 0.14822 -2.055 
1.82759 0.149014 -2.066 
1.84599 0.149807 -2.077 
1.86538 0.150673 -2.089 
1.8741 0.150673 -2.089 
1.89274 0.151466 -2.1 
1.9015 0.151466 -2.1 
1.92119 0.152332 -2.112 
1.93001 0.152332 -2.112 
1.94892 0.153125 -2.123 
1.95779 0.153125 -2.123 
1.97777 0.15399 -2.135 
1.98668 0.15399 -2.135 
2.00681 0.154856 -2.147 
2.02704 0.155721 -2.159 
2.03606 0.155721 -2.159 
2.05739 0.156659 -2.172 
2.07787 0.157525 -2.184 
2.09941 0.158462 -2.197 
2.1201 0.159328 -2.209 
2.14186 0.160265 -2.222 
2.16372 0.161203 -2.235 
2.18569 0.162141 -2.248 
2.19508 0.162141 -2.248 
2.21819 0.163151 -2.262 
2.24044 0.164088 -2.275 
2.26379 0.165098 -2.289 
2.27334 0.165098 -2.289 
2.29587 0.166036 -2.302 
2.30548 0.166036 -2.302 
2.32917 0.167045 -2.316 
2.35399 0.168127 -2.331 
-1.7353 0.125438 -1.846 
-1.7201 0.124895 -1.838 
-1.71988 0.125438 -1.846 
-1.71217 0.125438 -1.846 
-1.69708 0.124895 -1.838 
-1.6894 0.124895 -1.838 
-1.68173 0.124895 -1.838 
-1.68134 0.125438 -1.846 
-1.67363 0.125438 -1.846 
-1.67405 0.12605 -1.855 
-1.67439 0.126661 -1.864 
-1.66661 0.126661 -1.864 
-1.66772 0.127341 -1.874 
-1.6599 0.127341 -1.874 
-1.66001 0.127952 -1.883 
-1.66004 0.128564 -1.892 
-1.65214 0.128564 -1.892 
-1.64424 0.128564 -1.892 
-1.63634 0.128564 -1.892 
-1.62844 0.128564 -1.892 
-1.62054 0.128564 -1.892 
-1.61264 0.128564 -1.892 
-1.60474 0.128564 -1.892 
-1.59684 0.128564 -1.892 
-1.58894 0.128564 -1.892 
-1.57352 0.127952 -1.883 
-1.56566 0.127952 -1.883 
-1.56524 0.128564 -1.892 
-1.55734 0.128564 -1.892 
-1.54944 0.128564 -1.892 
-1.54969 0.129243 -1.902 
-1.54175 0.129243 -1.902 
-1.53381 0.129243 -1.902 
-1.52587 0.129243 -1.902 
-1.52511 0.129855 -1.911 
-1.51713 0.129855 -1.911 
-1.50915 0.129855 -1.911 
-1.50117 0.129855 -1.911 
-1.49319 0.129855 -1.911 
-1.48521 0.129855 -1.911 
-1.48496 0.130534 -1.921 
-1.47694 0.130534 -1.921 
-1.4758 0.131146 -1.93 
-1.46775 0.131146 -1.93 
-1.45969 0.131146 -1.93 
-1.45163 0.131146 -1.93 
-1.45105 0.131826 -1.94 
-1.44295 0.131826 -1.94 
-1.43485 0.131826 -1.94 
-1.42675 0.131826 -1.94 
-1.41865 0.131826 -1.94 
-1.41055 0.131826 -1.94 
-1.40245 0.131826 -1.94 
-1.39435 0.131826 -1.94 
-1.39339 0.132505 -1.95 
-1.39236 0.133185 -1.96 
-1.38417 0.133185 -1.96 
-1.37599 0.133185 -1.96 
-1.3678 0.133185 -1.96 
-1.35962 0.133185 -1.96 
-1.35833 0.133864 -1.97 
-1.35011 0.133864 -1.97 
-1.34188 0.133864 -1.97 
-1.33366 0.133864 -1.97 
-1.33216 0.134544 -1.98 
-1.32389 0.134544 -1.98 
-1.31562 0.134544 -1.98 
-1.31462 0.135291 -1.991 
-1.30631 0.135291 -1.991 
-1.29799 0.135291 -1.991 
-1.28968 0.135291 -1.991 
-1.2878 0.135971 -2.001 
-1.27945 0.135971 -2.001 
-1.27109 0.135971 -2.001 
-1.26274 0.135971 -2.001 
-1.25438 0.135971 -2.001 
-1.25288 0.136718 -2.012 
-1.24448 0.136718 -2.012 
-1.23608 0.136718 -2.012 
-1.22768 0.136718 -2.012 
-1.21928 0.136718 -2.012 
-1.21087 0.136718 -2.012 
-1.20845 0.137398 -2.022 
-1.20001 0.137398 -2.022 
-1.19805 0.138145 -2.033 
-1.18956 0.138145 -2.033 
-1.18107 0.138145 -2.033 
-1.17893 0.138892 -2.044 
-1.17039 0.138892 -2.044 
-1.16186 0.138892 -2.044 
-1.15332 0.138892 -2.044 
-1.15095 0.13964 -2.055 
-1.14237 0.13964 -2.055 
-1.13379 0.13964 -2.055 
-1.12521 0.13964 -2.055 
-1.11663 0.13964 -2.055 
-1.11398 0.140387 -2.066 
-1.10535 0.140387 -2.066 
-1.09673 0.140387 -2.066 
-1.09389 0.141135 -2.077 
-1.08522 0.141135 -2.077 
-1.08277 0.14195 -2.089 
-1.0797 0.142698 -2.1 
-1.07705 0.143513 -2.112 
-1.0738 0.144261 -2.123 
-1.07095 0.145076 -2.135 
-1.06801 0.145891 -2.147 
-1.05904 0.145891 -2.147 
-1.05008 0.145891 -2.147 
-1.04693 0.146707 -2.159 
-1.03792 0.146707 -2.159 
-1.02891 0.146707 -2.159 
-1.01989 0.146707 -2.159 
-1.01088 0.146707 -2.159 
-1.00186 0.146707 -2.159 
-0.992847 0.146707 -2.159 
-0.983832 0.146707 -2.159 
-0.974818 0.146707 -2.159 
-0.971619 0.14759 -2.172 
-0.96255 0.14759 -2.172 
-0.958749 0.148406 -2.184 
-0.94963 0.148406 -2.184 
-0.940511 0.148406 -2.184 
-0.936936 0.149289 -2.197 
-0.927762 0.149289 -2.197 
-0.923607 0.150104 -2.209 
-0.914383 0.150104 -2.209 
-0.910487 0.150988 -2.222 
-0.901209 0.150988 -2.222 
-0.89715 0.151871 -2.235 
-0.892982 0.152755 -2.248 
-0.889098 0.153706 -2.262 
-0.884709 0.154589 -2.275 
-0.880596 0.155541 -2.289 
-0.875986 0.156424 -2.302 
-0.866374 0.156424 -2.302 
-0.861973 0.157375 -2.316 
-0.852303 0.157375 -2.316 
-0.84809 0.158395 -2.331 
-0.838357 0.158395 -2.331 
-0.828625 0.158395 -2.331 
-0.82381 0.159346 -2.345 
-0.814019 0.159346 -2.345 
-0.804228 0.159346 -2.345 
-0.794437 0.159346 -2.345 
-0.784645 0.159346 -2.345 
-0.77948 0.160297 -2.359 
-0.76963 0.160297 -2.359 
-0.759781 0.160297 -2.359 
-0.749931 0.160297 -2.359 
-0.744787 0.161316 -2.374 
-0.734875 0.161316 -2.374 
-0.724963 0.161316 -2.374 
-0.71505 0.161316 -2.374 
-0.709594 0.162336 -2.389 
-0.699619 0.162336 -2.389 
-0.693974 0.163355 -2.404 
-0.683936 0.163355 -2.404 
-0.673899 0.163355 -2.404 
-0.663861 0.163355 -2.404 
-0.657903 0.164374 -2.419 
-0.647803 0.164374 -2.419 
-0.641657 0.165393 -2.434 
-0.631494 0.165393 -2.434 
-0.625416 0.166481 -2.45 
-0.619204 0.167568 -2.466 
-0.608907 0.167568 -2.466 
-0.598611 0.167568 -2.466 
-0.592132 0.168655 -2.482 
-0.581768 0.168655 -2.482 
-0.571405 0.168655 -2.482 
-0.561042 0.168655 -2.482 
-0.550679 0.168655 -2.482 
-0.540315 0.168655 -2.482 
-0.529952 0.168655 -2.482 
-0.519589 0.168655 -2.482 
-0.509226 0.168655 -2.482 
-0.502078 0.169742 -2.498 
-0.491648 0.169742 -2.498 
-0.481218 0.169742 -2.498 
-0.473992 0.170898 -2.515 
-0.463491 0.170898 -2.515 
-0.45299 0.170898 -2.515 
-0.442489 0.170898 -2.515 
-0.431988 0.170898 -2.515 
-0.424168 0.171985 -2.531 
-0.413601 0.171985 -2.531 
-0.403033 0.171985 -2.531 
-0.395101 0.17314 -2.548 
-0.384462 0.17314 -2.548 
-0.373823 0.17314 -2.548 
-0.363185 0.17314 -2.548 
-0.352546 0.17314 -2.548 
-0.344188 0.174295 -2.565 
-0.333478 0.174295 -2.565 
-0.324908 0.17545 -2.582 
-0.314127 0.17545 -2.582 
-0.303346 0.17545 -2.582 
-0.294605 0.176673 -2.6 
-0.285713 0.177897 -2.618 
-0.274782 0.177897 -2.618 
-0.265665 0.17912 -2.636 
-0.256398 0.180343 -2.654 
-0.247073 0.181634 -2.673 
-0.235912 0.181634 -2.673 
-0.226349 0.182925 -2.692 
-0.216627 0.184216 -2.711 
-0.206747 0.185507 -2.73 
-0.195348 0.185507 -2.73 
-0.186644 0.188225 -2.77 
-0.176343 0.189584 -2.79 
-0.164694 0.189584 -2.79 
-0.154141 0.190943 -2.81 
-0.143473 0.19237 -2.831 
-0.132629 0.193797 -2.852 
-0.120721 0.193797 -2.852 
-0.109652 0.195292 -2.874 
-0.0976522 0.195292 -2.874 
-0.0856522 0.195292 -2.874 
-0.0736522 0.195292 -2.874 
-0.0616522 0.195292 -2.874 
-0.0496523 0.195292 -2.874 
-0.0376523 0.195292 -2.874 
-0.0256523 0.195292 -2.874 
-0.0136523 0.195292 -2.874 
-0.00165234 0.195292 -2.874 
0.0104232 0.196719 -2.895 
0.0225109 0.196719 -2.895 
0.0345986 0.196719 -2.895 
0.0470571 0.198282 -2.918 
0.0592408 0.198282 -2.918 
0.0714245 0.198282 -2.918 
0.0842386 0.199777 -2.94 
0.0965141 0.199777 -2.94 
0.109641 0.20134 -2.963 
0.122012 0.20134 -2.963 
0.134384 0.20134 -2.963 
0.146756 0.20134 -2.963 
0.159127 0.20134 -2.963 
0.171499 0.20134 -2.963 
0.18387 0.20134 -2.963 
0.196242 0.20134 -2.963 
0.208613 0.20134 -2.963 
0.220985 0.20134 -2.963 
0.233357 0.20134 -2.963 
0.247636 0.202903 -2.986 
0.260103 0.202903 -2.986 
0.27467 0.204465 -3.009 
0.287234 0.204465 -3.009 
0.302189 0.206096 -3.033 
0.314853 0.206096 -3.033 
0.327517 0.206096 -3.033 
0.34018 0.206096 -3.033 
0.352844 0.206096 -3.033 
0.365508 0.206096 -3.033 
0.381289 0.207795 -3.058 
0.394057 0.207795 -3.058 
0.406826 0.207795 -3.058 
0.419594 0.207795 -3.058 
0.435756 0.209426 -3.082 
0.448624 0.209426 -3.082 
0.461492 0.209426 -3.082 
0.478209 0.211125 -3.107 
0.491182 0.211125 -3.107 
0.504154 0.211125 -3.107 
0.521455 0.212891 -3.133 
0.534536 0.212891 -3.133 
0.547617 0.212891 -3.133 
0.565352 0.214658 -3.159 
0.578542 0.214658 -3.159 
0.596602 0.216425 -3.185 
0.609901 0.216425 -3.185 
0.623199 0.216425 -3.185 
0.636498 0.216425 -3.185 
0.655305 0.21826 -3.212 
0.668716 0.21826 -3.212 
0.682127 0.21826 -3.212 
0.695538 0.21826 -3.212 
0.70895 0.21826 -3.212 
0.722361 0.21826 -3.212 
0.735772 0.21826 -3.212 
0.749183 0.21826 -3.212 
0.762595 0.21826 -3.212 
0.782529 0.220094 -3.239 
0.796053 0.220094 -3.239 
0.809577 0.220094 -3.239 
0.823101 0.220094 -3.239 
0.836625 0.220094 -3.239 
0.857498 0.221997 -3.267 
0.871139 0.221997 -3.267 
0.88478 0.221997 -3.267 
0.883296 0.21826 -3.212 
0.889169 0.216425 -3.185 
0.887734 0.212891 -3.133 
0.879251 0.207795 -3.058 
0.871017 0.202903 -2.986 
0.863365 0.198282 -2.918 
0.855745 0.193797 -2.852 
0.848791 0.189584 -2.79 
0.836077 0.184216 -2.711 
0.818326 0.177897 -2.618 
0.766224 0.164374 -2.419 
0.627893 0.127952 -1.883 
0.614485 0.123671 -1.82 
0.610463 0.121361 -1.786 
0.612038 0.120206 -1.769 
0.619424 0.120206 -1.769 
0.623976 0.119662 -1.761 
0.631329 0.119662 -1.761 
0.63578 0.119119 -1.753 
0.6431 0.119119 -1.753 
0.647451 0.118575 -1.745 
0.654737 0.118575 -1.745 
0.658988 0.118031 -1.737 
0.66624 0.118031 -1.737 
0.670391 0.117488 -1.729 
0.674867 0.117012 -1.722 
0.678888 0.116469 -1.714 
0.682843 0.115925 -1.706 
0.687135 0.115449 -1.699 
0.69096 0.114906 -1.691 
0.69802 0.114906 -1.691 
0.702162 0.11443 -1.684 
0.709193 0.11443 -1.684 
0.712822 0.113886 -1.676 
0.723256 0.11443 -1.684 
0.726818 0.113886 -1.676 
0.730751 0.113411 -1.669 
0.73772 0.113411 -1.669 
0.744688 0.113411 -1.669 
0.751657 0.113411 -1.669 
0.755444 0.112935 -1.662 
0.762383 0.112935 -1.662 
0.772563 0.113411 -1.669 
0.779532 0.113411 -1.669 
0.7865 0.113411 -1.669 
0.793469 0.113411 -1.669 
0.800438 0.113411 -1.669 
0.807406 0.113411 -1.669 
0.814375 0.113411 -1.669 
0.821344 0.113411 -1.669 
0.821364 0.112459 -1.655 
0.824271 0.111916 -1.647 
0.827615 0.11144 -1.64 
0.834463 0.11144 -1.64 
0.844901 0.111916 -1.647 
0.851778 0.111916 -1.647 
0.858655 0.111916 -1.647 
0.865532 0.111916 -1.647 
0.872409 0.111916 -1.647 
0.883556 0.112459 -1.655 
0.897999 0.113411 -1.669 
0.908763 0.113886 -1.676 
0.915761 0.113886 -1.676 
0.927164 0.11443 -1.684 
0.938078 0.114906 -1.691 
0.94961 0.115449 -1.699 
0.960646 0.115925 -1.706 
0.972307 0.116469 -1.714 
0.984035 0.117012 -1.722 
0.991225 0.117012 -1.722 
0.998415 0.117012 -1.722 
1.00561 0.117012 -1.722 
1.0128 0.117012 -1.722 
1.01999 0.117012 -1.722 
1.02718 0.117012 -1.722 
1.03437 0.117012 -1.722 
1.03672 0.116469 -1.714 
1.039 0.115925 -1.706 
1.04612 0.115925 -1.706 
1.05325 0.115925 -1.706 
1.06037 0.115925 -1.706 
1.0775 0.117012 -1.722 
1.09414 0.118031 -1.737 
1.11661 0.119662 -1.761 
1.13992 0.121361 -1.786 
1.16922 0.123671 -1.82 
1.20527 0.126661 -1.864 
1.24364 0.129855 -1.911 
1.29681 0.134544 -1.98 
1.34727 0.138892 -2.044 
1.39294 0.142698 -2.1 
1.43308 0.145891 -2.147 
1.45011 0.146707 -2.159 
1.46791 0.14759 -2.172 
1.47698 0.14759 -2.172 
1.49426 0.148406 -2.184 
1.50338 0.148406 -2.184 
1.5125 0.148406 -2.184 
1.53067 0.149289 -2.197 
1.53984 0.149289 -2.197 
1.54902 0.149289 -2.197 
1.55819 0.149289 -2.197 
1.56736 0.149289 -2.197 
1.58515 0.150104 -2.209 
1.59437 0.150104 -2.209 
1.6036 0.150104 -2.209 
1.61282 0.150104 -2.209 
1.62204 0.150104 -2.209 
1.63127 0.150104 -2.209 
1.64049 0.150104 -2.209 
1.64971 0.150104 -2.209 
1.65894 0.150104 -2.209 
1.6591 0.149289 -2.197 
1.6584 0.148406 -2.184 
1.66752 0.148406 -2.184 
1.66742 0.14759 -2.172 
1.67649 0.14759 -2.172 
1.67547 0.146707 -2.159 
1.67513 0.145891 -2.147 
1.67468 0.145076 -2.135 
1.67413 0.144261 -2.123 
1.68299 0.144261 -2.123 
1.68309 0.143513 -2.112 
1.6823 0.142698 -2.1 
1.68221 0.14195 -2.089 
1.68122 0.141135 -2.077 
1.68094 0.140387 -2.066 
1.68057 0.13964 -2.055 
1.68915 0.13964 -2.055 
1.68864 0.138892 -2.044 
1.69718 0.138892 -2.044 
1.70571 0.138892 -2.044 
1.71425 0.138892 -2.044 
1.72278 0.138892 -2.044 
1.73131 0.138892 -2.044 
1.73985 0.138892 -2.044 
1.74838 0.138892 -2.044 
1.76637 0.13964 -2.055 
1.77495 0.13964 -2.055 
1.78353 0.13964 -2.055 
1.80171 0.140387 -2.066 
1.81033 0.140387 -2.066 
1.81896 0.140387 -2.066 
1.83732 0.141135 -2.077 
1.84599 0.141135 -2.077 
1.86538 0.14195 -2.089 
1.88397 0.142698 -2.1 
1.89274 0.142698 -2.1 
1.91237 0.143513 -2.112 
1.93119 0.144261 -2.123 
1.94006 0.144261 -2.123 
1.95994 0.145076 -2.135 
1.96885 0.145076 -2.135 
1.98888 0.145891 -2.147 
1.99785 0.145891 -2.147 
2.01803 0.146707 -2.159 
2.02704 0.146707 -2.159 
2.04832 0.14759 -2.172 
2.06875 0.148406 -2.184 
2.07787 0.148406 -2.184 
2.09941 0.149289 -2.197 
2.13258 0.150988 -2.222 
2.15439 0.151871 -2.235 
2.16372 0.151871 -2.235 
2.18569 0.152755 -2.248 
2.20875 0.153706 -2.262 
2.23094 0.154589 -2.275 
2.24044 0.154589 -2.275 
2.26379 0.155541 -2.289 
2.28625 0.156424 -2.302 
2.29587 0.156424 -2.302 
2.3195 0.157375 -2.316 
2.32917 0.157375 -2.316 
2.35399 0.158395 -2.331 
-1.75842 0.11773 -1.846 
-1.74312 0.11722 -1.838 
-1.71932 0.116646 -1.829 
-1.7201 0.11722 -1.838 
-1.70404 0.116646 -1.829 
-1.70475 0.11722 -1.838 
-1.69708 0.11722 -1.838 
-1.6894 0.11722 -1.838 
-1.68173 0.11722 -1.838 
-1.67406 0.11722 -1.838 
-1.67363 0.11773 -1.846 
-1.67405 0.118304 -1.855 
-1.6663 0.118304 -1.855 
-1.66661 0.118878 -1.864 
-1.66772 0.119516 -1.874 
-1.6599 0.119516 -1.874 
-1.66001 0.12009 -1.883 
-1.65214 0.12009 -1.883 
-1.65214 0.120664 -1.892 
-1.64424 0.120664 -1.892 
-1.63634 0.120664 -1.892 
-1.62844 0.120664 -1.892 
-1.62054 0.120664 -1.892 
-1.61264 0.120664 -1.892 
-1.60474 0.120664 -1.892 
-1.59684 0.120664 -1.892 
-1.58894 0.120664 -1.892 
-1.58104 0.120664 -1.892 
-1.57314 0.120664 -1.892 
-1.56524 0.120664 -1.892 
-1.56558 0.121302 -1.902 
-1.55763 0.121302 -1.902 
-1.54969 0.121302 -1.902 
-1.54905 0.121876 -1.911 
-1.54107 0.121876 -1.911 
-1.53309 0.121876 -1.911 
-1.52511 0.121876 -1.911 
-1.51713 0.121876 -1.911 
-1.50915 0.121876 -1.911 
-1.50117 0.121876 -1.911 
-1.50101 0.122514 -1.921 
-1.49298 0.122514 -1.921 
-1.48496 0.122514 -1.921 
-1.47694 0.122514 -1.921 
-1.4758 0.123088 -1.93 
-1.46775 0.123088 -1.93 
-1.45969 0.123088 -1.93 
-1.45163 0.123088 -1.93 
-1.45105 0.123725 -1.94 
-1.44295 0.123725 -1.94 
-1.43485 0.123725 -1.94 
-1.42675 0.123725 -1.94 
-1.41865 0.123725 -1.94 
-1.41055 0.123725 -1.94 
-1.40245 0.123725 -1.94 
-1.39435 0.123725 -1.94 
-1.39339 0.124363 -1.95 
-1.38525 0.124363 -1.95 
-1.38417 0.125001 -1.96 
-1.37599 0.125001 -1.96 
-1.3678 0.125001 -1.96 
-1.35962 0.125001 -1.96 
-1.35833 0.125639 -1.97 
-1.35696 0.126276 -1.98 
-1.34869 0.126276 -1.98 
-1.34043 0.126276 -1.98 
-1.33216 0.126276 -1.98 
-1.32389 0.126276 -1.98 
-1.31562 0.126276 -1.98 
-1.31462 0.126978 -1.991 
-1.30631 0.126978 -1.991 
-1.30451 0.127616 -2.001 
-1.29616 0.127616 -2.001 
-1.2878 0.127616 -2.001 
-1.27945 0.127616 -2.001 
-1.27109 0.127616 -2.001 
-1.26274 0.127616 -2.001 
-1.26128 0.128317 -2.012 
-1.25288 0.128317 -2.012 
-1.24448 0.128317 -2.012 
-1.23608 0.128317 -2.012 
-1.22768 0.128317 -2.012 
-1.21928 0.128317 -2.012 
-1.21689 0.128955 -2.022 
-1.20845 0.128955 -2.022 
-1.20001 0.128955 -2.022 
-1.19805 0.129657 -2.033 
-1.18956 0.129657 -2.033 
-1.18107 0.129657 -2.033 
-1.17893 0.130358 -2.044 
-1.17039 0.130358 -2.044 
-1.16186 0.130358 -2.044 
-1.15332 0.130358 -2.044 
-1.15095 0.13106 -2.055 
-1.14237 0.13106 -2.055 
-1.13379 0.13106 -2.055 
-1.12521 0.13106 -2.055 
-1.11663 0.13106 -2.055 
-1.11398 0.131761 -2.066 
-1.10535 0.131761 -2.066 
-1.09673 0.131761 -2.066 
-1.09389 0.132463 -2.077 
-1.08522 0.132463 -2.077 
-1.08277 0.133228 -2.089 
-1.0797 0.13393 -2.1 
-1.07093 0.13393 -2.1 
-1.06824 0.134695 -2.112 
-1.06493 0.135396 -2.123 
-1.06204 0.136162 -2.135 
-1.05313 0.136162 -2.135 
-1.05008 0.136927 -2.147 
-1.04112 0.136927 -2.147 
-1.03215 0.136927 -2.147 
-1.02319 0.136927 -2.147 
-1.01989 0.137692 -2.159 
-1.01088 0.137692 -2.159 
-1.00186 0.137692 -2.159 
-0.992847 0.137692 -2.159 
-0.983832 0.137692 -2.159 
-0.974818 0.137692 -2.159 
-0.971619 0.138521 -2.172 
-0.96255 0.138521 -2.172 
-0.958749 0.139287 -2.184 
-0.94963 0.139287 -2.184 
-0.940511 0.139287 -2.184 
-0.936936 0.140116 -2.197 
-0.927762 0.140116 -2.197 
-0.923607 0.140881 -2.209 
-0.914383 0.140881 -2.209 
-0.910487 0.14171 -2.222 
-0.901209 0.14171 -2.222 
-0.89715 0.142539 -2.235 
-0.892982 0.143368 -2.248 
-0.889098 0.144261 -2.262 
-0.884709 0.14509 -2.275 
-0.880596 0.145983 -2.289 
-0.875986 0.146812 -2.302 
-0.866374 0.146812 -2.302 
-0.861973 0.147705 -2.316 
-0.852303 0.147705 -2.316 
-0.842633 0.147705 -2.316 
-0.838357 0.148662 -2.331 
-0.828625 0.148662 -2.331 
-0.818892 0.148662 -2.331 
-0.814019 0.149555 -2.345 
-0.804228 0.149555 -2.345 
-0.794437 0.149555 -2.345 
-0.784645 0.149555 -2.345 
-0.774854 0.149555 -2.345 
-0.76963 0.150447 -2.359 
-0.759781 0.150447 -2.359 
-0.749931 0.150447 -2.359 
-0.744787 0.151404 -2.374 
-0.734875 0.151404 -2.374 
-0.724963 0.151404 -2.374 
-0.71505 0.151404 -2.374 
-0.709594 0.152361 -2.389 
-0.699619 0.152361 -2.389 
-0.693974 0.153317 -2.404 
-0.683936 0.153317 -2.404 
-0.673899 0.153317 -2.404 
-0.663861 0.153317 -2.404 
-0.657903 0.154274 -2.419 
-0.647803 0.154274 -2.419 
-0.641657 0.155231 -2.434 
-0.631494 0.155231 -2.434 
-0.625416 0.156251 -2.45 
-0.615186 0.156251 -2.45 
-0.608907 0.157271 -2.466 
-0.598611 0.157271 -2.466 
-0.588314 0.157271 -2.466 
-0.578018 0.157271 -2.466 
-0.567722 0.157271 -2.466 
-0.557425 0.157271 -2.466 
-0.547129 0.157271 -2.466 
-0.536832 0.157271 -2.466 
-0.529952 0.158292 -2.482 
-0.519589 0.158292 -2.482 
-0.509226 0.158292 -2.482 
-0.498862 0.158292 -2.482 
-0.488499 0.158292 -2.482 
-0.481218 0.159312 -2.498 
-0.470788 0.159312 -2.498 
-0.463491 0.160397 -2.515 
-0.45299 0.160397 -2.515 
-0.442489 0.160397 -2.515 
-0.431988 0.160397 -2.515 
-0.424168 0.161417 -2.531 
-0.413601 0.161417 -2.531 
-0.403033 0.161417 -2.531 
-0.395101 0.162501 -2.548 
-0.384462 0.162501 -2.548 
-0.373823 0.162501 -2.548 
-0.363185 0.162501 -2.548 
-0.352546 0.162501 -2.548 
-0.344188 0.163585 -2.565 
-0.333478 0.163585 -2.565 
-0.324908 0.164669 -2.582 
-0.314127 0.164669 -2.582 
-0.303346 0.164669 -2.582 
-0.294605 0.165817 -2.6 
-0.285713 0.166965 -2.618 
-0.274782 0.166965 -2.618 
-0.265665 0.168113 -2.636 
-0.254659 0.168113 -2.636 
-0.245317 0.169261 -2.654 
-0.235912 0.170473 -2.673 
-0.226349 0.171685 -2.692 
-0.216627 0.172897 -2.711 
-0.206747 0.174108 -2.73 
-0.195348 0.174108 -2.73 
-0.186644 0.176659 -2.77 
-0.176343 0.177935 -2.79 
-0.164694 0.177935 -2.79 
-0.154141 0.17921 -2.81 
-0.143473 0.18055 -2.831 
-0.131652 0.18055 -2.831 
-0.120721 0.181889 -2.852 
-0.108813 0.181889 -2.852 
-0.0976522 0.183292 -2.874 
-0.0856522 0.183292 -2.874 
-0.0736522 0.183292 -2.874 
-0.0616522 0.183292 -2.874 
-0.0496523 0.183292 -2.874 
-0.0376523 0.183292 -2.874 
-0.0256523 0.183292 -2.874 
-0.0136523 0.183292 -2.874 
-0.00165234 0.183292 -2.874 
0.0104232 0.184631 -2.895 
0.0225109 0.184631 -2.895 
0.0348734 0.186098 -2.918 
0.0470571 0.186098 -2.918 
0.0592408 0.186098 -2.918 
0.0714245 0.186098 -2.918 
0.0842386 0.187501 -2.94 
0.0965141 0.187501 -2.94 
0.109641 0.188968 -2.963 
0.122012 0.188968 -2.963 
0.134384 0.188968 -2.963 
0.146756 0.188968 -2.963 
0.159127 0.188968 -2.963 
0.171499 0.188968 -2.963 
0.18387 0.188968 -2.963 
0.196242 0.188968 -2.963 
0.208613 0.188968 -2.963 
0.220985 0.188968 -2.963 
0.235168 0.190435 -2.986 
0.247636 0.190435 -2.986 
0.260103 0.190435 -2.986 
0.27467 0.191902 -3.009 
0.287234 0.191902 -3.009 
0.302189 0.193432 -3.033 
0.314853 0.193432 -3.033 
0.327517 0.193432 -3.033 
0.34018 0.193432 -3.033 
0.352844 0.193432 -3.033 
0.365508 0.193432 -3.033 
0.381289 0.195027 -3.058 
0.394057 0.195027 -3.058 
0.406826 0.195027 -3.058 
0.419594 0.195027 -3.058 
0.432362 0.195027 -3.058 
0.448624 0.196557 -3.082 
0.461492 0.196557 -3.082 
0.474361 0.196557 -3.082 
0.491182 0.198152 -3.107 
0.504154 0.198152 -3.107 
0.517127 0.198152 -3.107 
0.5301 0.198152 -3.107 
0.547617 0.19981 -3.133 
0.560699 0.19981 -3.133 
0.578542 0.201468 -3.159 
0.596602 0.203126 -3.185 
0.609901 0.203126 -3.185 
0.623199 0.203126 -3.185 
0.636498 0.203126 -3.185 
0.655305 0.204848 -3.212 
0.668716 0.204848 -3.212 
0.682127 0.204848 -3.212 
0.701385 0.20657 -3.239 
0.714909 0.20657 -3.239 
0.728433 0.20657 -3.239 
0.741957 0.20657 -3.239 
0.755481 0.20657 -3.239 
0.769005 0.20657 -3.239 
0.782529 0.20657 -3.239 
0.796053 0.20657 -3.239 
0.809577 0.20657 -3.239 
0.823101 0.20657 -3.239 
0.843857 0.208356 -3.267 
0.857498 0.208356 -3.267 
0.871139 0.208356 -3.267 
0.88478 0.208356 -3.267 
0.883296 0.204848 -3.212 
0.881911 0.201468 -3.159 
0.887734 0.19981 -3.133 
0.879251 0.195027 -3.058 
0.871017 0.190435 -2.986 
0.863365 0.186098 -2.918 
0.855745 0.181889 -2.852 
0.848791 0.177935 -2.79 
0.841936 0.174108 -2.73 
0.8127 0.165817 -2.6 
0.75197 0.151404 -2.374 
0.618557 0.118304 -1.855 
0.605707 0.114414 -1.794 
0.607728 0.113394 -1.778 
0.612038 0.11282 -1.769 
0.616623 0.112309 -1.761 
0.623976 0.112309 -1.761 
0.631329 0.112309 -1.761 
0.63578 0.111799 -1.753 
0.6431 0.111799 -1.753 
0.647451 0.111289 -1.745 
0.654737 0.111289 -1.745 
0.658988 0.110779 -1.737 
0.66624 0.110779 -1.737 
0.670391 0.110269 -1.729 
0.674867 0.109822 -1.722 
0.678888 0.109312 -1.714 
0.686045 0.109312 -1.714 
0.687135 0.108355 -1.699 
0.69096 0.107845 -1.691 
0.695131 0.107399 -1.684 
0.702162 0.107399 -1.684 
0.709193 0.107399 -1.684 
0.712822 0.106888 -1.676 
0.71982 0.106888 -1.676 
0.723782 0.106442 -1.669 
0.727686 0.105996 -1.662 
0.734626 0.105996 -1.662 
0.738442 0.105549 -1.655 
0.745352 0.105549 -1.655 
0.752262 0.105549 -1.655 
0.759172 0.105549 -1.655 
0.769323 0.105996 -1.662 
0.779532 0.106442 -1.669 
0.7865 0.106442 -1.669 
0.793469 0.106442 -1.669 
0.800438 0.106442 -1.669 
0.807406 0.106442 -1.669 
0.817791 0.106888 -1.676 
0.821344 0.106442 -1.669 
0.824838 0.105996 -1.662 
0.828275 0.105549 -1.655 
0.827615 0.104593 -1.64 
0.838024 0.105039 -1.647 
0.844901 0.105039 -1.647 
0.851778 0.105039 -1.647 
0.858655 0.105039 -1.647 
0.865532 0.105039 -1.647 
0.872409 0.105039 -1.647 
0.883556 0.105549 -1.655 
0.897999 0.106442 -1.669 
0.908763 0.106888 -1.676 
0.915761 0.106888 -1.676 
0.927164 0.107399 -1.684 
0.938078 0.107845 -1.691 
0.94961 0.108355 -1.699 
0.965151 0.109312 -1.714 
0.976845 0.109822 -1.722 
0.984035 0.109822 -1.722 
0.991225 0.109822 -1.722 
0.993777 0.109312 -1.714 
1.00561 0.109822 -1.722 
1.0128 0.109822 -1.722 
1.01999 0.109822 -1.722 
1.0224 0.109312 -1.714 
1.02956 0.109312 -1.714 
1.03672 0.109312 -1.714 
1.039 0.108802 -1.706 
1.04612 0.108802 -1.706 
1.05325 0.108802 -1.706 
1.06037 0.108802 -1.706 
1.0725 0.109312 -1.714 
1.0891 0.110269 -1.729 
1.10647 0.111289 -1.745 
1.12907 0.11282 -1.769 
1.1583 0.114988 -1.803 
1.18846 0.11722 -1.838 
1.23128 0.120664 -1.892 
1.27062 0.123725 -1.94 
1.32617 0.128317 -2.012 
1.38565 0.133228 -2.089 
1.41707 0.135396 -2.123 
1.44205 0.136927 -2.147 
1.46791 0.138521 -2.172 
1.47698 0.138521 -2.172 
1.48605 0.138521 -2.172 
1.50338 0.139287 -2.184 
1.5125 0.139287 -2.184 
1.53067 0.140116 -2.197 
1.53984 0.140116 -2.197 
1.54902 0.140116 -2.197 
1.55819 0.140116 -2.197 
1.57593 0.140881 -2.209 
1.58515 0.140881 -2.209 
1.59437 0.140881 -2.209 
1.6036 0.140881 -2.209 
1.61282 0.140881 -2.209 
1.62204 0.140881 -2.209 
1.63127 0.140881 -2.209 
1.64049 0.140881 -2.209 
1.64971 0.140881 -2.209 
1.65894 0.140881 -2.209 
1.6591 0.140116 -2.197 
1.6584 0.139287 -2.184 
1.66752 0.139287 -2.184 
1.66742 0.138521 -2.172 
1.66646 0.137692 -2.159 
1.66616 0.136927 -2.147 
1.66576 0.136162 -2.135 
1.67468 0.136162 -2.135 
1.67413 0.135396 -2.123 
1.67427 0.134695 -2.112 
1.68309 0.134695 -2.112 
1.6823 0.13393 -2.1 
1.68221 0.133228 -2.089 
1.69093 0.133228 -2.089 
1.68989 0.132463 -2.077 
1.68956 0.131761 -2.066 
1.69819 0.131761 -2.066 
1.70682 0.131761 -2.066 
1.70631 0.13106 -2.055 
1.71489 0.13106 -2.055 
1.72347 0.13106 -2.055 
1.73205 0.13106 -2.055 
1.74063 0.13106 -2.055 
1.74921 0.13106 -2.055 
1.75779 0.13106 -2.055 
1.77583 0.131761 -2.066 
1.78445 0.131761 -2.066 
1.79308 0.131761 -2.066 
1.80171 0.131761 -2.066 
1.81033 0.131761 -2.066 
1.82864 0.132463 -2.077 
1.84793 0.133228 -2.089 
1.85665 0.133228 -2.089 
1.8752 0.13393 -2.1 
1.89473 0.134695 -2.112 
1.90355 0.134695 -2.112 
1.92233 0.135396 -2.123 
1.94211 0.136162 -2.135 
1.95102 0.136162 -2.135 
1.97095 0.136927 -2.147 
1.97992 0.136927 -2.147 
1.98888 0.136927 -2.147 
2.00901 0.137692 -2.159 
2.01803 0.137692 -2.159 
2.03925 0.138521 -2.172 
2.04832 0.138521 -2.172 
2.06875 0.139287 -2.184 
2.09024 0.140116 -2.197 
2.11088 0.140881 -2.209 
2.13258 0.14171 -2.222 
2.15439 0.142539 -2.235 
2.17631 0.143368 -2.248 
2.18569 0.143368 -2.248 
2.20875 0.144261 -2.262 
2.23094 0.14509 -2.275 
2.25423 0.145983 -2.289 
2.26379 0.145983 -2.289 
2.28625 0.146812 -2.302 
2.29587 0.146812 -2.302 
2.3195 0.147705 -2.316 
2.32917 0.147705 -2.316 
2.35399 0.148662 -2.331 
-1.71932 0.109009 -1.829 
-1.71168 0.109009 -1.829 
-1.70404 0.109009 -1.829 
-1.69641 0.109009 -1.829 
-1.68877 0.109009 -1.829 
-1.68113 0.109009 -1.829 
-1.6735 0.109009 -1.829 
-1.67406 0.109546 -1.838 
-1.66638 0.109546 -1.838 
-1.66593 0.110023 -1.846 
-1.6663 0.110559 -1.855 
-1.66661 0.111096 -1.864 
-1.65882 0.111096 -1.864 
-1.6599 0.111692 -1.874 
-1.66001 0.112228 -1.883 
-1.65214 0.112228 -1.883 
-1.65214 0.112764 -1.892 
-1.64424 0.112764 -1.892 
-1.63634 0.112764 -1.892 
-1.62844 0.112764 -1.892 
-1.62054 0.112764 -1.892 
-1.61264 0.112764 -1.892 
-1.60474 0.112764 -1.892 
-1.59684 0.112764 -1.892 
-1.58894 0.112764 -1.892 
-1.58104 0.112764 -1.892 
-1.57314 0.112764 -1.892 
-1.57352 0.11336 -1.902 
-1.56558 0.11336 -1.902 
-1.55763 0.11336 -1.902 
-1.55702 0.113897 -1.911 
-1.54905 0.113897 -1.911 
-1.54107 0.113897 -1.911 
-1.54111 0.114493 -1.921 
-1.53309 0.114493 -1.921 
-1.52507 0.114493 -1.921 
-1.51705 0.114493 -1.921 
-1.50903 0.114493 -1.921 
-1.50101 0.114493 -1.921 
-1.49298 0.114493 -1.921 
-1.48496 0.114493 -1.921 
-1.47694 0.114493 -1.921 
-1.46892 0.114493 -1.921 
-1.46775 0.115029 -1.93 
-1.45969 0.115029 -1.93 
-1.45163 0.115029 -1.93 
-1.44357 0.115029 -1.93 
-1.44295 0.115625 -1.94 
-1.43485 0.115625 -1.94 
-1.42675 0.115625 -1.94 
-1.41865 0.115625 -1.94 
-1.41055 0.115625 -1.94 
-1.40245 0.115625 -1.94 
-1.39435 0.115625 -1.94 
-1.39339 0.116221 -1.95 
-1.39236 0.116817 -1.96 
-1.38417 0.116817 -1.96 
-1.37599 0.116817 -1.96 
-1.3678 0.116817 -1.96 
-1.36656 0.117413 -1.97 
-1.35833 0.117413 -1.97 
-1.35696 0.118009 -1.98 
-1.34869 0.118009 -1.98 
-1.34043 0.118009 -1.98 
-1.33216 0.118009 -1.98 
-1.33125 0.118665 -1.991 
-1.32293 0.118665 -1.991 
-1.31462 0.118665 -1.991 
-1.31287 0.119261 -2.001 
-1.30451 0.119261 -2.001 
-1.29616 0.119261 -2.001 
-1.2878 0.119261 -2.001 
-1.27945 0.119261 -2.001 
-1.27109 0.119261 -2.001 
-1.26274 0.119261 -2.001 
-1.26128 0.119916 -2.012 
-1.25288 0.119916 -2.012 
-1.24448 0.119916 -2.012 
-1.23608 0.119916 -2.012 
-1.22768 0.119916 -2.012 
-1.21928 0.119916 -2.012 
-1.21689 0.120512 -2.022 
-1.20845 0.120512 -2.022 
-1.20654 0.121168 -2.033 
-1.19805 0.121168 -2.033 
-1.18956 0.121168 -2.033 
-1.18746 0.121824 -2.044 
-1.17893 0.121824 -2.044 
-1.17039 0.121824 -2.044 
-1.16186 0.121824 -2.044 
-1.15953 0.122479 -2.055 
-1.15095 0.122479 -2.055 
-1.14237 0.122479 -2.055 
-1.13379 0.122479 -2.055 
-1.12521 0.122479 -2.055 
-1.11663 0.122479 -2.055 
-1.11398 0.123135 -2.066 
-1.10535 0.123135 -2.066 
-1.09673 0.123135 -2.066 
-1.09389 0.12379 -2.077 
-1.08522 0.12379 -2.077 
-1.08277 0.124506 -2.089 
-1.07405 0.124506 -2.089 
-1.07093 0.125161 -2.1 
-1.06824 0.125876 -2.112 
-1.05942 0.125876 -2.112 
-1.05607 0.126532 -2.123 
-1.04721 0.126532 -2.123 
-1.04421 0.127247 -2.135 
-1.0353 0.127247 -2.135 
-1.02638 0.127247 -2.135 
-1.02319 0.127962 -2.147 
-1.01422 0.127962 -2.147 
-1.01088 0.128678 -2.159 
-1.00186 0.128678 -2.159 
-0.992847 0.128678 -2.159 
-0.983832 0.128678 -2.159 
-0.974818 0.128678 -2.159 
-0.971619 0.129452 -2.172 
-0.96255 0.129452 -2.172 
-0.958749 0.130168 -2.184 
-0.94963 0.130168 -2.184 
-0.940511 0.130168 -2.184 
-0.936936 0.130943 -2.197 
-0.927762 0.130943 -2.197 
-0.923607 0.131658 -2.209 
-0.914383 0.131658 -2.209 
-0.910487 0.132433 -2.222 
-0.906482 0.133207 -2.235 
-0.89715 0.133207 -2.235 
-0.892982 0.133982 -2.248 
-0.889098 0.134817 -2.262 
-0.884709 0.135591 -2.275 
-0.880596 0.136426 -2.289 
-0.875986 0.137201 -2.302 
-0.866374 0.137201 -2.302 
-0.861973 0.138035 -2.316 
-0.852303 0.138035 -2.316 
-0.842633 0.138035 -2.316 
-0.832963 0.138035 -2.316 
-0.828625 0.138929 -2.331 
-0.818892 0.138929 -2.331 
-0.809159 0.138929 -2.331 
-0.799426 0.138929 -2.331 
-0.794437 0.139763 -2.345 
-0.784645 0.139763 -2.345 
-0.774854 0.139763 -2.345 
-0.765063 0.139763 -2.345 
-0.755272 0.139763 -2.345 
-0.749931 0.140598 -2.359 
-0.744787 0.141492 -2.374 
-0.734875 0.141492 -2.374 
-0.724963 0.141492 -2.374 
-0.71505 0.141492 -2.374 
-0.709594 0.142386 -2.389 
-0.704011 0.14328 -2.404 
-0.693974 0.14328 -2.404 
-0.683936 0.14328 -2.404 
-0.673899 0.14328 -2.404 
-0.663861 0.14328 -2.404 
-0.657903 0.144174 -2.419 
-0.647803 0.144174 -2.419 
-0.641657 0.145068 -2.434 
-0.631494 0.145068 -2.434 
-0.621331 0.145068 -2.434 
-0.615186 0.146021 -2.45 
-0.608907 0.146975 -2.466 
-0.598611 0.146975 -2.466 
-0.588314 0.146975 -2.466 
-0.578018 0.146975 -2.466 
-0.567722 0.146975 -2.466 
-0.557425 0.146975 -2.466 
-0.547129 0.146975 -2.466 
-0.536832 0.146975 -2.466 
-0.526536 0.146975 -2.466 
-0.519589 0.147929 -2.482 
-0.509226 0.147929 -2.482 
-0.498862 0.147929 -2.482 
-0.488499 0.147929 -2.482 
-0.478136 0.147929 -2.482 
-0.470788 0.148882 -2.498 
-0.460358 0.148882 -2.498 
-0.45299 0.149895 -2.515 
-0.442489 0.149895 -2.515 
-0.431988 0.149895 -2.515 
-0.424168 0.150849 -2.531 
-0.413601 0.150849 -2.531 
-0.403033 0.150849 -2.531 
-0.395101 0.151862 -2.548 
-0.384462 0.151862 -2.548 
-0.373823 0.151862 -2.548 
-0.363185 0.151862 -2.548 
-0.354898 0.152876 -2.565 
-0.344188 0.152876 -2.565 
-0.333478 0.152876 -2.565 
-0.324908 0.153889 -2.582 
-0.314127 0.153889 -2.582 
-0.303346 0.153889 -2.582 
-0.294605 0.154962 -2.6 
-0.285713 0.156034 -2.618 
-0.274782 0.156034 -2.618 
-0.265665 0.157107 -2.636 
-0.254659 0.157107 -2.636 
-0.245317 0.15818 -2.654 
-0.235912 0.159312 -2.673 
-0.226349 0.160445 -2.692 
-0.216627 0.161577 -2.711 
-0.206747 0.16271 -2.73 
-0.195348 0.16271 -2.73 
-0.186644 0.165094 -2.77 
-0.175079 0.165094 -2.77 
-0.164694 0.166286 -2.79 
-0.154141 0.167478 -2.81 
-0.142409 0.167478 -2.81 
-0.131652 0.168729 -2.831 
-0.120721 0.169981 -2.852 
-0.108813 0.169981 -2.852 
-0.0976522 0.171292 -2.874 
-0.0856522 0.171292 -2.874 
-0.0736522 0.171292 -2.874 
-0.0616522 0.171292 -2.874 
-0.0496523 0.171292 -2.874 
-0.0376523 0.171292 -2.874 
-0.0256523 0.171292 -2.874 
-0.0136523 0.171292 -2.874 
-0.00166441 0.172544 -2.895 
0.0104232 0.172544 -2.895 
0.0225109 0.172544 -2.895 
0.0348734 0.173915 -2.918 
0.0470571 0.173915 -2.918 
0.0592408 0.173915 -2.918 
0.0714245 0.173915 -2.918 
0.0842386 0.175226 -2.94 
0.0965141 0.175226 -2.94 
0.109641 0.176597 -2.963 
0.122012 0.176597 -2.963 
0.134384 0.176597 -2.963 
0.146756 0.176597 -2.963 
0.159127 0.176597 -2.963 
0.171499 0.176597 -2.963 
0.18387 0.176597 -2.963 
0.196242 0.176597 -2.963 
0.208613 0.176597 -2.963 
0.2227 0.177967 -2.986 
0.235168 0.177967 -2.986 
0.247636 0.177967 -2.986 
0.262107 0.179338 -3.009 
0.27467 0.179338 -3.009 
0.289525 0.180769 -3.033 
0.302189 0.180769 -3.033 
0.314853 0.180769 -3.033 
0.327517 0.180769 -3.033 
0.34018 0.180769 -3.033 
0.352844 0.180769 -3.033 
0.368521 0.182259 -3.058 
0.381289 0.182259 -3.058 
0.394057 0.182259 -3.058 
0.406826 0.182259 -3.058 
0.419594 0.182259 -3.058 
0.432362 0.182259 -3.058 
0.44513 0.182259 -3.058 
0.457899 0.182259 -3.058 
0.474361 0.183689 -3.082 
0.487229 0.183689 -3.082 
0.500098 0.183689 -3.082 
0.517127 0.185179 -3.107 
0.5301 0.185179 -3.107 
0.543073 0.185179 -3.107 
0.560699 0.186729 -3.133 
0.57378 0.186729 -3.133 
0.591732 0.188278 -3.159 
0.609901 0.189828 -3.185 
0.623199 0.189828 -3.185 
0.636498 0.189828 -3.185 
0.655305 0.191437 -3.212 
0.668716 0.191437 -3.212 
0.687861 0.193046 -3.239 
0.701385 0.193046 -3.239 
0.714909 0.193046 -3.239 
0.728433 0.193046 -3.239 
0.741957 0.193046 -3.239 
0.755481 0.193046 -3.239 
0.769005 0.193046 -3.239 
0.782529 0.193046 -3.239 
0.796053 0.193046 -3.239 
0.809577 0.193046 -3.239 
0.823101 0.193046 -3.239 
0.843857 0.194715 -3.267 
0.857498 0.194715 -3.267 
0.871139 0.194715 -3.267 
0.88478 0.194715 -3.267 
0.883296 0.191437 -3.212 
0.881911 0.188278 -3.159 
0.880367 0.185179 -3.107 
0.879251 0.182259 -3.058 
0.871017 0.177967 -2.986 
0.85656 0.172544 -2.895 
0.855745 0.169981 -2.852 
0.848791 0.166286 -2.79 
0.848104 0.163902 -2.75 
0.807074 0.153889 -2.582 
0.629251 0.113897 -1.911 
0.603885 0.107937 -1.811 
0.597266 0.105433 -1.769 
0.604652 0.105433 -1.769 
0.612038 0.105433 -1.769 
0.616623 0.104957 -1.761 
0.623976 0.104957 -1.761 
0.628461 0.10448 -1.753 
0.638682 0.104957 -1.761 
0.6431 0.10448 -1.753 
0.647451 0.104003 -1.745 
0.654737 0.104003 -1.745 
0.662023 0.104003 -1.745 
0.66624 0.103526 -1.737 
0.670391 0.103049 -1.729 
0.674867 0.102632 -1.722 
0.678888 0.102155 -1.714 
0.682843 0.101679 -1.706 
