ply
format ascii 1.0
comment pointcloud saved from Realsense Viewer
element vertex 1802
property float32 x
property float32 y
property float32 z
end_header
-1.37135 2.00100 -0.18987 
-1.37049 2.01200 -0.19091 
-1.33672 2.07700 -0.19708 
-1.30717 2.17200 -0.20610 
-1.30527 2.18400 -0.20724 
-1.29988 2.37400 -0.22526 
-1.28996 2.37400 -0.22526 
-1.25821 2.38900 -0.22669 
-1.24371 2.41900 -0.22953 
-1.21393 2.48200 -0.23551 
-1.19562 2.53100 -0.24016 
-1.19815 2.58200 -0.24500 
-1.19299 2.61800 -0.24842 
-1.17185 2.83100 -0.26863 
-1.16864 2.85200 -0.27062 
-1.16565 2.87400 -0.27271 
-1.15365 2.87400 -0.27271 
-1.13104 2.94000 -0.27897 
-1.09477 3.00900 -0.28552 
-1.09084 3.03300 -0.28779 
-1.06152 3.05800 -0.29017 
-1.03523 3.13300 -0.29728 
-0.87000 3.05800 -0.29017 
-0.86396 3.08200 -0.29244 
-0.81249 3.08200 -0.29244 
-0.73436 3.13300 -0.29728 
-0.11854 3.10700 -0.29482 
-0.10557 3.10700 -0.29482 
0.13234 2.91800 -0.27688 
0.33947 2.91800 -0.27688 
0.37305 2.89500 -0.27470 
0.39435 2.87400 -0.27271 
0.40635 2.87400 -0.27271 
0.43896 2.85200 -0.27062 
0.72063 3.60600 -0.34217 
2.94324 11.58200 -1.09899 
3.39710 12.74000 -1.20887 
3.70479 9.55500 -0.90665 
4.96357 10.92000 -1.03617 
4.86176 9.55500 -0.90665 
4.85998 9.32200 -0.88454 
3.70317 6.16500 -0.58498 
3.41648 5.46000 -0.51809 
3.23127 5.09600 -0.48355 
2.70711 3.98100 -0.37775 
2.72374 3.98100 -0.37775 
2.74036 3.98100 -0.37775 
2.96351 4.15400 -0.39416 
2.98562 4.06600 -0.38581 
2.91630 3.44300 -0.32670 
2.95943 3.44300 -0.32670 
2.95429 3.32400 -0.31541 
2.99731 3.29500 -0.31266 
2.99033 3.18500 -0.30222 
2.97911 3.15900 -0.29975 
2.94305 3.10700 -0.29482 
2.85851 2.94000 -0.27897 
2.83894 2.89500 -0.27470 
-1.50280 1.61300 -0.15979 
-1.45195 1.64700 -0.16316 
-1.45210 1.65500 -0.16395 
-1.43986 1.70600 -0.16900 
-1.38437 1.75300 -0.17366 
-1.38334 1.76100 -0.17445 
-1.37599 1.96000 -0.19416 
-1.36886 2.02200 -0.20031 
-1.32521 2.10000 -0.20803 
-1.32200 2.12300 -0.21031 
-1.32056 2.13500 -0.21150 
-1.30717 2.17200 -0.21517 
-1.30466 2.26200 -0.22408 
-1.31136 2.35900 -0.23369 
-1.30979 2.37400 -0.23518 
-1.29988 2.37400 -0.23518 
-1.29811 2.38900 -0.23666 
-1.19562 2.53100 -0.25073 
-1.18704 2.73000 -0.27044 
-1.19286 2.77000 -0.27441 
-1.18983 2.79000 -0.27639 
-1.17185 2.83100 -0.28045 
-1.09887 2.98600 -0.29580 
-1.09477 3.00900 -0.29808 
-1.03961 3.10700 -0.30779 
-1.02582 3.18500 -0.31552 
-0.97262 3.18500 -0.31552 
-0.95932 3.18500 -0.31552 
-0.90442 3.13300 -0.31036 
-0.83278 3.15900 -0.31294 
-0.79321 3.15900 -0.31294 
-0.67450 3.15900 -0.31294 
-0.62971 3.13300 -0.31036 
-0.54665 3.10700 -0.30779 
-0.45217 3.08200 -0.30531 
-0.34367 3.03300 -0.30046 
-0.20605 3.05800 -0.30294 
-0.16906 3.08200 -0.30531 
-0.15619 3.08200 -0.30531 
-0.00176 3.05800 -0.30294 
0.15671 2.91800 -0.28907 
0.21763 2.91800 -0.28907 
0.25418 2.91800 -0.28907 
0.38514 2.89500 -0.28679 
0.40932 2.89500 -0.28679 
0.57854 3.15900 -0.31294 
0.77975 3.82200 -0.37862 
1.11000 5.02900 -0.49819 
1.21061 5.38300 -0.53326 
2.14730 8.88800 -0.88047 
3.39710 12.74000 -1.26206 
3.23339 11.58200 -1.14735 
1.96452 6.37000 -0.63103 
3.58511 9.55500 -0.94655 
4.41643 10.92000 -1.08177 
4.97221 9.10000 -0.90147 
3.91555 6.70500 -0.66422 
3.66205 5.97200 -0.59160 
3.52214 5.70500 -0.56515 
3.41648 5.46000 -0.54088 
2.84448 4.34300 -0.43023 
2.97084 4.02300 -0.39853 
2.91258 3.90000 -0.38635 
2.79439 3.64000 -0.36059 
2.74027 3.47500 -0.34424 
2.76578 3.38200 -0.33503 
2.87317 3.44300 -0.34107 
2.91439 3.47500 -0.34424 
2.98693 3.47500 -0.34424 
2.99407 3.35300 -0.33216 
3.05234 3.29500 -0.32641 
3.05368 3.26700 -0.32364 
3.04103 3.23900 -0.32087 
3.00363 3.18500 -0.31552 
2.99878 3.05800 -0.30294 
-1.49606 1.61300 -0.16652 
-1.46239 1.61300 -0.16652 
-1.45263 1.64000 -0.16931 
-1.45195 1.64700 -0.17003 
-1.43179 1.72200 -0.17778 
-1.40874 1.72900 -0.17850 
-1.39263 1.74500 -0.18015 
-1.37315 1.78600 -0.18438 
-1.38301 1.97000 -0.20338 
-1.38176 1.98000 -0.20441 
-1.34962 2.04400 -0.21102 
-1.33826 2.06600 -0.21329 
-1.33572 2.08900 -0.21567 
-1.32397 2.11200 -0.21804 
-1.32200 2.12300 -0.21918 
-1.32056 2.13500 -0.22041 
-1.31164 2.13500 -0.22041 
-1.30836 2.15900 -0.22289 
-1.29842 2.23500 -0.23074 
-1.29988 2.37400 -0.24509 
-1.13104 2.94000 -0.30352 
-1.11515 2.96300 -0.30590 
-1.08220 3.00900 -0.31064 
-1.03961 3.10700 -0.32076 
-0.99922 3.18500 -0.32881 
-0.87953 3.18500 -0.32881 
-0.79311 3.21200 -0.33160 
-0.66131 3.15900 -0.32613 
-0.64812 3.15900 -0.32613 
-0.61663 3.13300 -0.32345 
-0.53367 3.10700 -0.32076 
-0.49077 3.08200 -0.31818 
-0.40699 3.03300 -0.31312 
-0.38166 3.03300 -0.31312 
-0.35351 3.00900 -0.31064 
-0.31341 2.98600 -0.30827 
-0.30094 2.98600 -0.30827 
-0.26354 2.98600 -0.30827 
-0.19328 3.05800 -0.31570 
-0.10557 3.10700 -0.32076 
0.01101 3.05800 -0.31570 
0.08556 2.98600 -0.30827 
0.09802 2.98600 -0.30827 
0.20544 2.91800 -0.30125 
0.26837 2.94000 -0.30352 
0.31747 2.94000 -0.30352 
0.35430 2.94000 -0.30352 
0.36658 2.94000 -0.30352 
0.44235 2.87400 -0.29671 
0.49785 2.91800 -0.30125 
0.52192 2.98600 -0.30827 
0.54728 3.05800 -0.31570 
0.67994 3.47500 -0.35875 
0.93293 4.39300 -0.45353 
1.85188 7.80000 -0.80526 
2.85658 11.24100 -1.16050 
3.23339 11.58200 -1.19571 
3.09418 10.92000 -1.12736 
1.87434 5.62100 -0.58030 
2.01632 5.97200 -0.61654 
3.79979 9.80000 -1.01174 
4.09155 10.33000 -1.06645 
4.37083 10.92000 -1.12736 
5.07992 11.94400 -1.23308 
5.17966 11.94400 -1.23308 
5.11939 11.58200 -1.19571 
5.02734 9.80000 -1.01174 
4.89349 8.88800 -0.91758 
4.42474 7.80000 -0.80526 
3.81004 6.47800 -0.66878 
3.52214 5.70500 -0.58898 
2.85888 4.39300 -0.45353 
2.70711 3.98100 -0.41099 
2.99820 4.15400 -0.42885 
3.00076 4.11000 -0.42431 
2.98562 4.06600 -0.41977 
2.97084 4.02300 -0.41533 
2.89957 3.86100 -0.39860 
2.84890 3.71100 -0.38312 
2.76472 3.50600 -0.36195 
2.89988 3.47500 -0.35875 
2.91439 3.47500 -0.35875 
2.95502 3.50600 -0.36195 
2.96966 3.50600 -0.36195 
3.03131 3.44300 -0.35545 
3.07614 3.41300 -0.35235 
3.06233 3.38200 -0.34915 
3.07807 3.35300 -0.34616 
3.10607 3.35300 -0.34616 
3.06933 3.21200 -0.33160 
3.12332 3.18500 -0.32881 
3.16321 3.21200 -0.33160 
3.23101 3.26700 -0.33728 
-1.49628 1.60600 -0.17251 
-1.48957 1.60600 -0.17251 
-1.46197 1.62000 -0.17401 
-1.44347 1.66900 -0.17927 
-1.44253 1.67600 -0.18003 
-1.44239 1.68400 -0.18089 
-1.44132 1.69100 -0.18164 
-1.42561 1.70600 -0.18325 
-1.41741 1.72200 -0.18497 
-1.41022 1.72200 -0.18497 
-1.39992 1.74500 -0.18744 
-1.38437 1.75300 -0.18830 
-1.37476 1.83800 -0.19743 
-1.37498 1.90200 -0.20430 
-1.38176 1.98000 -0.21268 
-1.38113 1.99100 -0.21386 
-1.36042 2.02200 -0.21719 
-1.35933 2.03300 -0.21837 
-1.34962 2.04400 -0.21955 
-1.30109 2.14700 -0.23062 
-1.28814 2.38900 -0.25661 
-1.21132 2.49800 -0.26832 
-1.19832 2.65400 -0.28508 
-1.19573 2.67300 -0.28712 
-1.19286 2.77000 -0.29754 
-1.13476 2.91800 -0.31343 
-1.09887 2.98600 -0.32074 
-1.08640 2.98600 -0.32074 
-1.04875 3.05800 -0.32847 
-1.03912 3.18500 -0.34211 
-1.00264 3.23900 -0.34791 
-0.91381 3.21200 -0.34501 
-0.86740 3.23900 -0.34791 
-0.69923 3.21200 -0.34501 
-0.68582 3.21200 -0.34501 
-0.60354 3.13300 -0.33653 
-0.47418 3.05800 -0.32847 
-0.46142 3.05800 -0.32847 
-0.44498 3.03300 -0.32579 
-0.36328 2.98600 -0.32074 
-0.34811 2.96300 -0.31827 
-0.28403 2.94000 -0.31580 
-0.20605 3.05800 -0.32847 
-0.11854 3.10700 -0.33373 
-0.10557 3.10700 -0.33373 
-0.09260 3.10700 -0.33373 
0.01101 3.05800 -0.32847 
0.08690 3.03300 -0.32579 
0.09878 3.00900 -0.32321 
0.12296 2.98600 -0.32074 
0.17150 2.96300 -0.31827 
0.23155 2.94000 -0.31580 
0.24382 2.94000 -0.31580 
0.28284 2.96300 -0.31827 
0.34203 2.94000 -0.31580 
0.37885 2.94000 -0.31580 
0.44558 2.89500 -0.31096 
0.50161 2.94000 -0.31580 
0.79567 3.90000 -0.41891 
1.81484 7.64400 -0.82107 
2.77501 10.92000 -1.17296 
3.23602 12.32900 -1.32430 
3.28750 12.32900 -1.32430 
1.74781 5.30800 -0.57015 
3.55428 9.80000 -1.05265 
3.89982 10.05800 -1.08037 
5.32927 11.94400 -1.28295 
5.29721 11.24100 -1.20744 
5.07570 10.05800 -1.08037 
5.10918 9.80000 -1.05265 
5.05459 9.32200 -1.00131 
3.91555 6.70500 -0.72021 
3.64431 6.06700 -0.65168 
3.04958 4.77800 -0.51322 
2.68528 4.02300 -0.43213 
2.72859 3.94000 -0.42321 
2.83661 3.67500 -0.39475 
2.81346 3.60600 -0.38733 
2.74838 3.41300 -0.36660 
2.77688 3.41300 -0.36660 
2.81964 3.41300 -0.36660 
3.04194 3.53900 -0.38014 
3.11890 3.41300 -0.36660 
3.14864 3.29500 -0.35393 
3.16281 3.26700 -0.35092 
3.20373 3.26700 -0.35092 
-1.49628 1.60600 -0.17921 
-1.48287 1.60600 -0.17921 
-1.46197 1.62000 -0.18077 
-1.45381 1.62600 -0.18144 
-1.44436 1.66200 -0.18546 
-1.44347 1.66900 -0.18624 
-1.41741 1.72200 -0.19216 
-1.40874 1.72900 -0.19294 
-1.40075 1.73700 -0.19383 
-1.39350 1.73700 -0.19383 
-1.39263 1.74500 -0.19472 
-1.38534 1.74500 -0.19472 
-1.37198 1.85500 -0.20700 
-1.37498 1.90200 -0.21224 
-1.34108 2.04400 -0.22809 
-1.33972 2.05500 -0.22932 
-1.29469 2.19700 -0.24516 
-1.30266 2.27500 -0.25387 
-1.30851 2.30200 -0.25688 
-1.30680 2.31600 -0.25844 
-1.23110 2.43400 -0.27161 
-1.22669 2.46600 -0.27518 
-1.21640 2.46600 -0.27518 
-1.19565 2.60000 -0.29013 
-1.19844 2.73000 -0.30464 
-1.19836 2.81000 -0.31357 
-1.18054 2.85200 -0.31825 
-1.15913 2.91800 -0.32562 
-1.07817 3.03300 -0.33845 
-1.06551 3.03300 -0.33845 
-1.04412 3.08200 -0.34392 
-0.84112 3.29500 -0.36769 
-0.76577 3.26700 -0.36456 
-0.73216 3.23900 -0.36144 
-0.69923 3.21200 -0.35842 
-0.55512 3.08200 -0.34392 
-0.48297 3.03300 -0.33845 
-0.42562 2.98600 -0.33321 
-0.22613 2.98600 -0.33321 
-0.18051 3.05800 -0.34124 
-0.14333 3.08200 -0.34392 
-0.09185 3.08200 -0.34392 
-0.02751 3.08200 -0.34392 
0.18387 2.96300 -0.33064 
0.27047 2.96300 -0.33064 
0.36658 2.94000 -0.32807 
0.44558 2.89500 -0.32305 
0.46975 2.89500 -0.32305 
0.52192 2.98600 -0.33321 
0.55157 3.08200 -0.34392 
0.86483 4.15400 -0.46354 
2.00742 8.30900 -0.92719 
2.69801 10.61700 -1.18474 
2.51287 8.49300 -0.94773 
1.67916 5.16500 -0.57636 
1.74781 5.30800 -0.59232 
3.07771 8.68600 -0.96926 
3.59519 9.80000 -1.09357 
3.85783 10.05800 -1.12236 
4.88044 11.94400 -1.33282 
5.47166 12.74000 -1.42164 
5.32927 11.94400 -1.33282 
5.42901 11.94400 -1.33282 
5.37392 10.92000 -1.21855 
5.25610 10.33000 -1.15272 
4.51720 7.96300 -0.88858 
3.91555 6.70500 -0.74821 
3.52688 5.79100 -0.64621 
3.29921 5.30800 -0.59232 
3.23189 5.16500 -0.57636 
2.82634 4.34300 -0.48463 
2.69568 3.94000 -0.43966 
2.71214 3.94000 -0.43966 
2.92886 3.90000 -0.43520 
2.91816 3.82200 -0.42649 
2.86440 3.71100 -0.41411 
2.82852 3.60600 -0.40239 
2.79074 3.53900 -0.39491 
2.99761 3.53900 -0.39491 
3.10141 3.50600 -0.39123 
3.11605 3.50600 -0.39123 
3.10301 3.47500 -0.38777 
3.13203 3.47500 -0.38777 
3.14705 3.38200 -0.37739 
3.42221 3.47500 -0.38777 
3.58134 3.60600 -0.40239 
3.71661 3.71100 -0.41411 
-1.50298 1.60600 -0.18592 
-1.44844 1.62000 -0.18754 
-1.42561 1.70600 -0.19749 
-1.41798 1.71400 -0.19842 
-1.38534 1.74500 -0.20201 
-1.38334 1.76100 -0.20386 
-1.38525 1.95000 -0.22574 
-1.38417 1.96000 -0.22690 
-1.38301 1.97000 -0.22806 
-1.37971 2.00100 -0.23165 
-1.33255 2.04400 -0.23662 
-1.32101 2.06600 -0.23917 
-1.31937 2.07700 -0.24044 
-1.29810 2.17200 -0.25144 
-1.29615 2.18400 -0.25283 
-1.31068 2.28900 -0.26499 
-1.26159 2.43400 -0.28177 
-1.23919 2.45000 -0.28362 
-1.22896 2.45000 -0.28362 
-1.22429 2.48200 -0.28733 
-1.18367 2.83100 -0.32773 
-1.18054 2.85200 -0.33016 
-1.14694 2.91800 -0.33780 
-1.03961 3.10700 -0.35968 
-1.03912 3.18500 -0.36871 
-0.75288 3.21200 -0.37184 
-0.66131 3.15900 -0.36570 
-0.64279 3.13300 -0.36269 
-0.61151 3.10700 -0.35968 
-0.57633 3.05800 -0.35401 
-0.42234 2.96300 -0.34301 
-0.39759 2.96300 -0.34301 
-0.29177 2.89500 -0.33514 
-0.26972 2.91800 -0.33780 
-0.24720 2.94000 -0.34035 
-0.23676 2.96300 -0.34301 
-0.15498 3.05800 -0.35401 
-0.11759 3.08200 -0.35679 
-0.04038 3.08200 -0.35679 
-0.02751 3.08200 -0.35679 
0.01110 3.08200 -0.35679 
0.04931 3.05800 -0.35401 
0.11223 3.03300 -0.35111 
0.14789 2.98600 -0.34567 
0.24573 2.96300 -0.34301 
0.30997 2.98600 -0.34567 
0.35707 2.96300 -0.34301 
0.39113 2.94000 -0.34035 
0.46130 2.91800 -0.33780 
0.52594 3.00900 -0.34834 
0.74162 3.71100 -0.42960 
0.80383 3.94000 -0.45611 
0.94376 4.44400 -0.51446 
1.19374 5.30800 -0.61448 
2.97013 10.33000 -1.19585 
2.71923 9.32200 -1.07916 
1.67916 5.16500 -0.59792 
1.98526 5.88000 -0.68070 
3.68984 10.05800 -1.16436 
3.81583 10.05800 -1.16436 
5.34662 12.32900 -1.42726 
5.39108 11.24100 -1.30131 
5.28273 10.92000 -1.26415 
5.04820 9.10000 -1.05346 
4.67878 8.30900 -0.96189 
4.23084 7.35000 -0.85087 
3.50270 5.79100 -0.67039 
2.88901 4.49700 -0.52059 
2.70088 3.90000 -0.45148 
2.73345 3.90000 -0.45148 
2.92886 3.90000 -0.45148 
2.82852 3.60600 -0.41745 
2.74379 3.44300 -0.39858 
3.16069 3.44300 -0.39858 
3.16165 3.41300 -0.39510 
3.27565 3.41300 -0.39510 
3.34757 3.44300 -0.39858 
3.43810 3.50600 -0.40587 
3.79586 3.82200 -0.44245 
3.94595 3.94000 -0.45611 
-1.48976 1.59900 -0.19178 
-1.47751 1.59300 -0.19106 
-1.41849 1.70600 -0.20462 
-1.40152 1.72900 -0.20738 
-1.38437 1.75300 -0.21025 
-1.38334 1.76100 -0.21121 
-1.37086 1.86400 -0.22357 
-1.37039 1.87400 -0.22477 
-1.38069 1.92100 -0.23040 
-1.37478 1.97000 -0.23628 
-1.37135 2.00100 -0.24000 
-1.36300 2.00100 -0.24000 
-1.34353 2.02200 -0.24252 
-1.32256 2.05500 -0.24648 
-1.32101 2.06600 -0.24780 
-1.31645 2.10000 -0.25187 
-1.29615 2.18400 -0.26195 
-1.30597 2.24800 -0.26963 
-1.31526 2.33100 -0.27958 
-1.31337 2.34500 -0.28126 
-1.29988 2.37400 -0.28474 
-1.27615 2.40400 -0.28834 
-1.27401 2.41900 -0.29013 
-1.22429 2.48200 -0.29769 
-1.04875 3.05800 -0.36678 
-1.00425 3.15900 -0.37889 
-0.98291 3.13300 -0.37577 
-0.96178 3.10700 -0.37265 
-0.52558 2.91800 -0.34998 
-0.36165 2.87400 -0.34471 
-0.34965 2.87400 -0.34471 
-0.32565 2.87400 -0.34471 
-0.27765 2.87400 -0.34471 
-0.25550 2.89500 -0.34723 
-0.17762 3.00900 -0.36090 
-0.14221 3.05800 -0.36678 
-0.09114 3.05800 -0.36678 
-0.07837 3.05800 -0.36678 
0.06208 3.05800 -0.36678 
0.12490 3.03300 -0.36378 
0.18387 2.96300 -0.35538 
0.21927 2.94000 -0.35262 
0.25810 2.96300 -0.35538 
0.28284 2.96300 -0.35538 
0.30997 2.98600 -0.35814 
0.35707 2.96300 -0.35538 
0.50553 2.96300 -0.35538 
0.65356 3.41300 -0.40936 
0.86483 4.15400 -0.49823 
1.34693 5.88000 -0.70525 
2.65447 9.10000 -1.09145 
1.78325 5.70500 -0.68426 
1.59308 4.96400 -0.59538 
1.84700 5.53900 -0.66435 
3.73184 10.05800 -1.20635 
3.96215 10.33000 -1.23898 
4.98628 12.32900 -1.47874 
5.08923 12.32900 -1.47874 
5.31208 12.74000 -1.52803 
5.41847 12.74000 -1.52803 
5.22953 11.94400 -1.43256 
5.37392 10.92000 -1.30974 
5.35780 10.61700 -1.27340 
5.25610 10.33000 -1.23898 
4.23084 7.35000 -0.88156 
4.02903 6.94900 -0.83346 
3.04748 4.83800 -0.58027 
2.99222 4.71900 -0.56600 
2.90406 4.55000 -0.54573 
2.73803 4.15400 -0.49823 
2.72619 4.11000 -0.49295 
2.72224 3.86100 -0.46309 
2.75448 3.86100 -0.46309 
2.84744 3.90000 -0.46777 
2.88914 3.78400 -0.45385 
2.75817 3.44300 -0.41295 
2.79114 3.41300 -0.40936 
2.80539 3.41300 -0.40936 
2.85880 3.44300 -0.41295 
2.98284 3.53900 -0.42447 
2.99761 3.53900 -0.42447 
3.11583 3.53900 -0.42447 
3.16165 3.41300 -0.40936 
3.30444 3.44300 -0.41295 
3.61917 3.67500 -0.44078 
-1.46421 1.59300 -0.19772 
-1.44844 1.62000 -0.20107 
-1.43535 1.68400 -0.20901 
-1.41849 1.70600 -0.21174 
-1.38624 1.73700 -0.21559 
-1.38534 1.74500 -0.21658 
-1.37599 1.76100 -0.21857 
-1.37198 1.85500 -0.23023 
-1.37565 1.89200 -0.23483 
-1.37351 1.91100 -0.23718 
-1.30768 2.10000 -0.26064 
-1.31313 2.12300 -0.26350 
-1.31136 2.35900 -0.29279 
-1.27615 2.40400 -0.29837 
-1.26159 2.43400 -0.30210 
-1.24942 2.45000 -0.30408 
-1.20392 2.61800 -0.32493 
-1.19573 2.67300 -0.33176 
-1.19844 2.73000 -0.33883 
-1.19286 2.77000 -0.34380 
-1.14332 2.94000 -0.36490 
-1.12752 2.96300 -0.36775 
-1.09887 2.98600 -0.37061 
-1.09477 3.00900 -0.37346 
-1.03523 3.13300 -0.38885 
-0.95404 3.08200 -0.38252 
-0.85606 3.00900 -0.37346 
-0.81223 3.03300 -0.37644 
-0.75555 3.00900 -0.37346 
-0.68744 2.98600 -0.37061 
-0.55365 2.87400 -0.35671 
-0.53751 2.85200 -0.35398 
-0.46422 2.77000 -0.34380 
-0.38326 2.77000 -0.34380 
-0.29493 2.81000 -0.34876 
-0.21038 2.94000 -0.36490 
-0.12944 3.05800 -0.37954 
0.11223 3.03300 -0.37644 
0.12391 3.00900 -0.37346 
0.14789 2.98600 -0.37061 
0.31996 2.96300 -0.36775 
0.33491 2.98600 -0.37061 
0.36944 2.96300 -0.36775 
0.48933 2.94000 -0.36490 
1.51096 6.47800 -0.80402 
2.04211 8.30900 -1.03127 
2.40606 8.13200 -1.00930 
1.75699 5.62100 -0.69765 
1.59308 4.96400 -0.61611 
2.17729 6.37000 -0.79061 
2.40421 6.94900 -0.86248 
3.68984 10.05800 -1.24835 
5.12979 11.94400 -1.48243 
5.21611 11.58200 -1.43750 
5.10947 11.24100 -1.39518 
5.20334 11.24100 -1.39518 
5.25028 11.24100 -1.39518 
5.29721 11.24100 -1.39518 
5.27285 9.80000 -1.21633 
5.17136 9.32200 -1.15700 
4.23084 7.35000 -0.91225 
3.65169 6.16500 -0.76517 
3.53198 5.88000 -0.72980 
3.00968 4.77800 -0.59302 
2.76387 4.24700 -0.52712 
2.65775 3.86100 -0.47921 
2.64687 3.82200 -0.47437 
2.79049 3.82200 -0.47437 
2.82241 3.82200 -0.47437 
2.90220 3.82200 -0.47437 
2.82852 3.60600 -0.44756 
2.81676 3.57200 -0.44334 
2.76929 3.47500 -0.43130 
2.76263 3.41300 -0.42361 
2.80539 3.41300 -0.42361 
2.89988 3.47500 -0.43130 
3.02557 3.57200 -0.44334 
3.11605 3.50600 -0.43515 
3.14654 3.47500 -0.43130 
3.14740 3.41300 -0.42361 
4.34956 4.34300 -0.53903 
-1.45778 1.58600 -0.20347 
-1.44426 1.59300 -0.20437 
-1.44934 1.60600 -0.20604 
-1.43961 1.63300 -0.20950 
-1.38534 1.74500 -0.22387 
-1.37485 1.76900 -0.22695 
-1.37181 1.79400 -0.23015 
-1.36803 1.82900 -0.23464 
-1.37198 1.85500 -0.23798 
-1.37104 1.93000 -0.24760 
-1.34787 1.99100 -0.25543 
-1.34529 2.01200 -0.25812 
-1.31238 2.06600 -0.26505 
-1.31005 2.14700 -0.27544 
-1.30836 2.15900 -0.27698 
-1.30387 2.19700 -0.28185 
-1.30176 2.20900 -0.28339 
-1.31526 2.33100 -0.29905 
-1.31136 2.35900 -0.30264 
-1.28619 2.40400 -0.30841 
-1.27175 2.43400 -0.31226 
-1.22429 2.48200 -0.31842 
-1.19299 2.69200 -0.34536 
-1.18983 2.79000 -0.35793 
-1.16208 2.89500 -0.37140 
-1.03961 3.10700 -0.39860 
-1.02664 3.10700 -0.39860 
-1.02215 3.13300 -0.40193 
-0.87325 2.94000 -0.37717 
-0.77528 2.89500 -0.37140 
-0.73365 2.87400 -0.36871 
-0.70965 2.87400 -0.36871 
-0.68040 2.85200 -0.36589 
-0.50311 2.73000 -0.35023 
-0.15249 3.00900 -0.38603 
-0.14105 3.03300 -0.38911 
-0.12838 3.03300 -0.38911 
-0.05240 3.03300 -0.38911 
0.09878 3.00900 -0.38603 
0.11049 2.98600 -0.38308 
0.14676 2.96300 -0.38013 
0.15913 2.96300 -0.38013 
0.20544 2.91800 -0.37435 
0.33233 2.96300 -0.38013 
0.40340 2.94000 -0.37717 
0.47349 2.91800 -0.37435 
0.55157 3.08200 -0.39539 
0.80383 3.94000 -0.50547 
1.21061 5.38300 -0.69059 
1.32654 5.79100 -0.74293 
2.17104 8.68600 -1.11433 
2.71134 10.33000 -1.32524 
2.95739 10.92000 -1.40093 
2.92700 10.33000 -1.32524 
2.53371 8.68600 -1.11433 
2.03984 6.70500 -0.86019 
1.82066 5.46000 -0.70047 
4.93031 11.94400 -1.53230 
5.10947 11.24100 -1.44211 
5.19154 10.92000 -1.40093 
5.32833 10.92000 -1.40093 
5.40213 10.61700 -1.36206 
4.61307 8.13200 -1.04326 
4.45730 7.80000 -1.00067 
3.12579 5.02900 -0.64517 
2.76387 4.24700 -0.54485 
2.71398 4.06600 -0.52163 
2.66832 3.90000 -0.50033 
2.65751 3.74700 -0.48071 
2.72009 3.74700 -0.48071 
2.76929 3.47500 -0.44581 
3.01239 3.53900 -0.45402 
3.05539 3.57200 -0.45825 
3.13194 3.44300 -0.44170 
3.13293 3.38200 -0.43388 
3.40883 3.50600 -0.44979 
4.28256 4.29400 -0.55088 
4.39964 4.39300 -0.56358 
-1.45794 1.57900 -0.20916 
-1.45778 1.58600 -0.21009 
-1.44453 1.58600 -0.21009 
-1.44168 1.62000 -0.21460 
-1.43651 1.66900 -0.22109 
-1.42854 1.67600 -0.22201 
-1.42014 1.69100 -0.22400 
-1.39584 1.72200 -0.22811 
-1.37599 1.76100 -0.23327 
-1.37485 1.76900 -0.23433 
-1.36708 1.83800 -0.24347 
-1.36533 1.84600 -0.24453 
-1.37086 1.86400 -0.24692 
-1.36911 1.88300 -0.24943 
-1.37005 1.94000 -0.25698 
-1.36780 1.96000 -0.25963 
-1.35696 1.98000 -0.26228 
-1.30768 2.10000 -0.27818 
-1.30387 2.19700 -0.29103 
-1.30176 2.20900 -0.29262 
-1.30015 2.22200 -0.29434 
-1.28411 2.41900 -0.32044 
-1.23465 2.48200 -0.32878 
-1.21956 2.51500 -0.33315 
-1.20906 2.51500 -0.33315 
-1.20365 2.54800 -0.33752 
-1.20120 2.63600 -0.34918 
-1.19299 2.69200 -0.35660 
-1.16565 2.87400 -0.38071 
-1.07817 3.03300 -0.40177 
-1.06551 3.03300 -0.40177 
-0.97215 3.05800 -0.40508 
-0.80540 2.79000 -0.36958 
-0.73644 2.75000 -0.36428 
-0.70200 2.75000 -0.36428 
-0.67409 2.73000 -0.36163 
-0.61281 2.71100 -0.35912 
-0.55957 2.67300 -0.35408 
-0.42987 2.56500 -0.33978 
-0.41638 2.54800 -0.33752 
-0.25234 2.73000 -0.36163 
-0.24271 2.75000 -0.36428 
0.06109 3.00900 -0.39859 
0.17017 2.94000 -0.38945 
0.18108 2.91800 -0.38654 
0.25610 2.94000 -0.38945 
0.31996 2.96300 -0.39250 
0.34470 2.96300 -0.39250 
0.36658 2.94000 -0.38945 
0.43694 2.91800 -0.38654 
0.52594 3.00900 -0.39859 
0.69246 3.53900 -0.46880 
0.74162 3.71100 -0.49158 
0.86483 4.15400 -0.55026 
1.11000 5.02900 -0.66617 
2.75447 10.33000 -1.36837 
2.91966 10.61700 -1.40639 
2.30783 7.80000 -1.03323 
2.16367 7.21100 -0.95521 
1.63494 5.02900 -0.66617 
2.36131 6.82500 -0.90408 
2.67659 7.64400 -1.01257 
3.98358 10.61700 -1.40639 
4.68416 11.58200 -1.53422 
4.82924 11.58200 -1.53422 
4.97432 11.58200 -1.53422 
5.02268 11.58200 -1.53422 
4.96867 11.24100 -1.48905 
5.01560 11.24100 -1.48905 
5.10035 10.92000 -1.44653 
5.14595 10.92000 -1.44653 
3.61897 6.06700 -0.80367 
3.34809 5.46000 -0.72326 
3.27704 5.30800 -0.70313 
2.71888 4.02300 -0.53291 
2.70711 3.98100 -0.52735 
2.69568 3.94000 -0.52192 
2.68880 3.74700 -0.49635 
2.70945 3.71100 -0.49158 
2.79435 3.78400 -0.50125 
2.79114 3.41300 -0.45211 
2.81964 3.41300 -0.45211 
2.87317 3.44300 -0.45608 
2.96966 3.50600 -0.46443 
3.04194 3.53900 -0.46880 
3.10141 3.50600 -0.46443 
3.08881 3.44300 -0.45608 
3.10318 3.44300 -0.45608 
3.10469 3.38200 -0.44800 
3.18942 3.38200 -0.44800 
3.24715 3.41300 -0.45211 
3.37868 3.47500 -0.46032 
-1.42720 1.69100 -0.23106 
-1.41849 1.70600 -0.23311 
-1.39584 1.72200 -0.23530 
-1.38865 1.72200 -0.23530 
-1.38708 1.72900 -0.23625 
-1.37806 1.74500 -0.23844 
-1.37485 1.76900 -0.24172 
-1.37315 1.78600 -0.24404 
-1.36969 1.81100 -0.24746 
-1.36889 1.82000 -0.24869 
-1.36708 1.83800 -0.25115 
-1.32849 2.01200 -0.27492 
-1.31548 2.04400 -0.27930 
-1.31164 2.13500 -0.29173 
-1.30527 2.18400 -0.29842 
-1.30176 2.20900 -0.30184 
-1.31526 2.33100 -0.31851 
-1.28814 2.38900 -0.32644 
-1.26159 2.43400 -0.33259 
-1.23699 2.46600 -0.33696 
-1.17818 2.79000 -0.38123 
-1.16565 2.87400 -0.39271 
-1.14694 2.91800 -0.39872 
-1.12752 2.96300 -0.40487 
-0.85270 2.83100 -0.38683 
-0.63114 2.60000 -0.35527 
-0.57286 2.58200 -0.35281 
-0.45299 2.51500 -0.34365 
-0.43950 2.49800 -0.34133 
-0.28375 2.60000 -0.35527 
-0.26385 2.61800 -0.35773 
-0.20408 2.85200 -0.38970 
-0.17355 2.94000 -0.40173 
-0.15133 2.98600 -0.40801 
-0.07711 3.00900 -0.41115 
-0.02665 2.98600 -0.40801 
0.02322 2.98600 -0.40801 
0.09802 2.98600 -0.40801 
0.14562 2.94000 -0.40173 
0.15671 2.91800 -0.39872 
0.21763 2.91800 -0.39872 
0.26837 2.94000 -0.40173 
0.28284 2.96300 -0.40487 
0.42475 2.91800 -0.39872 
0.44912 2.91800 -0.39872 
0.64762 3.38200 -0.46212 
0.80383 3.94000 -0.53837 
1.21061 5.38300 -0.73554 
1.59190 6.70500 -0.91618 
1.74215 7.21100 -0.98532 
2.07681 8.30900 -1.13535 
1.57255 4.90000 -0.66954 
2.10722 6.16500 -0.84239 
4.32524 10.92000 -1.49212 
4.49932 11.24100 -1.53598 
4.92173 11.24100 -1.53598 
4.96867 11.24100 -1.53598 
4.87238 10.92000 -1.49212 
4.91797 10.92000 -1.49212 
4.96357 10.92000 -1.49212 
5.00316 10.61700 -1.45072 
5.09182 10.61700 -1.45072 
5.13615 10.61700 -1.45072 
5.18048 10.61700 -1.45072 
5.26914 10.61700 -1.45072 
5.36967 10.05800 -1.37434 
4.10382 7.07800 -0.96715 
3.14679 5.02900 -0.68717 
2.82634 4.34300 -0.59343 
2.76051 4.11000 -0.56160 
2.74794 4.06600 -0.55558 
2.67878 3.82200 -0.52224 
2.68880 3.74700 -0.51200 
2.77855 3.78400 -0.51705 
2.86089 3.74700 -0.51200 
2.86440 3.71100 -0.50708 
2.85195 3.67500 -0.50216 
2.80863 3.50600 -0.47906 
2.88755 3.44300 -0.47046 
3.02822 3.50600 -0.47906 
3.04497 3.47500 -0.47483 
3.05948 3.47500 -0.47483 
3.08881 3.44300 -0.47046 
3.26140 3.41300 -0.46636 
4.86551 4.83800 -0.66107 
-1.45247 1.56600 -0.22052 
-1.45240 1.57300 -0.22150 
-1.43816 1.57900 -0.22235 
-1.43761 1.59300 -0.22432 
-1.43634 1.59900 -0.22517 
-1.40424 1.70600 -0.24023 
-1.37899 1.73700 -0.24460 
-1.37442 1.77800 -0.25037 
-1.37116 1.80300 -0.25389 
-1.36424 1.85500 -0.26122 
-1.36195 1.94000 -0.27318 
-1.35268 1.95000 -0.27459 
-1.33793 2.00100 -0.28177 
-1.33689 2.01200 -0.28332 
-1.32665 2.02200 -0.28473 
-1.31820 2.02200 -0.28473 
-1.30768 2.10000 -0.29572 
-1.31164 2.13500 -0.30064 
-1.30015 2.22200 -0.31289 
-1.30979 2.37400 -0.33430 
-1.21956 2.51500 -0.35415 
-1.21429 2.54800 -0.35880 
-1.19573 2.67300 -0.37640 
-1.18425 2.75000 -0.38725 
-1.16565 2.87400 -0.40471 
-1.11877 2.94000 -0.41400 
-1.09887 2.98600 -0.42048 
-1.08220 3.00900 -0.42372 
-1.01838 3.08200 -0.43400 
-0.99768 3.05800 -0.43062 
-0.86452 2.83100 -0.39865 
-0.73970 2.60000 -0.36612 
-0.66301 2.51500 -0.35415 
-0.64201 2.51500 -0.35415 
-0.60638 2.49800 -0.35176 
-0.49243 2.45000 -0.34500 
-0.39530 2.41900 -0.34064 
-0.35710 2.43400 -0.34275 
-0.20826 2.75000 -0.38725 
-0.16127 2.94000 -0.41400 
-0.12639 2.98600 -0.42048 
-0.11392 2.98600 -0.42048 
-0.08899 2.98600 -0.42048 
-0.06405 2.98600 -0.42048 
0.01075 2.98600 -0.42048 
0.03569 2.98600 -0.42048 
0.09727 2.96300 -0.41724 
0.14453 2.91800 -0.41090 
0.21763 2.91800 -0.41090 
0.22981 2.91800 -0.41090 
0.50553 2.96300 -0.41724 
0.52594 3.00900 -0.42372 
0.68601 3.50600 -0.49370 
0.74162 3.71100 -0.52257 
0.86483 4.15400 -0.58495 
1.32654 5.79100 -0.81547 
1.46151 6.26600 -0.88236 
1.74215 7.21100 -1.01543 
1.93792 6.37000 -0.89700 
1.81340 5.88000 -0.82800 
1.76997 5.30800 -0.74745 
3.91902 10.33000 -1.45464 
4.55321 10.92000 -1.53772 
4.87017 10.61700 -1.49505 
5.04749 10.61700 -1.49505 
5.09182 10.61700 -1.49505 
5.31347 10.61700 -1.49505 
5.35780 10.61700 -1.49505 
5.36967 10.05800 -1.41633 
3.98563 6.82500 -0.96107 
3.87591 6.59000 -0.92798 
3.71151 6.26600 -0.88236 
3.52688 5.79100 -0.81547 
3.41966 5.53900 -0.77998 
3.04958 4.77800 -0.67282 
2.89207 4.44400 -0.62579 
2.86261 4.34300 -0.61157 
2.84824 4.29400 -0.60467 
2.72859 3.94000 -0.55482 
2.71717 3.90000 -0.54919 
2.71535 3.78400 -0.53285 
2.73573 3.74700 -0.52764 
2.77855 3.78400 -0.53285 
2.84174 3.78400 -0.53285 
2.86440 3.71100 -0.52257 
2.83999 3.64000 -0.51257 
2.81676 3.57200 -0.50300 
3.00144 3.47500 -0.48934 
3.01595 3.47500 -0.48934 
3.24590 3.38200 -0.47624 
4.80517 4.77800 -0.67282 
5.28764 5.23600 -0.73732 
-1.45993 1.56000 -0.22619 
-1.45342 1.56000 -0.22619 
-1.45247 1.56600 -0.22706 
-1.43634 1.59900 -0.23184 
-1.43553 1.67600 -0.24301 
-1.43535 1.68400 -0.24417 
-1.42720 1.69100 -0.24518 
-1.40367 1.71400 -0.24852 
-1.37116 1.80300 -0.26142 
-1.35663 1.92100 -0.27853 
-1.34043 1.98000 -0.28708 
-1.32665 2.02200 -0.29317 
-1.30955 2.08900 -0.30289 
-1.30176 2.20900 -0.32029 
-1.30015 2.22200 -0.32217 
-1.31136 2.35900 -0.34204 
-1.25965 2.45000 -0.35523 
-1.24942 2.45000 -0.35523 
-1.21956 2.51500 -0.36466 
-1.19573 2.67300 -0.38756 
-1.18704 2.73000 -0.39583 
-1.18130 2.77000 -0.40163 
-1.16003 2.83100 -0.41047 
-1.15365 2.87400 -0.41671 
-1.13790 2.89500 -0.41975 
-1.12258 2.91800 -0.42309 
-1.07817 3.03300 -0.43976 
-1.04875 3.05800 -0.44339 
-1.03599 3.05800 -0.44339 
-0.62133 2.43400 -0.35291 
-0.56700 2.41900 -0.35074 
-0.55690 2.41900 -0.35074 
-0.51330 2.40400 -0.34856 
-0.45733 2.37400 -0.34421 
-0.43474 2.35900 -0.34204 
-0.38321 2.34500 -0.34001 
-0.37564 2.35900 -0.34204 
-0.32258 2.40400 -0.34856 
-0.23978 2.48200 -0.35987 
-0.21861 2.60000 -0.37698 
-0.18934 2.81000 -0.40743 
-0.17089 2.89500 -0.41975 
-0.02665 2.98600 -0.43295 
-0.01418 2.98600 -0.43295 
0.01075 2.98600 -0.43295 
0.07253 2.96300 -0.42961 
0.24200 2.91800 -0.42309 
0.30759 2.96300 -0.42961 
0.36944 2.96300 -0.42961 
0.47349 2.91800 -0.42309 
0.68601 3.50600 -0.50834 
0.87441 4.20000 -0.60897 
1.12478 5.09600 -0.73888 
1.34693 5.88000 -0.85255 
2.56354 9.32200 -1.35161 
2.60246 9.32200 -1.35161 
3.18640 8.88800 -1.28869 
3.59519 9.80000 -1.42092 
3.63611 9.80000 -1.42092 
4.04842 10.33000 -1.49777 
4.38254 10.61700 -1.53938 
4.91105 10.33000 -1.49777 
4.95418 10.33000 -1.49777 
5.08357 10.33000 -1.49777 
5.25610 10.33000 -1.49777 
5.34236 10.33000 -1.49777 
5.36967 10.05800 -1.45833 
5.13243 9.32200 -1.35161 
4.71348 8.30900 -1.20474 
4.45730 7.80000 -1.13094 
3.64431 6.06700 -0.87967 
3.58108 5.88000 -0.85255 
3.03163 4.71900 -0.68422 
2.96105 4.55000 -0.65971 
2.84210 4.15400 -0.60230 
2.78607 4.02300 -0.58330 
2.83509 3.86100 -0.55981 
2.81282 3.47500 -0.50385 
3.00144 3.47500 -0.50385 
3.10607 3.35300 -0.48616 
3.21766 3.38200 -0.49036 
3.24590 3.38200 -0.49036 
-1.45247 1.56600 -0.23360 
-1.40367 1.71400 -0.25567 
-1.37485 1.76900 -0.26388 
-1.37181 1.79400 -0.26761 
-1.36708 1.83800 -0.27417 
-1.36424 1.85500 -0.27671 
-1.32958 2.00100 -0.29848 
-1.32665 2.02200 -0.30162 
-1.31070 2.07700 -0.30982 
-1.30836 2.15900 -0.32205 
-1.29810 2.17200 -0.32399 
-1.29988 2.37400 -0.35412 
-1.27401 2.41900 -0.36084 
-1.26159 2.43400 -0.36307 
-1.21676 2.53100 -0.37754 
-1.21736 2.60000 -0.38784 
-1.18457 2.67300 -0.39872 
-1.16316 2.81000 -0.41916 
-1.16003 2.83100 -0.42229 
-1.11877 2.94000 -0.43855 
-1.07817 3.03300 -0.45242 
-0.65972 2.38900 -0.35636 
-0.64158 2.35900 -0.35189 
-0.63174 2.35900 -0.35189 
-0.53324 2.35900 -0.35189 
-0.51049 2.34500 -0.34980 
-0.44616 2.31600 -0.34547 
-0.41715 2.31600 -0.34547 
-0.38579 2.30200 -0.34338 
-0.37618 2.30200 -0.34338 
-0.33979 2.31600 -0.34547 
-0.26900 2.37400 -0.35412 
-0.22646 2.45000 -0.36546 
-0.18799 2.79000 -0.41618 
-0.15880 2.89500 -0.43184 
-0.06455 3.00900 -0.44884 
-0.01418 2.98600 -0.44541 
0.01075 2.98600 -0.44541 
0.03569 2.98600 -0.44541 
0.15671 2.91800 -0.43527 
0.39113 2.94000 -0.43855 
0.52594 3.00900 -0.44884 
0.61196 3.26700 -0.48733 
0.64762 3.38200 -0.50448 
0.94376 4.44400 -0.66290 
1.03465 4.77800 -0.71272 
2.38904 8.30900 -1.23943 
2.17468 7.35000 -1.09638 
3.79979 9.80000 -1.46184 
4.47973 10.33000 -1.54090 
4.69539 10.33000 -1.54090 
4.73852 10.33000 -1.54090 
4.82478 10.33000 -1.54090 
5.11770 10.05800 -1.50032 
5.24369 10.05800 -1.50032 
5.15010 9.80000 -1.46184 
3.61218 5.97200 -0.89083 
3.20978 5.02900 -0.75016 
3.10808 4.83800 -0.72167 
2.83282 4.06600 -0.60651 
2.88001 3.90000 -0.58175 
2.92886 3.90000 -0.58175 
2.87039 3.64000 -0.54297 
2.89988 3.47500 -0.51836 
2.88755 3.44300 -0.51358 
2.93364 3.41300 -0.50911 
2.94789 3.41300 -0.50911 
3.00489 3.41300 -0.50911 
3.03339 3.41300 -0.50911 
3.03408 3.38200 -0.50448 
3.07807 3.35300 -0.50016 
3.12007 3.35300 -0.50016 
3.20367 3.29500 -0.49151 
3.46738 3.50600 -0.52298 
3.95377 3.98100 -0.59384 
5.14626 5.09600 -0.76016 
-1.45247 1.56600 -0.24014 
-1.43816 1.57900 -0.24213 
-1.43634 1.59900 -0.24520 
-1.43894 1.64000 -0.25148 
-1.37315 1.78600 -0.27387 
-1.37181 1.79400 -0.27510 
-1.34454 1.95000 -0.29902 
-1.34043 1.98000 -0.30362 
-1.33689 2.01200 -0.30853 
-1.32849 2.01200 -0.30853 
-1.32538 2.03300 -0.31175 
-1.31398 2.05500 -0.31512 
-1.31645 2.10000 -0.32202 
-1.30836 2.15900 -0.33107 
-1.29810 2.17200 -0.33306 
-1.29842 2.23500 -0.34272 
-1.31337 2.34500 -0.35959 
-1.23218 2.49800 -0.38305 
-1.21971 2.58200 -0.39593 
-1.21486 2.61800 -0.40145 
-1.17564 2.73000 -0.41863 
-1.12258 2.91800 -0.44745 
-1.02322 3.05800 -0.46892 
-0.95432 2.96300 -0.45435 
-0.92764 2.91800 -0.44745 
-0.59387 2.28900 -0.35100 
-0.57802 2.30200 -0.35300 
-0.54919 2.30200 -0.35300 
-0.49152 2.30200 -0.35300 
-0.45051 2.28900 -0.35100 
-0.43140 2.28900 -0.35100 
-0.41926 2.27500 -0.34886 
-0.38127 2.27500 -0.34886 
-0.37177 2.27500 -0.34886 
-0.27209 2.31600 -0.35514 
-0.24308 2.31600 -0.35514 
-0.11392 2.98600 -0.45788 
-0.10146 2.98600 -0.45788 
0.13234 2.91800 -0.44745 
0.28504 2.98600 -0.45788 
0.29751 2.98600 -0.45788 
0.41568 2.94000 -0.45083 
0.87441 4.20000 -0.64404 
1.14001 5.16500 -0.79202 
1.59190 6.70500 -1.02816 
1.91059 7.64400 -1.17215 
2.35237 8.68600 -1.33193 
2.33815 8.13200 -1.24698 
2.22976 7.64400 -1.17215 
2.65535 7.49400 -1.14915 
2.91537 8.13200 -1.24698 
3.70479 9.55500 -1.46519 
4.08622 9.80000 -1.50276 
4.27778 10.05800 -1.54232 
4.94972 10.05800 -1.54232 
4.85481 8.68600 -1.33193 
3.66205 5.97200 -0.91576 
3.48904 5.53900 -0.84937 
2.87039 3.64000 -0.55817 
2.92373 3.53900 -0.54268 
2.93067 3.44300 -0.52796 
2.97760 3.38200 -0.51861 
3.17616 3.29500 -0.50526 
4.09905 4.11000 -0.63024 
-1.45240 1.57300 -0.24778 
-1.44475 1.57900 -0.24872 
-1.44453 1.58600 -0.24982 
-1.44302 1.59900 -0.25187 
-1.44219 1.61300 -0.25408 
-1.44347 1.66900 -0.26290 
-1.43395 1.69900 -0.26762 
-1.37706 1.75300 -0.27613 
-1.36889 1.82000 -0.28668 
-1.35529 1.86400 -0.29361 
-1.35338 1.88300 -0.29661 
-1.34454 1.95000 -0.30716 
-1.32665 2.02200 -0.31850 
-1.31164 2.13500 -0.33630 
-1.29659 2.24800 -0.35410 
-1.28411 2.41900 -0.38104 
-1.27401 2.41900 -0.38104 
-1.23699 2.46600 -0.38844 
-1.22732 2.53100 -0.39868 
-1.21736 2.60000 -0.40955 
-1.21486 2.61800 -0.41238 
-1.16424 2.73000 -0.43002 
-1.13790 2.89500 -0.45602 
-1.13476 2.91800 -0.45964 
-1.11133 2.98600 -0.47035 
-1.09477 3.00900 -0.47397 
-0.92033 2.89500 -0.45602 
-0.82207 2.69200 -0.42404 
-0.75682 2.54800 -0.40136 
-0.67967 2.38900 -0.37631 
-0.49525 2.27500 -0.35835 
-0.47625 2.27500 -0.35835 
-0.39798 2.26200 -0.35631 
-0.32981 2.24800 -0.35410 
-0.23742 2.26200 -0.35631 
-0.17893 2.83100 -0.44593 
-0.11305 2.96300 -0.46673 
-0.07711 3.00900 -0.47397 
-0.01453 3.05800 -0.48169 
0.19624 2.96300 -0.46673 
0.24764 2.98600 -0.47035 
0.42475 2.91800 -0.45964 
0.45767 2.89500 -0.45602 
0.74881 3.74700 -0.59022 
0.88420 4.24700 -0.66898 
0.96628 4.55000 -0.71671 
1.36800 5.97200 -0.94070 
1.48577 6.37000 -1.00339 
1.59190 6.70500 -1.05616 
1.80642 7.35000 -1.15776 
2.13443 8.13200 -1.28094 
2.21558 8.30900 -1.30882 
2.30010 8.49300 -1.33780 
2.33556 8.49300 -1.33780 
1.87555 6.16500 -0.97110 
1.53416 4.71900 -0.74333 
1.65526 4.96400 -0.78192 
3.49038 9.10000 -1.43341 
3.69230 9.32200 -1.46838 
3.84799 9.32200 -1.46838 
4.29081 9.80000 -1.54368 
4.53632 9.80000 -1.54368 
4.57724 9.80000 -1.54368 
4.94155 9.55500 -1.50508 
4.85998 9.32200 -1.46838 
4.71147 8.49300 -1.33780 
4.64409 8.30900 -1.30882 
4.57912 8.13200 -1.28094 
4.42474 7.80000 -1.22864 
3.63018 5.88000 -0.92621 
3.48904 5.53900 -0.87249 
3.00562 4.39300 -0.69198 
2.99167 4.29400 -0.67638 
2.97666 4.24700 -0.66898 
2.96125 4.20000 -0.66158 
3.00259 4.06600 -0.64047 
3.01028 3.90000 -0.61432 
2.93391 3.60600 -0.56801 
2.95502 3.50600 -0.55226 
3.16240 3.29500 -0.51902 
-1.46553 1.57300 -0.25434 
-1.44168 1.62000 -0.26194 
-1.44253 1.67600 -0.27100 
-1.44239 1.68400 -0.27229 
-1.41798 1.71400 -0.27714 
-1.39430 1.72900 -0.27957 
-1.39350 1.73700 -0.28086 
-1.38534 1.74500 -0.28216 
-1.38437 1.75300 -0.28345 
-1.37706 1.75300 -0.28345 
-1.37116 1.80300 -0.29153 
-1.35474 1.87400 -0.30301 
-1.34687 1.93000 -0.31207 
-1.33956 1.99100 -0.32193 
-1.33509 2.02200 -0.32694 
-1.29934 2.15900 -0.34910 
-1.28903 2.17200 -0.35120 
-1.21971 2.58200 -0.41749 
-1.18724 2.65400 -0.42913 
-1.09887 2.98600 -0.48282 
-0.53965 2.26200 -0.36575 
-0.53020 2.26200 -0.36575 
-0.50187 2.26200 -0.36575 
-0.47353 2.26200 -0.36575 
-0.44244 2.24800 -0.36349 
-0.38613 2.24800 -0.36349 
-0.27961 2.22200 -0.35928 
-0.21278 2.30200 -0.37222 
-0.16835 2.85200 -0.46115 
-0.13672 2.94000 -0.47538 
-0.07773 3.03300 -0.49042 
0.26211 3.00900 -0.48654 
0.27467 3.00900 -0.48654 
0.35984 2.98600 -0.48282 
0.42475 2.91800 -0.47182 
0.58825 3.21200 -0.51936 
0.62264 3.32400 -0.53747 
1.68260 5.38300 -0.87040 
2.00357 5.79100 -0.93637 
2.88803 7.96300 -1.28756 
3.11571 8.49300 -1.37326 
3.48328 8.88800 -1.43713 
3.77014 9.32200 -1.50731 
3.80906 9.32200 -1.50731 
4.27614 9.32200 -1.50731 
4.31506 9.32200 -1.50731 
4.39290 9.32200 -1.50731 
4.63720 8.68600 -1.40447 
4.67347 8.68600 -1.40447 
4.57471 8.30900 -1.34351 
4.20015 7.35000 -1.18845 
4.15083 7.21100 -1.16597 
3.63711 5.97200 -0.96563 
3.66205 5.97200 -0.96563 
3.59942 5.79100 -0.93637 
3.51722 5.62100 -0.90888 
3.31815 5.16500 -0.83515 
3.25178 5.02900 -0.81316 
3.06208 4.34300 -0.70223 
3.05483 4.02300 -0.65049 
3.02074 3.67500 -0.59422 
3.03609 3.67500 -0.59422 
3.02237 3.64000 -0.58856 
3.01239 3.53900 -0.57223 
3.06006 3.44300 -0.55671 
3.13194 3.44300 -0.55671 
3.18944 3.44300 -0.55671 
-1.46453 1.57900 -0.26191 
-1.44302 1.59900 -0.26522 
-1.44132 1.69100 -0.28048 
-1.42460 1.72200 -0.28563 
-1.37315 1.78600 -0.29624 
-1.35529 1.86400 -0.30918 
-1.34321 1.90200 -0.31548 
-1.34454 1.95000 -0.32344 
-1.33386 2.03300 -0.33721 
-1.31313 2.12300 -0.35214 
-1.29934 2.15900 -0.35811 
-1.29522 2.26200 -0.37520 
-1.29890 2.30200 -0.38183 
-1.31136 2.35900 -0.39128 
-1.27401 2.41900 -0.40124 
-1.21676 2.53100 -0.41981 
-1.20120 2.63600 -0.43723 
-1.16424 2.73000 -0.45282 
-1.07429 3.05800 -0.50723 
-1.03599 3.05800 -0.50723 
-0.96669 2.96300 -0.49147 
-0.87530 2.79000 -0.46277 
-0.80497 2.63600 -0.43723 
-0.74197 2.49800 -0.41434 
-0.68531 2.37400 -0.39377 
-0.59262 2.24800 -0.37287 
-0.58324 2.24800 -0.37287 
-0.57385 2.24800 -0.37287 
-0.48655 2.23500 -0.37072 
-0.39323 2.23500 -0.37072 
-0.36311 2.22200 -0.36856 
-0.35383 2.22200 -0.36856 
-0.32409 2.20900 -0.36640 
-0.31486 2.20900 -0.36640 
-0.29481 2.19700 -0.36441 
-0.24747 2.18400 -0.36226 
-0.18862 2.63600 -0.43723 
-0.18395 2.73000 -0.45282 
-0.17893 2.83100 -0.46957 
-0.15765 2.87400 -0.47671 
-0.14788 2.91800 -0.48401 
-0.13672 2.94000 -0.48765 
-0.10224 3.00900 -0.49910 
-0.02773 3.10700 -0.51535 
0.14676 2.96300 -0.49147 
0.18387 2.96300 -0.49147 
0.30468 3.05800 -0.50723 
0.35005 3.00900 -0.49910 
0.35984 2.98600 -0.49528 
0.38182 2.96300 -0.49147 
0.41568 2.94000 -0.48765 
0.44912 2.91800 -0.48401 
0.47349 2.91800 -0.48401 
0.62807 3.35300 -0.55616 
0.83851 4.11000 -0.68172 
1.80642 7.35000 -1.21914 
2.20234 8.13200 -1.34884 
2.19784 7.64400 -1.26790 
1.61325 4.83800 -0.80247 
2.58519 7.21100 -1.19608 
3.08290 8.30900 -1.37820 
3.11760 8.30900 -1.37820 
3.22210 8.49300 -1.40872 
3.29302 8.49300 -1.40872 
4.21230 9.10000 -1.50941 
4.40228 9.10000 -1.50941 
4.47827 9.10000 -1.50941 
4.52840 8.68600 -1.44074 
4.38421 7.96300 -1.32081 
4.41746 7.96300 -1.32081 
3.63711 5.97200 -0.99057 
3.16868 4.83800 -0.80247 
3.13015 4.71900 -0.78274 
3.11908 4.20000 -0.69665 
3.01391 3.82200 -0.63395 
3.02074 3.67500 -0.60957 
3.04048 3.57200 -0.59248 
3.03046 3.47500 -0.57639 
3.05948 3.47500 -0.57639 
3.21819 3.44300 -0.57109 
3.17635 3.32400 -0.55135 
-1.46453 1.57900 -0.26850 
-1.44970 1.59900 -0.27190 
-1.44702 1.62600 -0.27649 
-1.44239 1.68400 -0.28635 
-1.42514 1.71400 -0.29146 
-1.41596 1.72900 -0.29401 
-1.40800 1.73700 -0.29537 
-1.37181 1.79400 -0.30506 
-1.37116 1.80300 -0.30659 
-1.35762 1.84600 -0.31390 
-1.35649 1.85500 -0.31543 
-1.33956 1.99100 -0.33856 
-1.31313 2.12300 -0.36100 
-1.28159 2.22200 -0.37784 
-1.29316 2.27500 -0.38685 
-1.30553 2.33100 -0.39637 
-1.28411 2.41900 -0.41134 
-1.20650 2.60000 -0.44212 
-1.17615 2.65400 -0.45130 
-1.16129 2.75000 -0.46762 
-1.14482 2.85200 -0.48497 
-1.13476 2.91800 -0.49619 
-1.09084 3.03300 -0.51574 
-0.70401 2.40400 -0.40879 
-0.57053 2.23500 -0.38005 
-0.46788 2.23500 -0.38005 
-0.41877 2.22200 -0.37784 
-0.40949 2.22200 -0.37784 
-0.33150 2.19700 -0.37359 
-0.27331 2.17200 -0.36934 
0.02397 3.08200 -0.52408 
0.04931 3.05800 -0.52000 
0.14676 2.96300 -0.50384 
0.27914 3.05800 -0.52000 
0.31745 3.05800 -0.52000 
0.35984 2.98600 -0.50775 
0.39419 2.96300 -0.50384 
0.41568 2.94000 -0.49993 
0.47706 2.94000 -0.49993 
0.67137 3.50600 -0.59618 
0.91459 4.39300 -0.74700 
1.28302 5.70500 -0.97010 
2.11242 7.80000 -1.32634 
2.21013 7.80000 -1.32634 
1.91132 6.37000 -1.08318 
3.51292 8.68600 -1.47700 
3.58545 8.68600 -1.47700 
4.38333 8.68600 -1.47700 
4.41960 8.68600 -1.47700 
4.24049 7.64400 -1.29982 
3.84840 6.59000 -1.12059 
3.61897 6.06700 -1.03166 
3.54596 5.70500 -0.97010 
3.48904 5.53900 -0.94187 
3.11044 4.71900 -0.80244 
3.09298 4.60500 -0.78305 
3.09555 4.49700 -0.76469 
3.11433 4.49700 -0.76469 
3.13402 4.39300 -0.74700 
3.13510 4.29400 -0.73017 
3.15399 4.24700 -0.72218 
3.10373 4.11000 -0.69888 
2.99630 3.86100 -0.65654 
2.99795 3.82200 -0.64991 
3.09557 3.74700 -0.63716 
3.09746 3.67500 -0.62491 
3.11281 3.67500 -0.62491 
3.13069 3.50600 -0.59618 
3.18971 3.53900 -0.60179 
-1.47102 1.58600 -0.27631 
-1.46440 1.58600 -0.27631 
-1.46421 1.59300 -0.27753 
-1.44132 1.69100 -0.29461 
-1.43395 1.69900 -0.29600 
-1.42460 1.72200 -0.30001 
-1.41741 1.72200 -0.30001 
-1.39263 1.74500 -0.30401 
-1.38437 1.75300 -0.30541 
-1.37116 1.80300 -0.31412 
-1.33881 1.93000 -0.33624 
-1.34629 2.00100 -0.34861 
-1.34353 2.02200 -0.35227 
-1.33255 2.04400 -0.35611 
-1.31313 2.12300 -0.36987 
-1.29381 2.13500 -0.37196 
-1.30809 2.38900 -0.41621 
-1.29422 2.41900 -0.42144 
-1.27175 2.43400 -0.42405 
-1.24942 2.45000 -0.42684 
-1.23007 2.51500 -0.43816 
-1.21429 2.54800 -0.44391 
-1.20120 2.63600 -0.45924 
-1.19019 2.63600 -0.45924 
-1.17615 2.65400 -0.46238 
-1.14821 2.83100 -0.49322 
-1.10350 3.03300 -0.52841 
-1.06985 3.08200 -0.53694 
-0.96669 2.96300 -0.51621 
-0.89998 2.83100 -0.49322 
-0.67290 2.33100 -0.40611 
-0.56721 2.22200 -0.38712 
-0.46244 2.20900 -0.38485 
-0.36819 2.19700 -0.38276 
-0.33866 2.18400 -0.38050 
-0.30774 2.15900 -0.37614 
-0.19705 2.46600 -0.42963 
-0.18862 2.63600 -0.45924 
-0.12639 2.98600 -0.52022 
-0.10390 3.05800 -0.53276 
0.11049 2.98600 -0.52022 
0.12296 2.98600 -0.52022 
0.18673 3.00900 -0.52423 
0.32752 3.03300 -0.52841 
0.35005 3.00900 -0.52423 
0.38182 2.96300 -0.51621 
0.41568 2.94000 -0.51221 
0.44912 2.91800 -0.50837 
0.63350 3.38200 -0.58921 
0.72612 3.71100 -0.64653 
1.71002 7.07800 -1.23313 
1.81684 5.97200 -1.04044 
1.53477 4.66100 -0.81204 
1.59324 4.77800 -0.83242 
2.74922 7.49400 -1.30560 
2.95918 7.80000 -1.35891 
3.05427 7.96300 -1.38731 
3.39940 8.49300 -1.47965 
4.17955 8.49300 -1.47965 
4.21501 8.49300 -1.47965 
4.35686 8.49300 -1.47965 
4.01516 7.07800 -1.23313 
3.43928 5.46000 -0.95124 
3.10943 4.77800 -0.83242 
3.07221 4.66100 -0.81204 
3.05453 4.60500 -0.80228 
3.09555 4.49700 -0.78347 
3.15236 4.39300 -0.76535 
3.11908 4.20000 -0.73172 
3.08657 4.11000 -0.71604 
3.07050 4.06600 -0.70838 
3.09557 3.74700 -0.65280 
3.11121 3.74700 -0.65280 
3.08448 3.60600 -0.62824 
3.00255 3.44300 -0.59984 
3.24928 3.57200 -0.62231 
3.26420 3.57200 -0.62231 
3.30894 3.57200 -0.62231 
-1.44643 1.63300 -0.29132 
-1.43426 1.69100 -0.30167 
-1.42561 1.70600 -0.30434 
-1.42460 1.72200 -0.30720 
-1.36129 1.82000 -0.32468 
-1.34875 1.85500 -0.33092 
-1.34235 2.03300 -0.36268 
-1.29541 2.12300 -0.37873 
-1.27419 2.14700 -0.38301 
-1.27089 2.17200 -0.38747 
-1.16424 2.73000 -0.48702 
-1.14332 2.94000 -0.52448 
-1.11989 3.00900 -0.53679 
-1.08272 3.08200 -0.54981 
-1.07853 3.10700 -0.55427 
-1.05699 3.08200 -0.54981 
-0.64724 2.27500 -0.40585 
-0.57649 2.22200 -0.39639 
-0.43477 2.20900 -0.39407 
-0.41406 2.19700 -0.39193 
-0.34778 2.18400 -0.38961 
-0.33680 2.17200 -0.38747 
-0.26715 2.12300 -0.37873 
-0.20659 2.23500 -0.39871 
-0.19296 2.54800 -0.45455 
-0.00183 3.18500 -0.56819 
0.02456 3.15900 -0.56355 
0.17416 3.00900 -0.53679 
0.31485 3.03300 -0.54107 
0.32752 3.03300 -0.54107 
0.38182 2.96300 -0.52858 
0.39113 2.94000 -0.52448 
0.41568 2.94000 -0.52448 
0.92521 4.44400 -0.79279 
1.28302 5.70500 -1.01774 
1.73957 7.07800 -1.26268 
1.99826 7.49400 -1.33689 
2.08262 7.35000 -1.31120 
2.86808 7.64400 -1.36365 
2.99175 7.80000 -1.39148 
3.47033 8.49300 -1.51511 
3.50579 8.49300 -1.51511 
3.64763 8.49300 -1.51511 
3.68309 8.49300 -1.51511 
3.71855 8.49300 -1.51511 
3.95023 8.30900 -1.48228 
3.98492 8.30900 -1.48228 
4.05431 8.30900 -1.48228 
4.13163 7.80000 -1.39148 
4.11283 7.64400 -1.36365 
4.03039 7.21100 -1.28640 
3.82088 6.59000 -1.17562 
3.46591 5.53900 -0.98813 
3.14791 4.90000 -0.87413 
3.05133 4.71900 -0.84185 
3.07677 4.49700 -0.80224 
2.98018 3.86100 -0.68878 
2.96603 3.82200 -0.68183 
3.00170 3.74700 -0.66845 
3.04863 3.74700 -0.66845 
3.01595 3.47500 -0.61992 
3.03339 3.41300 -0.60886 
3.10301 3.47500 -0.61992 
-1.48427 1.58600 -0.28956 
-1.48417 1.59300 -0.29083 
-1.45604 1.60600 -0.29321 
-1.38224 1.76900 -0.32297 
-1.36212 1.81100 -0.33064 
-1.34751 1.86400 -0.34031 
-1.33615 1.89200 -0.34542 
-1.34869 1.98000 -0.36149 
-1.34235 2.03300 -0.37117 
-1.34108 2.04400 -0.37317 
-1.31645 2.10000 -0.38340 
-1.30768 2.10000 -0.38340 
-1.30427 2.12300 -0.38760 
-1.29212 2.14700 -0.39198 
-1.27089 2.17200 -0.39654 
-1.28929 2.30200 -0.42028 
-1.23465 2.48200 -0.45314 
-1.23007 2.51500 -0.45916 
-1.22239 2.56500 -0.46829 
-1.21168 2.56500 -0.46829 
-1.20650 2.60000 -0.47468 
-1.14332 2.94000 -0.53676 
-1.11616 3.03300 -0.55374 
-0.91856 2.85200 -0.52069 
-0.88695 2.79000 -0.50937 
-0.71405 2.40400 -0.43890 
-0.56390 2.20900 -0.40330 
-0.52700 2.20900 -0.40330 
-0.22167 2.11200 -0.38559 
-0.21285 2.11200 -0.38559 
-0.20418 2.20900 -0.40330 
-0.18991 2.65400 -0.48454 
-0.12737 3.00900 -0.54935 
-0.04173 3.18500 -0.58149 
-0.02843 3.18500 -0.58149 
0.12391 3.00900 -0.54935 
0.26420 3.03300 -0.55374 
0.35707 2.96300 -0.54096 
0.37885 2.94000 -0.53676 
0.39113 2.94000 -0.53676 
0.42475 2.91800 -0.53274 
0.46130 2.91800 -0.53274 
0.60345 3.29500 -0.60157 
0.91459 4.39300 -0.80203 
1.17158 5.30800 -0.96908 
1.86258 7.21100 -1.31651 
1.51446 4.71900 -0.86155 
1.74184 5.09600 -0.93038 
2.14972 6.06700 -1.10765 
2.72708 7.35000 -1.34189 
3.02432 7.80000 -1.42405 
3.36045 8.30900 -1.51698 
3.42983 8.30900 -1.51698 
3.60330 8.30900 -1.51698 
3.67269 8.30900 -1.51698 
3.66236 8.13200 -1.48466 
3.73027 8.13200 -1.48466 
3.78574 7.96300 -1.45381 
3.61897 6.06700 -1.10765 
3.58108 5.88000 -1.07351 
3.41648 5.46000 -0.99683 
3.34353 5.30800 -0.96908 
3.16830 4.96400 -0.90628 
3.03163 4.71900 -0.86155 
2.94534 4.49700 -0.82102 
3.08492 4.15400 -0.75840 
3.06941 4.11000 -0.75036 
3.05352 4.06600 -0.74233 
2.96405 3.86100 -0.70490 
2.95007 3.82200 -0.69778 
2.95476 3.74700 -0.68409 
2.97041 3.74700 -0.68409 
3.00170 3.74700 -0.68409 
3.04863 3.74700 -0.68409 
3.09454 3.78400 -0.69085 
3.15753 3.82200 -0.69778 
3.18945 3.82200 -0.69778 
3.20513 3.78400 -0.69085 
3.20508 3.74700 -0.68409 
3.08522 3.57200 -0.65214 
3.03131 3.44300 -0.62859 
3.13069 3.50600 -0.64009 
-1.48417 1.59300 -0.29749 
-1.44643 1.63300 -0.30496 
-1.43553 1.67600 -0.31299 
-1.43426 1.69100 -0.31579 
-1.42561 1.70600 -0.31859 
-1.38962 1.76900 -0.33035 
-1.38224 1.76900 -0.33035 
-1.35941 1.83800 -0.34324 
-1.34991 1.84600 -0.34473 
-1.31937 2.07700 -0.38787 
-1.31645 2.10000 -0.39217 
-1.28316 2.14700 -0.40094 
-1.27782 2.24800 -0.41980 
-1.27633 2.26200 -0.42242 
-1.28746 2.31600 -0.43250 
-1.29379 2.34500 -0.43792 
-1.22239 2.56500 -0.47900 
-1.19019 2.63600 -0.49226 
-1.17615 2.65400 -0.49562 
-1.16424 2.73000 -0.50982 
-1.15559 2.94000 -0.54903 
-1.15226 2.96300 -0.55333 
-0.79926 2.58200 -0.48218 
-0.61924 2.20900 -0.41252 
-0.39121 2.17200 -0.40561 
-0.36183 2.15900 -0.40318 
-0.29222 2.11200 -0.39441 
-0.20079 2.27500 -0.42485 
-0.12838 3.03300 -0.56640 
-0.11667 3.05800 -0.57107 
0.11223 3.03300 -0.56640 
0.17555 3.03300 -0.56640 
0.26010 2.98600 -0.55762 
0.31996 2.96300 -0.55333 
0.71908 3.67500 -0.68629 
1.06106 4.90000 -0.91505 
1.80236 7.21100 -1.34662 
1.89269 7.21100 -1.34662 
1.98302 7.21100 -1.34662 
1.73561 5.70500 -1.06538 
1.63345 4.83800 -0.90348 
2.08346 5.88000 -1.09806 
3.15402 7.96300 -1.48705 
3.25491 8.13200 -1.51861 
3.61949 7.96300 -1.48705 
3.65274 7.96300 -1.48705 
3.66600 7.64400 -1.42748 
3.76174 7.64400 -1.42748 
3.88941 7.64400 -1.42748 
3.93825 7.49400 -1.39947 
3.95464 7.35000 -1.37258 
3.88396 6.94900 -1.29769 
3.84315 6.82500 -1.27454 
3.23127 5.09600 -0.95166 
2.94206 4.55000 -0.84969 
2.87722 4.39300 -0.82037 
2.96893 4.39300 -0.82037 
3.18903 4.55000 -0.84969 
3.05352 4.06600 -0.75931 
3.25423 3.86100 -0.72102 
3.37366 3.67500 -0.68629 
3.37193 3.64000 -0.67975 
3.33877 3.57200 -0.66706 
3.30614 3.47500 -0.64894 
-1.48976 1.59900 -0.30528 
-1.44578 1.64000 -0.31311 
-1.43651 1.66900 -0.31865 
-1.43553 1.67600 -0.31998 
