ply
format ascii 1.0
comment pointcloud saved from Realsense Viewer
element vertex 1904
property float32 x
property float32 y
property float32 z
end_header
0.0765219 1.13167 -2.331 
0.0862547 1.13167 -2.331 
0.0959874 1.13167 -2.331 
0.106355 1.13847 -2.345 
0.11684 1.14526 -2.359 
0.126689 1.14526 -2.359 
0.136539 1.14526 -2.359 
0.14732 1.15255 -2.374 
0.157232 1.15255 -2.374 
0.1682 1.15983 -2.389 
0.178175 1.15983 -2.389 
0.189332 1.16711 -2.404 
0.200613 1.17439 -2.419 
0.210713 1.17439 -2.419 
0.220813 1.17439 -2.419 
0.232346 1.18168 -2.434 
0.242508 1.18168 -2.434 
0.252671 1.18168 -2.434 
0.264562 1.18944 -2.45 
0.274791 1.18944 -2.45 
0.285021 1.18944 -2.45 
0.297179 1.19721 -2.466 
0.307475 1.19721 -2.466 
0.317772 1.19721 -2.466 
0.328068 1.19721 -2.466 
0.34056 1.20498 -2.482 
0.350923 1.20498 -2.482 
0.363615 1.21275 -2.498 
0.374045 1.21275 -2.498 
0.387092 1.221 -2.515 
0.400122 1.22877 -2.531 
0.41069 1.22877 -2.531 
0.424088 1.23702 -2.548 
0.434726 1.23702 -2.548 
0.448337 1.24527 -2.565 
0.462089 1.25353 -2.582 
0.476166 1.26227 -2.6 
0.487022 1.26227 -2.6 
0.501325 1.27101 -2.618 
0.512256 1.27101 -2.618 
0.526784 1.27974 -2.636 
0.541463 1.28848 -2.654 
0.5565 1.29771 -2.673 
0.571696 1.30693 -2.692 
0.582936 1.30693 -2.692 
0.598369 1.31616 -2.711 
0.613962 1.32538 -2.73 
0.629942 1.33509 -2.75 
0.646089 1.3448 -2.77 
0.657655 1.3448 -2.77 
0.674052 1.35451 -2.79 
0.690617 1.36422 -2.81 
0.70235 1.36422 -2.81 
0.719419 1.37441 -2.831 
0.736664 1.38461 -2.852 
0.748572 1.38461 -2.852 
0.76048 1.38461 -2.852 
0.778346 1.39529 -2.874 
0.790346 1.39529 -2.874 
0.802346 1.39529 -2.874 
0.814346 1.39529 -2.874 
0.826346 1.39529 -2.874 
0.831929 1.38461 -2.852 
0.843837 1.38461 -2.852 
0.855745 1.38461 -2.852 
0.867653 1.38461 -2.852 
0.879561 1.38461 -2.852 
0.884905 1.37441 -2.831 
0.896726 1.37441 -2.831 
0.915286 1.38461 -2.852 
0.927194 1.38461 -2.852 
0.946346 1.39529 -2.874 
0.965348 1.40549 -2.895 
0.977436 1.40549 -2.895 
0.989524 1.40549 -2.895 
1.00161 1.40549 -2.895 
1.0137 1.40549 -2.895 
1.02579 1.40549 -2.895 
1.03035 1.39529 -2.874 
1.04235 1.39529 -2.874 
1.05435 1.39529 -2.874 
1.05818 1.38461 -2.852 
1.06221 1.37441 -2.831 
1.07403 1.37441 -2.831 
1.08585 1.37441 -2.831 
1.08953 1.36422 -2.81 
1.10126 1.36422 -2.81 
1.113 1.36422 -2.81 
1.12473 1.36422 -2.81 
1.12837 1.35451 -2.79 
1.14819 1.36422 -2.81 
1.15993 1.36422 -2.81 
1.17166 1.36422 -2.81 
1.18339 1.36422 -2.81 
1.20406 1.37441 -2.831 
1.2249 1.38461 -2.852 
1.2368 1.38461 -2.852 
1.25835 1.39529 -2.874 
1.27963 1.40549 -2.895 
1.29172 1.40549 -2.895 
1.31416 1.41665 -2.918 
1.32635 1.41665 -2.918 
1.33853 1.41665 -2.918 
1.35071 1.41665 -2.918 
1.3629 1.41665 -2.918 
1.36424 1.40549 -2.895 
1.37633 1.40549 -2.895 
1.38842 1.40549 -2.895 
1.39035 1.39529 -2.874 
1.39161 1.38461 -2.852 
1.40352 1.38461 -2.852 
1.405 1.37441 -2.831 
1.40632 1.36422 -2.81 
1.40795 1.35451 -2.79 
1.40943 1.3448 -2.77 
1.40047 1.32538 -2.73 
1.41187 1.32538 -2.73 
1.41337 1.31616 -2.711 
1.4147 1.30693 -2.692 
1.41588 1.29771 -2.673 
1.42704 1.29771 -2.673 
1.42797 1.28848 -2.654 
1.4293 1.27974 -2.636 
1.43047 1.27101 -2.618 
1.4414 1.27101 -2.618 
1.44234 1.26227 -2.6 
1.44314 1.25353 -2.582 
1.44435 1.24527 -2.565 
1.44541 1.23702 -2.548 
1.44634 1.22877 -2.531 
1.43791 1.21275 -2.498 
1.44834 1.21275 -2.498 
1.44943 1.20498 -2.482 
1.45979 1.20498 -2.482 
1.46068 1.19721 -2.466 
1.47097 1.19721 -2.466 
1.48127 1.19721 -2.466 
1.50124 1.20498 -2.482 
1.51161 1.20498 -2.482 
1.53178 1.21275 -2.498 
1.54221 1.21275 -2.498 
1.55264 1.21275 -2.498 
1.56307 1.21275 -2.498 
1.5735 1.21275 -2.498 
1.58393 1.21275 -2.498 
1.59436 1.21275 -2.498 
1.60479 1.21275 -2.498 
1.60487 1.20498 -2.482 
1.60483 1.19721 -2.466 
1.61512 1.19721 -2.466 
1.61487 1.18944 -2.45 
1.6251 1.18944 -2.45 
1.62465 1.18168 -2.434 
1.62474 1.17439 -2.419 
1.63484 1.17439 -2.419 
1.64494 1.17439 -2.419 
1.64478 1.16711 -2.404 
1.64449 1.15983 -2.389 
1.65446 1.15983 -2.389 
1.65399 1.15255 -2.374 
1.65339 1.14526 -2.359 
1.66324 1.14526 -2.359 
1.66316 1.13847 -2.345 
1.67295 1.13847 -2.345 
1.67269 1.13167 -2.331 
1.68243 1.13167 -2.331 
1.69216 1.13167 -2.331 
1.69094 1.12439 -2.316 
1.70061 1.12439 -2.316 
1.69994 1.11759 -2.302 
1.6999 1.11128 -2.289 
1.70946 1.11128 -2.289 
1.7085 1.10448 -2.275 
1.70818 1.09817 -2.262 
1.707 1.09137 -2.248 
1.70646 1.08506 -2.235 
1.70581 1.07875 -2.222 
1.71509 1.07875 -2.222 
1.71428 1.07244 -2.209 
1.71414 1.06662 -2.197 
1.71311 1.0603 -2.184 
1.72223 1.0603 -2.184 
1.72184 1.05448 -2.172 
1.72055 1.04817 -2.159 
1.71995 1.04234 -2.147 
1.71925 1.03651 -2.135 
1.71845 1.03069 -2.123 
1.71836 1.02535 -2.112 
1.71737 1.01952 -2.1 
1.7171 1.01418 -2.089 
1.72582 1.01418 -2.089 
1.72458 1.00836 -2.077 
1.74326 1.01418 -2.089 
1.74192 1.00836 -2.077 
1.75059 1.00836 -2.077 
1.75927 1.00836 -2.077 
1.76794 1.00836 -2.077 
1.77661 1.00836 -2.077 
1.78528 1.00836 -2.077 
1.79396 1.00836 -2.077 
1.80263 1.00836 -2.077 
1.8113 1.00836 -2.077 
1.81997 1.00836 -2.077 
1.82864 1.00836 -2.077 
1.83732 1.00836 -2.077 
1.84599 1.00836 -2.077 
1.84484 1.00302 -2.066 
1.85346 1.00302 -2.066 
1.85218 0.997676 -2.055 
1.8508 0.992336 -2.044 
1.84932 0.986995 -2.033 
1.84776 0.981655 -2.022 
1.83693 0.97146 -2.001 
1.83606 0.966605 -1.991 
1.83418 0.961264 -1.98 
1.83314 0.95641 -1.97 
1.83202 0.951555 -1.96 
1.84021 0.951555 -1.96 
1.82953 0.941845 -1.94 
1.83763 0.941845 -1.94 
1.84573 0.941845 -1.94 
1.85383 0.941845 -1.94 
1.86193 0.941845 -1.94 
1.87003 0.941845 -1.94 
1.87813 0.941845 -1.94 
1.88623 0.941845 -1.94 
1.88457 0.93699 -1.93 
1.89262 0.93699 -1.93 
1.90068 0.93699 -1.93 
1.90874 0.93699 -1.93 
1.92673 0.941845 -1.94 
1.93483 0.941845 -1.94 
1.94293 0.941845 -1.94 
1.95103 0.941845 -1.94 
1.95913 0.941845 -1.94 
-1.25404 0.647846 -1.346 
-1.24842 0.647846 -1.346 
-1.2428 0.647846 -1.346 
-1.23718 0.647846 -1.346 
-1.23156 0.647846 -1.346 
-1.22594 0.647846 -1.346 
-1.22032 0.647846 -1.346 
-1.21921 0.650252 -1.351 
-1.21357 0.650252 -1.351 
-1.20793 0.650252 -1.351 
-1.20585 0.652177 -1.355 
-1.20462 0.654584 -1.36 
-1.19894 0.654584 -1.36 
-1.19326 0.654584 -1.36 
-1.18759 0.654584 -1.36 
-1.18191 0.654584 -1.36 
-1.17623 0.654584 -1.36 
-1.17485 0.65699 -1.365 
-1.16915 0.65699 -1.365 
-1.16345 0.65699 -1.365 
-1.162 0.659397 -1.37 
-1.1605 0.661804 -1.375 
-1.15895 0.66421 -1.38 
-1.15319 0.66421 -1.38 
-1.15159 0.666617 -1.385 
-1.14994 0.669023 -1.39 
-1.14825 0.67143 -1.395 
-1.14652 0.673836 -1.4 
-1.14475 0.676243 -1.405 
-1.13889 0.676243 -1.405 
-1.13705 0.67865 -1.41 
-1.13116 0.67865 -1.41 
-1.13006 0.681537 -1.416 
-1.12415 0.681537 -1.416 
-1.12219 0.683944 -1.421 
-1.11626 0.683944 -1.421 
-1.11032 0.683944 -1.421 
-1.10828 0.686351 -1.426 
-1.10232 0.686351 -1.426 
-1.10021 0.688757 -1.431 
-1.09424 0.688757 -1.431 
-1.09282 0.691645 -1.437 
-1.08682 0.691645 -1.437 
-1.08458 0.694052 -1.442 
-1.07856 0.694052 -1.442 
-1.07701 0.696939 -1.448 
-1.07096 0.696939 -1.448 
-1.06859 0.699346 -1.453 
-1.06252 0.699346 -1.453 
-1.05646 0.699346 -1.453 
-1.05039 0.699346 -1.453 
-1.04432 0.699346 -1.453 
-1.04254 0.702234 -1.459 
-1.03645 0.702234 -1.459 
-1.03036 0.702234 -1.459 
-1.02427 0.702234 -1.459 
-1.01818 0.702234 -1.459 
-1.01209 0.702234 -1.459 
-1.00599 0.702234 -1.459 
-1.00333 0.70464 -1.464 
-0.997216 0.70464 -1.464 
-0.995165 0.707528 -1.47 
-0.989027 0.707528 -1.47 
-0.982889 0.707528 -1.47 
-0.980738 0.710416 -1.476 
-0.974575 0.710416 -1.476 
-0.971693 0.712823 -1.481 
-0.969421 0.715711 -1.487 
-0.967099 0.718598 -1.493 
-0.960865 0.718598 -1.493 
-0.958468 0.721486 -1.499 
-0.95602 0.724374 -1.505 
-0.949736 0.724374 -1.505 
-0.947214 0.727262 -1.511 
-0.940905 0.727262 -1.511 
-0.934596 0.727262 -1.511 
-0.931973 0.73015 -1.517 
-0.925639 0.73015 -1.517 
-0.922941 0.733038 -1.523 
-0.916582 0.733038 -1.523 
-0.910223 0.733038 -1.523 
-0.903864 0.733038 -1.523 
-0.897505 0.733038 -1.523 
-0.891145 0.733038 -1.523 
-0.888272 0.735926 -1.529 
-0.881888 0.735926 -1.529 
-0.875504 0.735926 -1.529 
-0.87253 0.738814 -1.535 
-0.866121 0.738814 -1.535 
-0.863072 0.741701 -1.541 
-0.856638 0.741701 -1.541 
-0.853514 0.744589 -1.547 
-0.850888 0.747958 -1.554 
-0.844399 0.747958 -1.554 
-0.841146 0.750846 -1.56 
-0.837842 0.753734 -1.566 
-0.831304 0.753734 -1.566 
-0.828452 0.757103 -1.573 
-0.821884 0.757103 -1.573 
-0.818426 0.759991 -1.579 
-0.811833 0.759991 -1.579 
-0.80881 0.76336 -1.586 
-0.802188 0.76336 -1.586 
-0.795566 0.76336 -1.586 
-0.792426 0.76673 -1.593 
-0.785775 0.76673 -1.593 
-0.779123 0.76673 -1.593 
-0.775381 0.769617 -1.599 
-0.768705 0.769617 -1.599 
-0.765365 0.772987 -1.606 
-0.761966 0.776356 -1.613 
-0.758508 0.779725 -1.62 
-0.754528 0.782613 -1.626 
-0.750958 0.785982 -1.633 
-0.74733 0.789351 -1.64 
-0.743643 0.79272 -1.647 
-0.740345 0.796571 -1.655 
-0.736537 0.79994 -1.662 
-0.73267 0.803309 -1.669 
-0.725701 0.803309 -1.669 
-0.721747 0.806678 -1.676 
-0.714749 0.806678 -1.676 
-0.71113 0.810529 -1.684 
-0.704098 0.810529 -1.684 
-0.697067 0.810529 -1.684 
-0.690036 0.810529 -1.684 
-0.685844 0.813898 -1.691 
-0.678783 0.813898 -1.691 
-0.6749 0.817749 -1.699 
-0.667807 0.817749 -1.699 
-0.660713 0.817749 -1.699 
-0.653619 0.817749 -1.699 
-0.649188 0.821118 -1.706 
-0.642065 0.821118 -1.706 
-0.634942 0.821118 -1.706 
-0.630763 0.824968 -1.714 
-0.626517 0.828819 -1.722 
-0.619327 0.828819 -1.722 
-0.614626 0.832188 -1.729 
-0.610217 0.836038 -1.737 
-0.605741 0.839889 -1.745 
-0.598455 0.839889 -1.745 
-0.593879 0.84374 -1.753 
-0.58656 0.84374 -1.753 
-0.579241 0.84374 -1.753 
-0.574531 0.84759 -1.761 
-0.569755 0.85144 -1.769 
-0.56523 0.855772 -1.778 
-0.557806 0.855772 -1.778 
-0.552859 0.859623 -1.786 
-0.547845 0.863473 -1.794 
-0.543065 0.867805 -1.803 
-0.537913 0.871656 -1.811 
-0.532987 0.875987 -1.82 
-0.527986 0.880319 -1.829 
-0.52291 0.884651 -1.838 
-0.515235 0.884651 -1.838 
-0.50977 0.888501 -1.846 
-0.502062 0.888501 -1.846 
-0.496765 0.892833 -1.855 
-0.48902 0.892833 -1.855 
-0.483609 0.897165 -1.864 
-0.475827 0.897165 -1.864 
-0.470555 0.901978 -1.874 
-0.464952 0.90631 -1.883 
-0.45709 0.90631 -1.883 
-0.451375 0.910642 -1.892 
-0.445819 0.915455 -1.902 
-0.437878 0.915455 -1.902 
-0.431971 0.919787 -1.911 
-0.423991 0.919787 -1.911 
-0.418189 0.9246 -1.921 
-0.410168 0.9246 -1.921 
-0.404032 0.928932 -1.93 
-0.395973 0.928932 -1.93 
-0.387915 0.928932 -1.93 
-0.381824 0.933745 -1.94 
-0.373724 0.933745 -1.94 
-0.367509 0.938558 -1.95 
-0.359367 0.938558 -1.95 
-0.353026 0.943371 -1.96 
-0.344842 0.943371 -1.96 
-0.338376 0.948184 -1.97 
-0.331827 0.952997 -1.98 
-0.325357 0.958292 -1.991 
-0.317044 0.958292 -1.991 
-0.310281 0.963105 -2.001 
-0.303586 0.968399 -2.012 
-0.295185 0.968399 -2.012 
-0.286785 0.968399 -2.012 
-0.278384 0.968399 -2.012 
-0.271325 0.973212 -2.022 
-0.262882 0.973212 -2.022 
-0.25444 0.973212 -2.022 
-0.247335 0.978507 -2.033 
-0.238847 0.978507 -2.033 
-0.230358 0.978507 -2.033 
-0.22307 0.983801 -2.044 
-0.214536 0.983801 -2.044 
-0.20711 0.989096 -2.055 
-0.19853 0.989096 -2.055 
-0.190966 0.99439 -2.066 
-0.18234 0.99439 -2.066 
-0.174638 0.999685 -2.077 
-0.166925 1.00546 -2.089 
-0.159036 1.01075 -2.1 
-0.151126 1.01653 -2.112 
-0.142308 1.01653 -2.112 
-0.134185 1.02182 -2.123 
-0.126029 1.0276 -2.135 
-0.117773 1.03338 -2.147 
-0.109416 1.03915 -2.159 
-0.101006 1.04541 -2.172 
-0.0919375 1.04541 -2.172 
-0.0833265 1.05118 -2.184 
-0.0746492 1.05744 -2.197 
-0.0658336 1.06322 -2.209 
-0.0569434 1.06947 -2.222 
-0.0479446 1.07573 -2.235 
-0.0386127 1.07573 -2.235 
-0.029451 1.08199 -2.248 
-0.0201898 1.08873 -2.262 
-0.0108069 1.09498 -2.275 
-0.00130796 1.09498 -2.275 
0.00824139 1.10172 -2.289 
0.0177988 1.10172 -2.289 
0.0275115 1.10798 -2.302 
0.0371232 1.10798 -2.302 
0.0470191 1.11472 -2.316 
0.0566892 1.11472 -2.316 
0.0663594 1.11472 -2.316 
0.0765219 1.12194 -2.331 
0.0862547 1.12194 -2.331 
0.0965639 1.12868 -2.345 
0.106355 1.12868 -2.345 
0.11684 1.13541 -2.359 
0.126689 1.13541 -2.359 
0.136539 1.13541 -2.359 
0.14732 1.14263 -2.374 
0.157232 1.14263 -2.374 
0.1682 1.14985 -2.389 
0.178175 1.14985 -2.389 
0.189332 1.15707 -2.404 
0.200613 1.16429 -2.419 
0.210713 1.16429 -2.419 
0.220813 1.16429 -2.419 
0.232346 1.17151 -2.434 
0.242508 1.17151 -2.434 
0.252671 1.17151 -2.434 
0.264562 1.17921 -2.45 
0.274791 1.17921 -2.45 
0.285021 1.17921 -2.45 
0.297179 1.18691 -2.466 
0.307475 1.18691 -2.466 
0.317772 1.18691 -2.466 
0.328068 1.18691 -2.466 
0.34056 1.19462 -2.482 
0.350923 1.19462 -2.482 
0.363615 1.20232 -2.498 
0.374045 1.20232 -2.498 
0.387092 1.2105 -2.515 
0.397593 1.2105 -2.515 
0.41069 1.2182 -2.531 
0.424088 1.22638 -2.548 
0.434726 1.22638 -2.548 
0.448337 1.23456 -2.565 
0.462089 1.24275 -2.582 
0.47287 1.24275 -2.582 
0.487022 1.25141 -2.6 
0.501325 1.26007 -2.618 
0.515778 1.26874 -2.636 
0.530381 1.2774 -2.654 
0.541463 1.2774 -2.654 
0.5565 1.28655 -2.673 
0.571696 1.29569 -2.692 
0.582936 1.29569 -2.692 
0.598369 1.30484 -2.711 
0.613962 1.31398 -2.73 
0.629942 1.32361 -2.75 
0.646089 1.33323 -2.77 
0.662403 1.34286 -2.79 
0.678884 1.35249 -2.81 
0.695778 1.36259 -2.831 
0.712848 1.3727 -2.852 
0.724756 1.3727 -2.852 
0.742346 1.38329 -2.874 
0.754346 1.38329 -2.874 
0.766346 1.38329 -2.874 
0.784034 1.3934 -2.895 
0.796121 1.3934 -2.895 
0.808209 1.3934 -2.895 
0.814346 1.38329 -2.874 
0.826346 1.38329 -2.874 
0.838346 1.38329 -2.874 
0.850346 1.38329 -2.874 
0.862346 1.38329 -2.874 
0.867653 1.3727 -2.852 
0.879561 1.3727 -2.852 
0.891469 1.3727 -2.852 
0.903378 1.3727 -2.852 
0.922346 1.38329 -2.874 
0.934346 1.38329 -2.874 
0.953261 1.3934 -2.895 
0.965348 1.3934 -2.895 
0.985202 1.40447 -2.918 
0.997385 1.40447 -2.918 
1.00161 1.3934 -2.895 
1.0137 1.3934 -2.895 
1.03394 1.40447 -2.918 
1.03787 1.3934 -2.895 
1.04996 1.3934 -2.895 
1.06205 1.3934 -2.895 
1.06635 1.38329 -2.874 
1.07835 1.38329 -2.874 
1.09035 1.38329 -2.874 
1.09391 1.3727 -2.852 
1.09767 1.36259 -2.831 
1.10949 1.36259 -2.831 
1.12131 1.36259 -2.831 
1.13313 1.36259 -2.831 
1.14495 1.36259 -2.831 
1.15678 1.36259 -2.831 
1.1686 1.36259 -2.831 
1.18042 1.36259 -2.831 
1.20108 1.3727 -2.852 
1.21299 1.3727 -2.852 
1.23435 1.38329 -2.874 
1.25545 1.3934 -2.895 
1.26754 1.3934 -2.895 
1.28979 1.40447 -2.918 
1.30198 1.40447 -2.918 
1.31416 1.40447 -2.918 
1.33634 1.41506 -2.94 
1.34862 1.41506 -2.94 
1.3609 1.41506 -2.94 
1.3629 1.40447 -2.918 
1.37508 1.40447 -2.918 
1.38726 1.40447 -2.918 
1.38842 1.3934 -2.895 
1.4005 1.3934 -2.895 
1.40235 1.38329 -2.874 
1.40352 1.3727 -2.852 
1.405 1.36259 -2.831 
1.40632 1.35249 -2.81 
1.40795 1.34286 -2.79 
1.40943 1.33323 -2.77 
1.41073 1.32361 -2.75 
1.41187 1.31398 -2.73 
1.41337 1.30484 -2.711 
1.4147 1.29569 -2.692 
1.41588 1.28655 -2.673 
1.42704 1.28655 -2.673 
1.42797 1.2774 -2.654 
1.4293 1.26874 -2.636 
1.43047 1.26007 -2.618 
1.4414 1.26007 -2.618 
1.44234 1.25141 -2.6 
1.44314 1.24275 -2.582 
1.44435 1.23456 -2.565 
1.44541 1.22638 -2.548 
1.44634 1.2182 -2.531 
1.4477 1.2105 -2.515 
1.44834 1.20232 -2.498 
1.45877 1.20232 -2.498 
1.45979 1.19462 -2.482 
1.47015 1.19462 -2.482 
1.48052 1.19462 -2.482 
1.49088 1.19462 -2.482 
1.51092 1.20232 -2.498 
1.52135 1.20232 -2.498 
1.5422 1.2105 -2.515 
1.55271 1.2105 -2.515 
1.56321 1.2105 -2.515 
1.58372 1.2182 -2.531 
1.58421 1.2105 -2.515 
1.59471 1.2105 -2.515 
1.60521 1.2105 -2.515 
1.60479 1.20232 -2.498 
1.61522 1.20232 -2.498 
1.60483 1.18691 -2.466 
1.61512 1.18691 -2.466 
1.61487 1.17921 -2.45 
1.61449 1.17151 -2.434 
1.61464 1.16429 -2.419 
1.62474 1.16429 -2.419 
1.6247 1.15707 -2.404 
1.62454 1.14985 -2.389 
1.63452 1.14985 -2.389 
1.63416 1.14263 -2.374 
1.63369 1.13541 -2.359 
1.64354 1.13541 -2.359 
1.64358 1.12868 -2.345 
1.65337 1.12868 -2.345 
1.65323 1.12194 -2.331 
1.66296 1.12194 -2.331 
1.67269 1.12194 -2.331 
1.6716 1.11472 -2.316 
1.68127 1.11472 -2.316 
1.69094 1.11472 -2.316 
1.69033 1.10798 -2.302 
1.69994 1.10798 -2.302 
1.6999 1.10172 -2.289 
1.699 1.09498 -2.275 
1.7085 1.09498 -2.275 
1.70818 1.08873 -2.262 
1.707 1.08199 -2.248 
1.70646 1.07573 -2.235 
1.70581 1.06947 -2.222 
1.71509 1.06947 -2.222 
1.71428 1.06322 -2.209 
1.71414 1.05744 -2.197 
1.71311 1.05118 -2.184 
1.72223 1.05118 -2.184 
1.72184 1.04541 -2.172 
1.72055 1.03915 -2.159 
1.71995 1.03338 -2.147 
1.71925 1.0276 -2.135 
1.71845 1.02182 -2.123 
1.71836 1.01653 -2.112 
1.72718 1.01653 -2.112 
1.72614 1.01075 -2.1 
1.73491 1.01075 -2.1 
1.73454 1.00546 -2.089 
1.74326 1.00546 -2.089 
1.75199 1.00546 -2.089 
1.75059 0.999685 -2.077 
1.75927 0.999685 -2.077 
1.76794 0.999685 -2.077 
1.77661 0.999685 -2.077 
1.78528 0.999685 -2.077 
1.79396 0.999685 -2.077 
1.80263 0.999685 -2.077 
1.8113 0.999685 -2.077 
1.81997 0.999685 -2.077 
1.81896 0.99439 -2.066 
1.83732 0.999685 -2.077 
1.84599 0.999685 -2.077 
1.84484 0.99439 -2.066 
1.85346 0.99439 -2.066 
1.86209 0.99439 -2.066 
1.86076 0.989096 -2.055 
1.85933 0.983801 -2.044 
1.84776 0.973212 -2.022 
1.84702 0.968399 -2.012 
1.83606 0.958292 -1.991 
1.84437 0.958292 -1.991 
1.84245 0.952997 -1.98 
1.84137 0.948184 -1.97 
1.84959 0.948184 -1.97 
1.84839 0.943371 -1.96 
1.8471 0.938558 -1.95 
1.85524 0.938558 -1.95 
1.85383 0.933745 -1.94 
1.86193 0.933745 -1.94 
1.87003 0.933745 -1.94 
1.87813 0.933745 -1.94 
1.88623 0.933745 -1.94 
1.88457 0.928932 -1.93 
1.90243 0.933745 -1.94 
1.91053 0.933745 -1.94 
1.91863 0.933745 -1.94 
1.92673 0.933745 -1.94 
1.93483 0.933745 -1.94 
1.94293 0.933745 -1.94 
1.95103 0.933745 -1.94 
1.95913 0.933745 -1.94 
-1.25404 0.642226 -1.346 
-1.24842 0.642226 -1.346 
-1.2428 0.642226 -1.346 
-1.23718 0.642226 -1.346 
-1.23156 0.642226 -1.346 
-1.22594 0.642226 -1.346 
-1.22032 0.642226 -1.346 
-1.2147 0.642226 -1.346 
-1.21357 0.644611 -1.351 
-1.20793 0.644611 -1.351 
-1.20229 0.644611 -1.351 
-1.20019 0.64652 -1.355 
-1.19453 0.64652 -1.355 
-1.19326 0.648905 -1.36 
-1.18759 0.648905 -1.36 
-1.18191 0.648905 -1.36 
-1.18055 0.651291 -1.365 
-1.17485 0.651291 -1.365 
-1.16915 0.651291 -1.365 
-1.16772 0.653677 -1.37 
-1.162 0.653677 -1.37 
-1.1605 0.656063 -1.375 
-1.15895 0.658448 -1.38 
-1.15737 0.660834 -1.385 
-1.15159 0.660834 -1.385 
-1.14994 0.66322 -1.39 
-1.14825 0.665605 -1.395 
-1.14652 0.667991 -1.4 
-1.14068 0.667991 -1.4 
-1.13889 0.670377 -1.405 
-1.13302 0.670377 -1.405 
-1.13116 0.672762 -1.41 
-1.13006 0.675625 -1.416 
-1.12415 0.675625 -1.416 
-1.12219 0.678011 -1.421 
-1.11626 0.678011 -1.421 
-1.11032 0.678011 -1.421 
-1.10439 0.678011 -1.421 
-1.10232 0.680396 -1.426 
-1.10021 0.682782 -1.431 
-1.09424 0.682782 -1.431 
-1.09282 0.685645 -1.437 
-1.08682 0.685645 -1.437 
-1.08458 0.688031 -1.442 
-1.08305 0.690893 -1.448 
-1.07701 0.690893 -1.448 
-1.07466 0.693279 -1.453 
-1.06859 0.693279 -1.453 
-1.06252 0.693279 -1.453 
-1.05646 0.693279 -1.453 
-1.05039 0.693279 -1.453 
-1.04864 0.696142 -1.459 
-1.04254 0.696142 -1.459 
-1.03645 0.696142 -1.459 
-1.03036 0.696142 -1.459 
-1.02427 0.696142 -1.459 
-1.01818 0.696142 -1.459 
-1.01209 0.696142 -1.459 
-1.00944 0.698528 -1.464 
-1.00333 0.698528 -1.464 
-0.997216 0.698528 -1.464 
-0.995165 0.70139 -1.47 
-0.989027 0.70139 -1.47 
-0.982889 0.70139 -1.47 
-0.980738 0.704253 -1.476 
-0.974575 0.704253 -1.476 
-0.971693 0.706639 -1.481 
-0.969421 0.709502 -1.487 
-0.967099 0.712365 -1.493 
-0.960865 0.712365 -1.493 
-0.958468 0.715227 -1.499 
-0.95602 0.71809 -1.505 
-0.949736 0.71809 -1.505 
-0.943452 0.71809 -1.505 
-0.940905 0.720953 -1.511 
-0.934596 0.720953 -1.511 
-0.931973 0.723816 -1.517 
-0.925639 0.723816 -1.517 
-0.922941 0.726679 -1.523 
-0.916582 0.726679 -1.523 
-0.910223 0.726679 -1.523 
-0.903864 0.726679 -1.523 
-0.90104 0.729541 -1.529 
-0.894656 0.729541 -1.529 
-0.888272 0.729541 -1.529 
-0.881888 0.729541 -1.529 
-0.878939 0.732404 -1.535 
-0.87253 0.732404 -1.535 
-0.866121 0.732404 -1.535 
-0.863072 0.735267 -1.541 
-0.856638 0.735267 -1.541 
-0.853514 0.73813 -1.547 
-0.847055 0.73813 -1.547 
-0.844399 0.74147 -1.554 
-0.841146 0.744333 -1.56 
-0.834632 0.744333 -1.56 
-0.831304 0.747196 -1.566 
-0.828452 0.750535 -1.573 
-0.821884 0.750535 -1.573 
-0.818426 0.753398 -1.579 
-0.811833 0.753398 -1.579 
-0.80881 0.756738 -1.586 
-0.802188 0.756738 -1.586 
-0.799077 0.760078 -1.593 
-0.792426 0.760078 -1.593 
-0.785775 0.760078 -1.593 
-0.779123 0.760078 -1.593 
-0.775381 0.762941 -1.599 
-0.768705 0.762941 -1.599 
-0.765365 0.766281 -1.606 
-0.758659 0.766281 -1.606 
-0.755231 0.769621 -1.613 
-0.754528 0.775824 -1.626 
-0.750958 0.779164 -1.633 
-0.74733 0.782504 -1.64 
-0.743643 0.785844 -1.647 
-0.740345 0.789661 -1.655 
-0.736537 0.793001 -1.662 
-0.73267 0.796341 -1.669 
-0.725701 0.796341 -1.669 
-0.721747 0.799681 -1.676 
-0.714749 0.799681 -1.676 
-0.71113 0.803498 -1.684 
-0.704098 0.803498 -1.684 
-0.697067 0.803498 -1.684 
-0.690036 0.803498 -1.684 
-0.685844 0.806838 -1.691 
-0.678783 0.806838 -1.691 
-0.6749 0.810655 -1.699 
-0.667807 0.810655 -1.699 
-0.660713 0.810655 -1.699 
-0.656312 0.813995 -1.706 
-0.649188 0.813995 -1.706 
-0.642065 0.813995 -1.706 
-0.63792 0.817812 -1.714 
-0.630763 0.817812 -1.714 
-0.626517 0.821629 -1.722 
-0.619327 0.821629 -1.722 
-0.614626 0.824969 -1.729 
-0.610217 0.828786 -1.737 
-0.605741 0.832603 -1.745 
-0.598455 0.832603 -1.745 
-0.593879 0.83642 -1.753 
-0.58656 0.83642 -1.753 
-0.579241 0.83642 -1.753 
-0.574531 0.840237 -1.761 
-0.569755 0.844054 -1.769 
-0.56523 0.848348 -1.778 
-0.557806 0.848348 -1.778 
-0.552859 0.852166 -1.786 
-0.547845 0.855983 -1.794 
-0.543065 0.860277 -1.803 
-0.537913 0.864094 -1.811 
-0.532987 0.868388 -1.82 
-0.527986 0.872682 -1.829 
-0.52291 0.876977 -1.838 
-0.515235 0.876977 -1.838 
-0.507561 0.876977 -1.838 
-0.502062 0.880794 -1.846 
-0.494355 0.880794 -1.846 
-0.48902 0.885088 -1.855 
-0.483609 0.889382 -1.864 
-0.475827 0.889382 -1.864 
-0.470555 0.894154 -1.874 
-0.464952 0.898448 -1.883 
-0.45709 0.898448 -1.883 
-0.451375 0.902742 -1.892 
-0.445819 0.907513 -1.902 
-0.43995 0.911808 -1.911 
-0.431971 0.911808 -1.911 
-0.42621 0.916579 -1.921 
-0.418189 0.916579 -1.921 
-0.41209 0.920873 -1.93 
-0.404032 0.920873 -1.93 
-0.395973 0.920873 -1.93 
-0.389925 0.925645 -1.94 
-0.381824 0.925645 -1.94 
-0.373724 0.925645 -1.94 
-0.367509 0.930416 -1.95 
-0.359367 0.930416 -1.95 
-0.353026 0.935187 -1.96 
-0.344842 0.935187 -1.96 
-0.338376 0.939959 -1.97 
-0.331827 0.94473 -1.98 
-0.325357 0.949978 -1.991 
-0.317044 0.949978 -1.991 
-0.310281 0.95475 -2.001 
-0.301927 0.95475 -2.001 
-0.295185 0.959998 -2.012 
-0.286785 0.959998 -2.012 
-0.278384 0.959998 -2.012 
-0.271325 0.96477 -2.022 
-0.262882 0.96477 -2.022 
-0.25444 0.96477 -2.022 
-0.247335 0.970018 -2.033 
-0.238847 0.970018 -2.033 
-0.230358 0.970018 -2.033 
-0.22307 0.975267 -2.044 
-0.214536 0.975267 -2.044 
-0.206002 0.975267 -2.044 
-0.19853 0.980515 -2.055 
-0.189949 0.980515 -2.055 
-0.18234 0.985764 -2.066 
-0.174638 0.991012 -2.077 
-0.166925 0.996738 -2.089 
-0.159036 1.00199 -2.1 
-0.150268 1.00199 -2.1 
-0.142308 1.00771 -2.112 
-0.134185 1.01296 -2.123 
-0.126029 1.01869 -2.135 
-0.117773 1.02441 -2.147 
-0.109416 1.03014 -2.159 
-0.100402 1.03014 -2.159 
-0.0919375 1.03634 -2.172 
-0.0833265 1.04207 -2.184 
-0.0742075 1.04207 -2.184 
-0.0654759 1.04827 -2.197 
-0.0566102 1.05399 -2.209 
-0.0476657 1.0602 -2.222 
-0.0386127 1.0664 -2.235 
-0.0292807 1.0664 -2.235 
-0.0200648 1.0726 -2.248 
-0.0107451 1.07928 -2.262 
-0.00130796 1.08549 -2.275 
0.00824139 1.09217 -2.289 
0.0177988 1.09217 -2.289 
0.0275115 1.09837 -2.302 
0.0371232 1.09837 -2.302 
0.0470191 1.10505 -2.316 
0.0566892 1.10505 -2.316 
0.0667892 1.1122 -2.331 
0.0765219 1.1122 -2.331 
0.0862547 1.1122 -2.331 
0.0965639 1.11888 -2.345 
0.106355 1.11888 -2.345 
0.11684 1.12556 -2.359 
0.126689 1.12556 -2.359 
0.136539 1.12556 -2.359 
0.14732 1.13272 -2.374 
0.157232 1.13272 -2.374 
0.1682 1.13988 -2.389 
0.178175 1.13988 -2.389 
0.189332 1.14704 -2.404 
0.199369 1.14704 -2.404 
0.210713 1.15419 -2.419 
0.220813 1.15419 -2.419 
0.230914 1.15419 -2.419 
0.242508 1.16135 -2.434 
0.252671 1.16135 -2.434 
0.264562 1.16898 -2.45 
0.274791 1.16898 -2.45 
0.285021 1.16898 -2.45 
0.297179 1.17662 -2.466 
0.307475 1.17662 -2.466 
0.317772 1.17662 -2.466 
0.328068 1.17662 -2.466 
0.34056 1.18425 -2.482 
0.350923 1.18425 -2.482 
0.363615 1.19189 -2.498 
0.374045 1.19189 -2.498 
0.387092 1.2 -2.515 
0.400122 1.20763 -2.531 
0.41069 1.20763 -2.531 
0.424088 1.21574 -2.548 
0.434726 1.21574 -2.548 
0.448337 1.22385 -2.565 
0.462089 1.23197 -2.582 
0.476166 1.24055 -2.6 
0.487022 1.24055 -2.6 
0.501325 1.24914 -2.618 
0.515778 1.25773 -2.636 
0.530381 1.26632 -2.654 
0.541463 1.26632 -2.654 
0.5565 1.27539 -2.673 
0.571696 1.28445 -2.692 
0.58705 1.29352 -2.711 
0.602563 1.30258 -2.73 
0.61846 1.31213 -2.75 
0.634523 1.32167 -2.77 
0.650754 1.33121 -2.79 
0.667152 1.34075 -2.81 
0.683958 1.35077 -2.831 
0.695778 1.35077 -2.831 
0.712848 1.36079 -2.852 
0.730346 1.37129 -2.874 
0.742346 1.37129 -2.874 
0.759858 1.38131 -2.895 
0.771946 1.38131 -2.895 
0.784034 1.38131 -2.895 
0.796121 1.38131 -2.895 
0.808209 1.38131 -2.895 
0.820297 1.38131 -2.895 
0.832384 1.38131 -2.895 
0.844472 1.38131 -2.895 
0.850346 1.37129 -2.874 
0.862346 1.37129 -2.874 
0.874346 1.37129 -2.874 
0.886346 1.37129 -2.874 
0.898346 1.37129 -2.874 
0.903378 1.36079 -2.852 
0.922346 1.37129 -2.874 
0.934346 1.37129 -2.874 
0.953261 1.38131 -2.895 
0.965348 1.38131 -2.895 
0.985202 1.39228 -2.918 
0.997385 1.39228 -2.918 
1.00957 1.39228 -2.918 
1.02175 1.39228 -2.918 
1.03394 1.39228 -2.918 
1.04612 1.39228 -2.918 
1.04996 1.38131 -2.895 
1.06205 1.38131 -2.895 
1.07414 1.38131 -2.895 
1.08623 1.38131 -2.895 
1.09035 1.37129 -2.874 
1.10235 1.37129 -2.874 
1.11435 1.37129 -2.874 
1.12635 1.37129 -2.874 
1.12963 1.36079 -2.852 
1.14154 1.36079 -2.852 
1.15345 1.36079 -2.852 
1.16536 1.36079 -2.852 
1.17726 1.36079 -2.852 
1.18917 1.36079 -2.852 
1.21035 1.37129 -2.874 
1.22235 1.37129 -2.874 
1.24336 1.38131 -2.895 
1.25545 1.38131 -2.895 
1.27761 1.39228 -2.918 
1.28979 1.39228 -2.918 
1.30198 1.39228 -2.918 
1.31416 1.39228 -2.918 
1.33634 1.40278 -2.94 
1.34862 1.40278 -2.94 
1.3609 1.40278 -2.94 
1.3629 1.39228 -2.918 
1.37508 1.39228 -2.918 
1.38726 1.39228 -2.918 
1.39945 1.39228 -2.918 
1.4005 1.38131 -2.895 
1.40235 1.37129 -2.874 
1.40352 1.36079 -2.852 
1.405 1.35077 -2.831 
1.40632 1.34075 -2.81 
1.40795 1.33121 -2.79 
1.40943 1.32167 -2.77 
1.41073 1.31213 -2.75 
1.41187 1.30258 -2.73 
1.41337 1.29352 -2.711 
1.4147 1.28445 -2.692 
1.41588 1.27539 -2.673 
1.41689 1.26632 -2.654 
1.42797 1.26632 -2.654 
1.4293 1.25773 -2.636 
1.43047 1.24914 -2.618 
1.4414 1.24914 -2.618 
1.44234 1.24055 -2.6 
1.44314 1.23197 -2.582 
1.44435 1.22385 -2.565 
1.44541 1.21574 -2.548 
1.44634 1.20763 -2.531 
1.4477 1.2 -2.515 
1.4582 1.2 -2.515 
1.45877 1.19189 -2.498 
1.4692 1.19189 -2.498 
1.47963 1.19189 -2.498 
1.48052 1.18425 -2.482 
1.49088 1.18425 -2.482 
1.51092 1.19189 -2.498 
1.52135 1.19189 -2.498 
1.5422 1.2 -2.515 
1.55271 1.2 -2.515 
1.56321 1.2 -2.515 
1.57371 1.2 -2.515 
1.58421 1.2 -2.515 
1.59471 1.2 -2.515 
1.60521 1.2 -2.515 
1.60479 1.19189 -2.498 
1.60487 1.18425 -2.482 
1.60483 1.17662 -2.466 
1.60464 1.16898 -2.45 
1.60433 1.16135 -2.434 
1.61449 1.16135 -2.434 
1.61464 1.15419 -2.419 
1.61466 1.14704 -2.404 
1.61457 1.13988 -2.389 
1.62454 1.13988 -2.389 
1.62425 1.13272 -2.374 
1.62384 1.12556 -2.359 
1.63369 1.12556 -2.359 
1.63378 1.11888 -2.345 
1.63376 1.1122 -2.331 
1.6435 1.1122 -2.331 
1.65323 1.1122 -2.331 
1.65226 1.10505 -2.316 
1.66193 1.10505 -2.316 
1.6716 1.10505 -2.316 
1.68127 1.10505 -2.316 
1.68072 1.09837 -2.302 
1.69033 1.09837 -2.302 
1.69994 1.09837 -2.302 
1.6999 1.09217 -2.289 
1.699 1.08549 -2.275 
1.7085 1.08549 -2.275 
1.70818 1.07928 -2.262 
1.707 1.0726 -2.248 
1.70646 1.0664 -2.235 
1.71579 1.0664 -2.235 
1.71509 1.0602 -2.222 
1.71428 1.05399 -2.209 
1.71414 1.04827 -2.197 
1.71311 1.04207 -2.184 
1.72223 1.04207 -2.184 
1.72184 1.03634 -2.172 
1.72055 1.03014 -2.159 
1.71995 1.02441 -2.147 
1.72891 1.02441 -2.147 
1.72816 1.01869 -2.135 
1.72731 1.01296 -2.123 
1.73618 1.01296 -2.123 
1.736 1.00771 -2.112 
1.73491 1.00199 -2.1 
1.74367 1.00199 -2.1 
1.74326 0.996738 -2.089 
1.75199 0.996738 -2.089 
1.76071 0.996738 -2.089 
1.75927 0.991012 -2.077 
1.76794 0.991012 -2.077 
1.77661 0.991012 -2.077 
1.77583 0.985764 -2.066 
1.78445 0.985764 -2.066 
1.79308 0.985764 -2.066 
1.80171 0.985764 -2.066 
1.81033 0.985764 -2.066 
1.81896 0.985764 -2.066 
1.82759 0.985764 -2.066 
1.83621 0.985764 -2.066 
1.84484 0.985764 -2.066 
1.85346 0.985764 -2.066 
1.85218 0.980515 -2.055 
1.8508 0.975267 -2.044 
1.85933 0.975267 -2.044 
1.85781 0.970018 -2.033 
1.8562 0.96477 -2.022 
1.84528 0.95475 -2.001 
1.84437 0.949978 -1.991 
1.85268 0.949978 -1.991 
1.85072 0.94473 -1.98 
1.84959 0.939959 -1.97 
1.85782 0.939959 -1.97 
1.85657 0.935187 -1.96 
1.86476 0.935187 -1.96 
1.87294 0.935187 -1.96 
1.87153 0.930416 -1.95 
1.87967 0.930416 -1.95 
1.88781 0.930416 -1.95 
1.89595 0.930416 -1.95 
1.89433 0.925645 -1.94 
1.90243 0.925645 -1.94 
1.91053 0.925645 -1.94 
1.92852 0.930416 -1.95 
1.93666 0.930416 -1.95 
1.9448 0.930416 -1.95 
1.94293 0.925645 -1.94 
1.95103 0.925645 -1.94 
1.95913 0.925645 -1.94 
-1.24842 0.636606 -1.346 
-1.2428 0.636606 -1.346 
-1.23718 0.636606 -1.346 
-1.23156 0.636606 -1.346 
-1.22594 0.636606 -1.346 
-1.22032 0.636606 -1.346 
-1.2147 0.636606 -1.346 
-1.20908 0.636606 -1.346 
-1.20793 0.63897 -1.351 
-1.20229 0.63897 -1.351 
-1.19665 0.63897 -1.351 
-1.19453 0.640862 -1.355 
-1.18888 0.640862 -1.355 
-1.18759 0.643227 -1.36 
-1.18191 0.643227 -1.36 
-1.17623 0.643227 -1.36 
-1.17485 0.645592 -1.365 
-1.16915 0.645592 -1.365 
-1.16772 0.647957 -1.37 
-1.16624 0.650321 -1.375 
-1.1605 0.650321 -1.375 
-1.15895 0.652686 -1.38 
-1.15737 0.655051 -1.385 
-1.15159 0.655051 -1.385 
-1.14994 0.657416 -1.39 
-1.14414 0.657416 -1.39 
-1.14243 0.659781 -1.395 
-1.14068 0.662145 -1.4 
-1.13483 0.662145 -1.4 
-1.13302 0.66451 -1.405 
-1.13116 0.666875 -1.41 
-1.12528 0.666875 -1.41 
-1.12415 0.669713 -1.416 
-1.11824 0.669713 -1.416 
-1.11626 0.672078 -1.421 
-1.11032 0.672078 -1.421 
-1.10439 0.672078 -1.421 
-1.10232 0.674442 -1.426 
-1.09637 0.674442 -1.426 
-1.09424 0.676807 -1.431 
-1.09282 0.679645 -1.437 
-1.09061 0.68201 -1.442 
-1.08458 0.68201 -1.442 
-1.08305 0.684848 -1.448 
-1.07701 0.684848 -1.448 
-1.07466 0.687212 -1.453 
-1.06859 0.687212 -1.453 
-1.06252 0.687212 -1.453 
-1.05646 0.687212 -1.453 
-1.05039 0.687212 -1.453 
-1.04864 0.69005 -1.459 
-1.04254 0.69005 -1.459 
-1.03645 0.69005 -1.459 
-1.03036 0.69005 -1.459 
-1.02427 0.69005 -1.459 
-1.01818 0.69005 -1.459 
-1.01555 0.692415 -1.464 
-1.00944 0.692415 -1.464 
-1.00333 0.692415 -1.464 
-1.0013 0.695253 -1.47 
-0.995165 0.695253 -1.47 
-0.989027 0.695253 -1.47 
-0.986901 0.69809 -1.476 
-0.980738 0.69809 -1.476 
-0.977877 0.700455 -1.481 
-0.971693 0.700455 -1.481 
-0.969421 0.703293 -1.487 
-0.967099 0.706131 -1.493 
-0.960865 0.706131 -1.493 
-0.958468 0.708969 -1.499 
-0.95602 0.711806 -1.505 
-0.949736 0.711806 -1.505 
-0.943452 0.711806 -1.505 
-0.940905 0.714644 -1.511 
-0.934596 0.714644 -1.511 
-0.931973 0.717482 -1.517 
-0.9293 0.72032 -1.523 
-0.922941 0.72032 -1.523 
-0.916582 0.72032 -1.523 
-0.913809 0.723157 -1.529 
-0.907424 0.723157 -1.529 
-0.90104 0.723157 -1.529 
-0.894656 0.723157 -1.529 
-0.891758 0.725995 -1.535 
-0.885349 0.725995 -1.535 
-0.878939 0.725995 -1.535 
-0.87253 0.725995 -1.535 
-0.869507 0.728833 -1.541 
-0.863072 0.728833 -1.541 
-0.856638 0.728833 -1.541 
-0.853514 0.731671 -1.547 
-0.847055 0.731671 -1.547 
-0.844399 0.734981 -1.554 
-0.837911 0.734981 -1.554 
-0.834632 0.737819 -1.56 
-0.831304 0.740657 -1.566 
-0.824765 0.740657 -1.566 
-0.821884 0.743968 -1.573 
-0.818426 0.746805 -1.579 
-0.811833 0.746805 -1.579 
-0.80881 0.750116 -1.586 
-0.802188 0.750116 -1.586 
-0.799077 0.753427 -1.593 
-0.792426 0.753427 -1.593 
-0.785775 0.753427 -1.593 
-0.779123 0.753427 -1.593 
-0.775381 0.756265 -1.599 
-0.768705 0.756265 -1.599 
-0.765365 0.759575 -1.606 
-0.758659 0.759575 -1.606 
-0.758508 0.766197 -1.62 
-0.754528 0.769035 -1.626 
-0.750958 0.772345 -1.633 
-0.74733 0.775656 -1.64 
-0.743643 0.778967 -1.647 
-0.740345 0.78275 -1.655 
-0.736537 0.786061 -1.662 
-0.73267 0.789372 -1.669 
-0.725701 0.789372 -1.669 
-0.721747 0.792683 -1.676 
-0.714749 0.792683 -1.676 
-0.71113 0.796466 -1.684 
-0.704098 0.796466 -1.684 
-0.697067 0.796466 -1.684 
-0.692904 0.799777 -1.691 
-0.685844 0.799777 -1.691 
-0.681994 0.803561 -1.699 
-0.6749 0.803561 -1.699 
-0.667807 0.803561 -1.699 
-0.660713 0.803561 -1.699 
-0.656312 0.806872 -1.706 
-0.649188 0.806872 -1.706 
-0.642065 0.806872 -1.706 
-0.63792 0.810655 -1.714 
-0.630763 0.810655 -1.714 
-0.626517 0.814439 -1.722 
-0.619327 0.814439 -1.722 
-0.614626 0.81775 -1.729 
-0.610217 0.821533 -1.737 
-0.602964 0.821533 -1.737 
-0.598455 0.825317 -1.745 
-0.593879 0.829101 -1.753 
-0.58656 0.829101 -1.753 
-0.581884 0.832884 -1.761 
-0.574531 0.832884 -1.761 
-0.569755 0.836668 -1.769 
-0.56523 0.840925 -1.778 
-0.557806 0.840925 -1.778 
-0.552859 0.844708 -1.786 
-0.547845 0.848492 -1.794 
-0.543065 0.852749 -1.803 
-0.537913 0.856532 -1.811 
-0.532987 0.860789 -1.82 
-0.527986 0.865046 -1.829 
-0.52291 0.869302 -1.838 
-0.515235 0.869302 -1.838 
-0.507561 0.869302 -1.838 
-0.502062 0.873086 -1.846 
-0.494355 0.873086 -1.846 
-0.48902 0.877343 -1.855 
-0.481274 0.877343 -1.855 
-0.475827 0.881599 -1.864 
-0.470555 0.886329 -1.874 
-0.46273 0.886329 -1.874 
-0.45709 0.890586 -1.883 
-0.451375 0.894842 -1.892 
-0.445819 0.899572 -1.902 
-0.437878 0.899572 -1.902 
-0.431971 0.903829 -1.911 
-0.42621 0.908558 -1.921 
-0.418189 0.908558 -1.921 
-0.410168 0.908558 -1.921 
-0.404032 0.912815 -1.93 
-0.395973 0.912815 -1.93 
-0.389925 0.917544 -1.94 
-0.381824 0.917544 -1.94 
-0.375651 0.922274 -1.95 
-0.367509 0.922274 -1.95 
-0.36121 0.927004 -1.96 
-0.353026 0.927004 -1.96 
-0.346602 0.931733 -1.97 
-0.338376 0.931733 -1.97 
-0.331827 0.936463 -1.98 
-0.325357 0.941665 -1.991 
-0.317044 0.941665 -1.991 
-0.310281 0.946395 -2.001 
-0.301927 0.946395 -2.001 
-0.295185 0.951598 -2.012 
-0.286785 0.951598 -2.012 
-0.278384 0.951598 -2.012 
-0.271325 0.956327 -2.022 
-0.262882 0.956327 -2.022 
-0.25444 0.956327 -2.022 
-0.247335 0.96153 -2.033 
-0.238847 0.96153 -2.033 
-0.230358 0.96153 -2.033 
-0.22307 0.966732 -2.044 
-0.214536 0.966732 -2.044 
-0.206002 0.966732 -2.044 
-0.19853 0.971935 -2.055 
-0.189949 0.971935 -2.055 
-0.18234 0.977137 -2.066 
-0.174638 0.98234 -2.077 
-0.166925 0.988016 -2.089 
-0.158203 0.988016 -2.089 
-0.150268 0.993218 -2.1 
-0.142308 0.998894 -2.112 
-0.134185 1.0041 -2.123 
-0.126029 1.00977 -2.135 
-0.117773 1.01545 -2.147 
-0.108808 1.01545 -2.147 
-0.100402 1.02112 -2.159 
-0.0913872 1.02112 -2.159 
-0.0828686 1.02727 -2.172 
-0.0742075 1.03295 -2.184 
-0.0654759 1.0391 -2.197 
-0.0566102 1.04477 -2.209 
-0.0476657 1.05092 -2.222 
-0.0383881 1.05092 -2.222 
-0.0292807 1.05707 -2.235 
-0.0200648 1.06322 -2.248 
-0.0107451 1.06984 -2.262 
-0.00130796 1.07599 -2.275 
0.00824139 1.08261 -2.289 
0.0177988 1.08261 -2.289 
0.0275115 1.08876 -2.302 
0.0371232 1.08876 -2.302 
0.0470191 1.09538 -2.316 
0.0566892 1.09538 -2.316 
0.0667892 1.10247 -2.331 
0.0765219 1.10247 -2.331 
0.0867727 1.10909 -2.345 
0.0965639 1.10909 -2.345 
0.106355 1.10909 -2.345 
0.11684 1.11572 -2.359 
0.126689 1.11572 -2.359 
0.137407 1.12281 -2.374 
0.14732 1.12281 -2.374 
0.157232 1.12281 -2.374 
0.1682 1.1299 -2.389 
0.178175 1.1299 -2.389 
0.18815 1.1299 -2.389 
0.199369 1.137 -2.404 
0.209407 1.137 -2.404 
0.220813 1.14409 -2.419 
0.230914 1.14409 -2.419 
0.242508 1.15119 -2.434 
0.252671 1.15119 -2.434 
0.264562 1.15875 -2.45 
0.274791 1.15875 -2.45 
0.286882 1.16632 -2.466 
0.297179 1.16632 -2.466 
0.307475 1.16632 -2.466 
0.317772 1.16632 -2.466 
0.330197 1.17389 -2.482 
0.34056 1.17389 -2.482 
0.353185 1.18146 -2.498 
0.363615 1.18146 -2.498 
0.374045 1.18146 -2.498 
0.387092 1.1895 -2.515 
0.400122 1.19706 -2.531 
0.41069 1.19706 -2.531 
0.421258 1.19706 -2.531 
0.434726 1.2051 -2.548 
0.448337 1.21315 -2.565 
0.462089 1.22119 -2.582 
0.47287 1.22119 -2.582 
0.487022 1.2297 -2.6 
0.501325 1.23821 -2.618 
0.515778 1.24673 -2.636 
0.526784 1.24673 -2.636 
0.541463 1.25524 -2.654 
0.5565 1.26422 -2.673 
0.571696 1.27321 -2.692 
0.58705 1.2822 -2.711 
0.602563 1.29118 -2.73 
0.61846 1.30064 -2.75 
0.634523 1.3101 -2.77 
0.650754 1.31956 -2.79 
0.667152 1.32902 -2.81 
0.683958 1.33895 -2.831 
0.695778 1.33895 -2.831 
0.712848 1.34888 -2.852 
0.730346 1.35929 -2.874 
0.747771 1.36922 -2.895 
0.765895 1.3801 -2.918 
0.778079 1.3801 -2.918 
0.790263 1.3801 -2.918 
0.802446 1.3801 -2.918 
0.808209 1.36922 -2.895 
0.820297 1.36922 -2.895 
0.832384 1.36922 -2.895 
0.844472 1.36922 -2.895 
0.85656 1.36922 -2.895 
0.862346 1.35929 -2.874 
0.874346 1.35929 -2.874 
0.886346 1.35929 -2.874 
0.898346 1.35929 -2.874 
0.910346 1.35929 -2.874 
0.929086 1.36922 -2.895 
0.941173 1.36922 -2.895 
0.960834 1.3801 -2.918 
0.973018 1.3801 -2.918 
0.985202 1.3801 -2.918 
1.0049 1.39051 -2.94 
1.01718 1.39051 -2.94 
1.02946 1.39051 -2.94 
1.04173 1.39051 -2.94 
1.05401 1.39051 -2.94 
1.0583 1.3801 -2.918 
1.07049 1.3801 -2.918 
1.08267 1.3801 -2.918 
1.08623 1.36922 -2.895 
1.09831 1.36922 -2.895 
1.1104 1.36922 -2.895 
1.12249 1.36922 -2.895 
1.12635 1.35929 -2.874 
1.13835 1.35929 -2.874 
1.15035 1.35929 -2.874 
1.16235 1.35929 -2.874 
1.17435 1.35929 -2.874 
1.18635 1.35929 -2.874 
1.19835 1.35929 -2.874 
1.21919 1.36922 -2.895 
1.23128 1.36922 -2.895 
1.24336 1.36922 -2.895 
1.25545 1.36922 -2.895 
1.27761 1.3801 -2.918 
1.28979 1.3801 -2.918 
1.31179 1.39051 -2.94 
1.32407 1.39051 -2.94 
1.33634 1.39051 -2.94 
1.34862 1.39051 -2.94 
1.3609 1.39051 -2.94 
1.37317 1.39051 -2.94 
1.38545 1.39051 -2.94 
1.39772 1.39051 -2.94 
1.39945 1.3801 -2.918 
1.41163 1.3801 -2.918 
1.41259 1.36922 -2.895 
1.41435 1.35929 -2.874 
1.41543 1.34888 -2.852 
1.40632 1.32902 -2.81 
1.40795 1.31956 -2.79 
1.40943 1.3101 -2.77 
1.41073 1.30064 -2.75 
1.41187 1.29118 -2.73 
1.41337 1.2822 -2.711 
1.4147 1.27321 -2.692 
1.41588 1.26422 -2.673 
1.42704 1.26422 -2.673 
1.42797 1.25524 -2.654 
1.4293 1.24673 -2.636 
1.43047 1.23821 -2.618 
1.4414 1.23821 -2.618 
1.44234 1.2297 -2.6 
1.44314 1.22119 -2.582 
1.44435 1.21315 -2.565 
1.44541 1.2051 -2.548 
1.44634 1.19706 -2.531 
1.45691 1.19706 -2.531 
1.4582 1.1895 -2.515 
1.4687 1.1895 -2.515 
1.4792 1.1895 -2.515 
1.4897 1.1895 -2.515 
1.5002 1.1895 -2.515 
1.5107 1.1895 -2.515 
1.5212 1.1895 -2.515 
1.54145 1.19706 -2.531 
1.5422 1.1895 -2.515 
1.55271 1.1895 -2.515 
1.56321 1.1895 -2.515 
1.57371 1.1895 -2.515 
1.58421 1.1895 -2.515 
1.59471 1.1895 -2.515 
1.59436 1.18146 -2.498 
1.60479 1.18146 -2.498 
1.59453 1.16632 -2.466 
1.60483 1.16632 -2.466 
1.60464 1.15875 -2.45 
1.60433 1.15119 -2.434 
1.60454 1.14409 -2.419 
1.60463 1.137 -2.404 
1.60459 1.1299 -2.389 
1.60443 1.12281 -2.374 
1.61434 1.12281 -2.374 
1.61399 1.11572 -2.359 
1.62384 1.11572 -2.359 
1.62399 1.10909 -2.345 
1.62403 1.10247 -2.331 
1.63376 1.10247 -2.331 
1.6435 1.10247 -2.331 
1.64259 1.09538 -2.316 
1.65226 1.09538 -2.316 
1.66193 1.09538 -2.316 
1.6716 1.09538 -2.316 
1.68127 1.09538 -2.316 
1.68072 1.08876 -2.302 
1.69033 1.08876 -2.302 
1.69034 1.08261 -2.289 
1.6999 1.08261 -2.289 
1.699 1.07599 -2.275 
1.69874 1.06984 -2.262 
1.69761 1.06322 -2.248 
1.707 1.06322 -2.248 
1.70646 1.05707 -2.235 
1.71579 1.05707 -2.235 
1.71509 1.05092 -2.222 
1.71428 1.04477 -2.209 
1.71414 1.0391 -2.197 
1.71311 1.03295 -2.184 
1.72223 1.03295 -2.184 
1.72184 1.02727 -2.172 
1.72055 1.02112 -2.159 
1.72956 1.02112 -2.159 
1.72891 1.01545 -2.147 
1.72816 1.00977 -2.135 
1.73708 1.00977 -2.135 
1.73618 1.0041 -2.123 
1.74504 1.0041 -2.123 
1.74482 0.998894 -2.112 
1.74367 0.993218 -2.1 
1.75244 0.993218 -2.1 
1.75199 0.988016 -2.089 
1.76071 0.988016 -2.089 
1.75927 0.98234 -2.077 
1.76794 0.98234 -2.077 
1.7672 0.977137 -2.066 
1.77583 0.977137 -2.066 
1.78445 0.977137 -2.066 
1.79308 0.977137 -2.066 
1.79211 0.971935 -2.055 
1.80069 0.971935 -2.055 
1.80927 0.971935 -2.055 
1.81785 0.971935 -2.055 
1.82644 0.971935 -2.055 
1.83502 0.971935 -2.055 
1.8436 0.971935 -2.055 
1.85218 0.971935 -2.055 
1.8508 0.966732 -2.044 
1.85933 0.966732 -2.044 
1.85781 0.96153 -2.033 
1.8562 0.956327 -2.022 
1.85542 0.951598 -2.012 
1.85364 0.946395 -2.001 
1.86199 0.946395 -2.001 
1.861 0.941665 -1.991 
1.86931 0.941665 -1.991 
1.86725 0.936463 -1.98 
1.86605 0.931733 -1.97 
1.86476 0.927004 -1.96 
1.87294 0.927004 -1.96 
1.88112 0.927004 -1.96 
1.88931 0.927004 -1.96 
1.88781 0.922274 -1.95 
1.89595 0.922274 -1.95 
1.90409 0.922274 -1.95 
1.90243 0.917544 -1.94 
1.91053 0.917544 -1.94 
1.92852 0.922274 -1.95 
1.93666 0.922274 -1.95 
1.9448 0.922274 -1.95 
1.94293 0.917544 -1.94 
1.95103 0.917544 -1.94 
1.95913 0.917544 -1.94 
-1.26808 0.635205 -1.355 
-1.2587 0.633329 -1.351 
-1.24842 0.630985 -1.346 
-1.2428 0.630985 -1.346 
-1.23718 0.630985 -1.346 
-1.23156 0.630985 -1.346 
-1.22594 0.630985 -1.346 
-1.21579 0.628642 -1.341 
-1.21019 0.628642 -1.341 
-1.20908 0.630985 -1.346 
-1.20346 0.630985 -1.346 
-1.20229 0.633329 -1.351 
-1.19665 0.633329 -1.351 
-1.19101 0.633329 -1.351 
-1.18888 0.635205 -1.355 
-1.18759 0.637549 -1.36 
-1.18191 0.637549 -1.36 
-1.17623 0.637549 -1.36 
-1.17485 0.639892 -1.365 
-1.16915 0.639892 -1.365 
-1.16772 0.642236 -1.37 
-1.16624 0.64458 -1.375 
-1.1605 0.64458 -1.375 
-1.15895 0.646924 -1.38 
-1.15737 0.649268 -1.385 
-1.15159 0.649268 -1.385 
-1.1458 0.649268 -1.385 
-1.14414 0.651612 -1.39 
-1.14243 0.653956 -1.395 
-1.14068 0.6563 -1.4 
-1.13483 0.6563 -1.4 
-1.13302 0.658644 -1.405 
-1.12715 0.658644 -1.405 
-1.12528 0.660988 -1.41 
-1.12415 0.6638 -1.416 
-1.11824 0.6638 -1.416 
-1.11626 0.666144 -1.421 
-1.11032 0.666144 -1.421 
-1.10439 0.666144 -1.421 
-1.10232 0.668488 -1.426 
-1.09637 0.668488 -1.426 
-1.09424 0.670832 -1.431 
-1.09282 0.673645 -1.437 
-1.09061 0.675989 -1.442 
-1.08458 0.675989 -1.442 
-1.08305 0.678802 -1.448 
-1.07701 0.678802 -1.448 
-1.07466 0.681146 -1.453 
-1.06859 0.681146 -1.453 
-1.06252 0.681146 -1.453 
-1.05646 0.681146 -1.453 
-1.05473 0.683958 -1.459 
-1.04864 0.683958 -1.459 
-1.04254 0.683958 -1.459 
-1.03645 0.683958 -1.459 
-1.03036 0.683958 -1.459 
-1.02427 0.683958 -1.459 
-1.01818 0.683958 -1.459 
-1.01555 0.686302 -1.464 
-1.00944 0.686302 -1.464 
-1.00333 0.686302 -1.464 
-1.0013 0.689115 -1.47 
-0.995165 0.689115 -1.47 
-0.989027 0.689115 -1.47 
-0.986901 0.691928 -1.476 
-0.980738 0.691928 -1.476 
-0.977877 0.694272 -1.481 
-0.97563 0.697084 -1.487 
-0.969421 0.697084 -1.487 
-0.967099 0.699897 -1.493 
-0.960865 0.699897 -1.493 
-0.958468 0.70271 -1.499 
-0.95602 0.705522 -1.505 
-0.949736 0.705522 -1.505 
-0.947214 0.708335 -1.511 
-0.940905 0.708335 -1.511 
-0.938307 0.711148 -1.517 
-0.931973 0.711148 -1.517 
-0.9293 0.713961 -1.523 
-0.922941 0.713961 -1.523 
-0.920193 0.716773 -1.529 
-0.913809 0.716773 -1.529 
-0.907424 0.716773 -1.529 
-0.904576 0.719586 -1.535 
-0.898167 0.719586 -1.535 
-0.891758 0.719586 -1.535 
-0.885349 0.719586 -1.535 
-0.878939 0.719586 -1.535 
-0.875941 0.722399 -1.541 
-0.869507 0.722399 -1.541 
-0.863072 0.722399 -1.541 
-0.856638 0.722399 -1.541 
-0.853514 0.725211 -1.547 
-0.847055 0.725211 -1.547 
-0.844399 0.728493 -1.554 
-0.837911 0.728493 -1.554 
-0.834632 0.731306 -1.56 
-0.831304 0.734118 -1.566 
-0.824765 0.734118 -1.566 
-0.821884 0.7374 -1.573 
-0.818426 0.740213 -1.579 
-0.811833 0.740213 -1.579 
-0.80881 0.743494 -1.586 
-0.802188 0.743494 -1.586 
-0.799077 0.746776 -1.593 
-0.792426 0.746776 -1.593 
-0.785775 0.746776 -1.593 
-0.782058 0.749588 -1.599 
-0.775381 0.749588 -1.599 
-0.768705 0.749588 -1.599 
-0.765365 0.75287 -1.606 
-0.761966 0.756151 -1.613 
-0.758508 0.759433 -1.62 
-0.754528 0.762245 -1.626 
-0.750958 0.765527 -1.633 
-0.74733 0.768808 -1.64 
-0.743643 0.77209 -1.647 
-0.740345 0.77584 -1.655 
-0.736537 0.779122 -1.662 
-0.729597 0.779122 -1.662 
-0.725701 0.782403 -1.669 
-0.721747 0.785685 -1.676 
-0.714749 0.785685 -1.676 
-0.707751 0.785685 -1.676 
-0.704098 0.789435 -1.684 
-0.697067 0.789435 -1.684 
-0.692904 0.792717 -1.691 
-0.685844 0.792717 -1.691 
-0.681994 0.796467 -1.699 
-0.6749 0.796467 -1.699 
-0.667807 0.796467 -1.699 
-0.660713 0.796467 -1.699 
-0.656312 0.799748 -1.706 
-0.649188 0.799748 -1.706 
-0.642065 0.799748 -1.706 
-0.63792 0.803499 -1.714 
-0.630763 0.803499 -1.714 
-0.626517 0.807249 -1.722 
-0.619327 0.807249 -1.722 
-0.614626 0.81053 -1.729 
-0.610217 0.814281 -1.737 
-0.602964 0.814281 -1.737 
-0.598455 0.818031 -1.745 
-0.593879 0.821781 -1.753 
-0.58656 0.821781 -1.753 
-0.581884 0.825532 -1.761 
-0.574531 0.825532 -1.761 
-0.569755 0.829282 -1.769 
-0.56523 0.833501 -1.778 
-0.560316 0.837251 -1.786 
-0.552859 0.837251 -1.786 
-0.547845 0.841001 -1.794 
-0.543065 0.845221 -1.803 
-0.537913 0.848971 -1.811 
-0.532987 0.85319 -1.82 
-0.527986 0.857409 -1.829 
-0.520349 0.857409 -1.829 
-0.515235 0.861628 -1.838 
-0.507561 0.861628 -1.838 
-0.499887 0.861628 -1.838 
-0.494355 0.865378 -1.846 
-0.486647 0.865378 -1.846 
-0.481274 0.869597 -1.855 
-0.475827 0.873816 -1.864 
-0.470555 0.878504 -1.874 
-0.46273 0.878504 -1.874 
-0.45709 0.882723 -1.883 
-0.449228 0.882723 -1.883 
-0.443475 0.886942 -1.892 
-0.437878 0.89163 -1.902 
-0.431971 0.895849 -1.911 
-0.42621 0.900537 -1.921 
-0.418189 0.900537 -1.921 
-0.410168 0.900537 -1.921 
-0.404032 0.904756 -1.93 
-0.395973 0.904756 -1.93 
-0.389925 0.909444 -1.94 
-0.381824 0.909444 -1.94 
-0.375651 0.914132 -1.95 
-0.369393 0.91882 -1.96 
-0.36121 0.91882 -1.96 
-0.353026 0.91882 -1.96 
-0.346602 0.923508 -1.97 
-0.340094 0.928196 -1.98 
-0.33367 0.933352 -1.991 
-0.325357 0.933352 -1.991 
-0.317044 0.933352 -1.991 
-0.310281 0.93804 -2.001 
-0.301927 0.93804 -2.001 
-0.295185 0.943197 -2.012 
-0.286785 0.943197 -2.012 
-0.278384 0.943197 -2.012 
-0.269983 0.943197 -2.012 
-0.262882 0.947885 -2.022 
-0.25444 0.947885 -2.022 
-0.247335 0.953041 -2.033 
-0.238847 0.953041 -2.033 
-0.230358 0.953041 -2.033 
-0.22307 0.958198 -2.044 
-0.214536 0.958198 -2.044 
-0.206002 0.958198 -2.044 
-0.19853 0.963355 -2.055 
-0.189949 0.963355 -2.055 
-0.18234 0.968511 -2.066 
-0.174638 0.973668 -2.077 
-0.166925 0.979293 -2.089 
-0.158203 0.979293 -2.089 
-0.150268 0.98445 -2.1 
-0.142308 0.990075 -2.112 
-0.13349 0.990075 -2.112 
-0.125321 0.995232 -2.123 
-0.117115 1.00086 -2.135 
-0.108808 1.00648 -2.147 
-0.0998438 1.00648 -2.147 
-0.0913872 1.01211 -2.159 
-0.0828686 1.0182 -2.172 
-0.0742075 1.02383 -2.184 
-0.0650885 1.02383 -2.184 
-0.0563027 1.02992 -2.197 
-0.0473868 1.03555 -2.209 
-0.0383881 1.04164 -2.222 
-0.0292807 1.04774 -2.235 
-0.0200648 1.05383 -2.248 
-0.0107451 1.06039 -2.262 
-0.00130796 1.06649 -2.275 
0.00824139 1.07305 -2.289 
0.0177988 1.07305 -2.289 
0.0275115 1.07914 -2.302 
0.0371232 1.07914 -2.302 
0.0470191 1.08571 -2.316 
0.0566892 1.08571 -2.316 
0.0667892 1.09274 -2.331 
0.0765219 1.09274 -2.331 
0.0867727 1.0993 -2.345 
0.0965639 1.0993 -2.345 
0.106355 1.0993 -2.345 
0.11684 1.10587 -2.359 
0.126689 1.10587 -2.359 
0.137407 1.1129 -2.374 
0.14732 1.1129 -2.374 
0.157232 1.1129 -2.374 
0.1682 1.11993 -2.389 
0.178175 1.11993 -2.389 
0.18815 1.11993 -2.389 
0.199369 1.12696 -2.404 
0.209407 1.12696 -2.404 
0.220813 1.13399 -2.419 
0.230914 1.13399 -2.419 
0.241014 1.13399 -2.419 
0.252671 1.14102 -2.434 
0.262834 1.14102 -2.434 
0.274791 1.14852 -2.45 
0.286882 1.15603 -2.466 
0.297179 1.15603 -2.466 
0.307475 1.15603 -2.466 
0.317772 1.15603 -2.466 
0.330197 1.16353 -2.482 
0.34056 1.16353 -2.482 
0.353185 1.17103 -2.498 
0.363615 1.17103 -2.498 
0.376591 1.179 -2.515 
0.387092 1.179 -2.515 
0.400122 1.1865 -2.531 
0.41069 1.1865 -2.531 
0.421258 1.1865 -2.531 
0.434726 1.19447 -2.548 
0.448337 1.20244 -2.565 
0.462089 1.2104 -2.582 
0.476166 1.21884 -2.6 
0.487022 1.21884 -2.6 
0.501325 1.22728 -2.618 
0.515778 1.23572 -2.636 
