ply
format ascii 1.0
comment pointcloud saved from Realsense Viewer
element vertex 1807
property float32 x
property float32 y
property float32 z
end_header
-0.47614 1.77800 -0.52505 
-0.46872 1.77800 -0.52505 
-0.46130 1.77800 -0.52505 
-0.32159 1.74500 -0.51531 
-0.30561 1.73700 -0.51294 
-0.29698 1.72900 -0.51058 
-0.27293 1.71400 -0.50615 
-0.25029 1.70600 -0.50379 
-0.23000 1.71400 -0.50615 
-0.15057 1.70600 -0.50379 
-0.13632 1.70600 -0.50379 
-0.07329 1.92100 -0.56728 
-0.04910 2.28900 -0.67595 
-0.01227 2.58200 -0.76248 
0.07994 2.79000 -0.82390 
0.18244 2.94000 -0.86820 
0.24573 2.96300 -0.87499 
0.32493 3.00900 -0.88857 
0.39406 3.05800 -0.90304 
0.49940 3.15900 -0.93287 
0.59832 3.26700 -0.96476 
0.74007 3.35300 -0.99016 
0.76807 3.35300 -0.99016 
0.77565 3.26700 -0.96476 
0.78987 3.05800 -0.90304 
0.80264 3.05800 -0.90304 
0.94523 3.10700 -0.91751 
1.01855 3.13300 -0.92519 
1.11012 3.13300 -0.92519 
1.25324 2.91800 -0.86170 
1.26754 2.89500 -0.85491 
1.17998 2.48200 -0.73295 
1.17023 2.41900 -0.71434 
1.18033 2.41900 -0.71434 
1.18305 2.40400 -0.70991 
1.22554 2.38900 -0.70548 
1.32688 2.37400 -0.70105 
1.36775 2.35900 -0.69662 
1.43670 2.35900 -0.69662 
1.64494 2.41900 -0.71434 
1.77416 2.38900 -0.70548 
1.89905 2.43400 -0.71877 
2.01156 2.49800 -0.73767 
3.37893 3.78400 -1.11743 
3.49880 3.90000 -1.15169 
3.66470 4.06600 -1.20071 
3.84556 4.24700 -1.25416 
3.99611 4.39300 -1.29727 
4.98358 5.30800 -1.56748 
5.18885 5.38300 -1.58963 
-1.28212 1.37000 -0.41029 
-1.23125 1.41000 -0.42227 
-1.17316 1.47000 -0.44024 
-1.15568 1.48700 -0.44533 
-1.13085 1.48700 -0.44533 
-1.11494 1.49900 -0.44892 
-1.07341 1.52900 -0.45791 
-1.06669 1.56600 -0.46899 
-1.01439 1.64000 -0.49115 
-0.97129 1.68400 -0.50433 
-0.96426 1.68400 -0.50433 
-0.91703 1.71400 -0.51331 
-0.86804 1.74500 -0.52259 
-0.82453 1.76100 -0.52739 
-0.78384 1.83800 -0.55045 
-0.77158 1.88300 -0.56392 
-0.75911 1.91100 -0.57231 
-0.60506 1.78600 -0.53487 
-0.38336 1.76100 -0.52739 
-0.34502 1.75300 -0.52499 
-0.31430 1.74500 -0.52259 
-0.28976 1.72900 -0.51780 
-0.28140 1.72200 -0.51571 
-0.23605 1.70600 -0.51091 
-0.20755 1.70600 -0.51091 
-0.15769 1.70600 -0.51091 
-0.15057 1.70600 -0.51091 
0.02093 2.69200 -0.80620 
0.14339 2.89500 -0.86700 
0.22098 2.96300 -0.88736 
0.32752 3.03300 -0.90832 
0.46524 3.10700 -0.93049 
0.70591 3.32400 -0.99547 
0.75407 3.35300 -1.00416 
0.84095 3.05800 -0.91581 
0.85371 3.05800 -0.91581 
0.94523 3.10700 -0.93049 
0.99238 3.13300 -0.93827 
1.11012 3.13300 -0.93827 
1.13065 3.08200 -0.92300 
1.16015 3.05800 -0.91581 
1.16333 3.03300 -0.90832 
1.26269 2.94000 -0.88047 
1.27761 2.91800 -0.87388 
1.22851 2.65400 -0.79482 
1.17998 2.48200 -0.74331 
1.18564 2.38900 -0.71546 
1.24328 2.40400 -0.71995 
1.37921 2.34500 -0.70228 
1.41838 2.34500 -0.70228 
1.44655 2.35900 -0.70647 
1.49421 2.40400 -0.71995 
1.54327 2.45000 -0.73373 
1.61524 2.48200 -0.74331 
1.64408 2.37400 -0.71097 
1.65399 2.37400 -0.71097 
1.65339 2.35900 -0.70647 
1.66324 2.35900 -0.70647 
1.72429 2.38900 -0.71546 
1.95490 2.46600 -0.73852 
2.04870 2.53100 -0.75798 
2.10835 2.56500 -0.76817 
2.30097 2.73000 -0.81758 
2.99064 3.41300 -1.02213 
4.93784 5.23600 -1.56808 
5.02790 5.30800 -1.58964 
-1.27640 1.37000 -0.41601 
-1.26146 1.38500 -0.42056 
-1.23125 1.41000 -0.42815 
-1.23057 1.41600 -0.42998 
-1.19792 1.44800 -0.43969 
-1.18993 1.45300 -0.44121 
-1.14947 1.48700 -0.45154 
-1.11494 1.49900 -0.45518 
-1.06489 1.57300 -0.47765 
-1.01184 1.64700 -0.50012 
-0.99051 1.66900 -0.50680 
-0.86470 1.75300 -0.53231 
-0.81022 1.77800 -0.53990 
-0.80640 1.78600 -0.54233 
-0.80253 1.79400 -0.54476 
-0.75113 1.91100 -0.58029 
-0.65134 1.81100 -0.54992 
-0.57924 1.75300 -0.53231 
-0.57453 1.76100 -0.53474 
-0.51831 1.74500 -0.52988 
-0.43680 1.76900 -0.53717 
-0.42203 1.76900 -0.53717 
-0.40726 1.76900 -0.53717 
-0.39806 1.76100 -0.53474 
-0.36698 1.75300 -0.53231 
-0.31430 1.74500 -0.52988 
-0.30561 1.73700 -0.52745 
-0.25029 1.70600 -0.51804 
-0.19331 1.70600 -0.51804 
-0.17194 1.70600 -0.51804 
0.03263 2.73000 -0.82898 
0.04435 2.75000 -0.83505 
0.08051 2.81000 -0.85327 
0.09294 2.83100 -0.85965 
0.20861 2.96300 -0.89973 
0.31236 3.00900 -0.91370 
0.32752 3.03300 -0.92099 
0.39406 3.05800 -0.92858 
0.75407 3.35300 -1.01816 
0.80894 3.08200 -0.93587 
0.84095 3.05800 -0.92858 
0.97118 3.10700 -0.94346 
1.05779 3.13300 -0.95135 
1.23258 2.98600 -0.90672 
1.27257 2.96300 -0.89973 
1.24998 2.75000 -0.83505 
1.22851 2.65400 -0.80590 
1.17500 2.45000 -0.74396 
1.18033 2.41900 -0.73454 
1.32688 2.37400 -0.72088 
1.35963 2.34500 -0.71207 
1.38900 2.34500 -0.71207 
1.41838 2.34500 -0.71207 
1.60464 2.45000 -0.74396 
1.65339 2.35900 -0.71632 
1.83684 2.41900 -0.73454 
2.09764 2.56500 -0.77888 
2.31783 2.75000 -0.83505 
2.36319 2.79000 -0.84720 
2.53447 2.96300 -0.89973 
4.15792 4.55000 -1.38163 
4.89245 5.16500 -1.56838 
4.91402 5.16500 -1.56838 
5.02529 5.23600 -1.58994 
5.11274 5.23600 -1.58994 
5.31602 5.30800 -1.61180 
-1.26958 1.37500 -0.42327 
-1.23713 1.41000 -0.43404 
-1.23057 1.41600 -0.43589 
-1.22305 1.42100 -0.43743 
-1.22140 1.42600 -0.43897 
-1.21373 1.43100 -0.44051 
-1.17930 1.47000 -0.45251 
-1.17179 1.47600 -0.45436 
-1.12294 1.49300 -0.45959 
-1.09427 1.50500 -0.46329 
-1.07556 1.52300 -0.46883 
-1.06236 1.57900 -0.48607 
-1.01872 1.64700 -0.50700 
-0.95722 1.68400 -0.51839 
-0.95019 1.68400 -0.51839 
-0.94316 1.68400 -0.51839 
-0.93028 1.69900 -0.52301 
-0.88261 1.74500 -0.53717 
-0.87532 1.74500 -0.53717 
-0.83542 1.75300 -0.53963 
-0.81764 1.77800 -0.54732 
-0.78763 1.82900 -0.56302 
-0.75554 1.90200 -0.58549 
-0.73171 1.90200 -0.58549 
-0.71997 1.89200 -0.58242 
-0.70529 1.87400 -0.57688 
-0.62884 1.76900 -0.54455 
-0.51831 1.74500 -0.53717 
-0.49873 1.75300 -0.53963 
-0.46635 1.76900 -0.54455 
-0.45896 1.76900 -0.54455 
-0.28976 1.72900 -0.53224 
-0.18618 1.70600 -0.52516 
-0.16481 1.70600 -0.52516 
-0.13696 1.71400 -0.52762 
-0.05049 1.97000 -0.60643 
-0.03752 2.17200 -0.66861 
-0.00149 2.60000 -0.80036 
0.06829 2.79000 -0.85885 
0.16889 2.91800 -0.89825 
0.22098 2.96300 -0.91210 
0.31236 3.00900 -0.92626 
0.42289 3.08200 -0.94874 
0.51681 3.18500 -0.98044 
0.68600 3.29500 -1.01430 
0.70591 3.32400 -1.02323 
0.78230 3.29500 -1.01430 
0.82181 3.08200 -0.94874 
0.88615 3.08200 -0.94874 
0.89902 3.08200 -0.94874 
1.03163 3.13300 -0.96443 
1.05779 3.13300 -0.96443 
1.11012 3.13300 -0.96443 
1.12685 3.10700 -0.95643 
1.19182 3.00900 -0.92626 
1.24207 3.00900 -0.92626 
1.26998 2.98600 -0.91918 
1.25229 2.73000 -0.84038 
1.22278 2.61800 -0.80590 
1.20072 2.54800 -0.78435 
1.18759 2.49800 -0.76896 
1.19562 2.38900 -0.73541 
1.45574 2.37400 -0.73079 
1.49421 2.40400 -0.74003 
1.67309 2.35900 -0.72617 
1.71346 2.37400 -0.73079 
1.75421 2.38900 -0.73541 
1.77416 2.38900 -0.73541 
1.81542 2.40400 -0.74003 
1.90130 2.45000 -0.75419 
1.91153 2.45000 -0.75419 
1.96759 2.48200 -0.76404 
3.53468 3.94000 -1.21285 
4.10949 4.49700 -1.38432 
4.76363 5.02900 -1.54808 
4.84837 5.09600 -1.56871 
4.95476 5.09600 -1.56871 
5.15124 5.16500 -1.58995 
5.28764 5.23600 -1.61180 
-1.25310 1.39500 -0.43525 
-1.22899 1.42100 -0.44336 
-1.20682 1.43700 -0.44835 
-1.20500 1.44200 -0.44991 
-1.20206 1.45300 -0.45335 
-1.18411 1.47600 -0.46052 
-1.14947 1.48700 -0.46395 
-1.07341 1.52900 -0.47706 
-1.07121 1.53500 -0.47893 
-1.05577 1.57900 -0.49266 
-1.04244 1.59900 -0.49890 
-1.01872 1.64700 -0.51387 
-1.00293 1.65500 -0.51637 
-0.99051 1.66900 -0.52074 
-0.96426 1.68400 -0.52542 
-0.90339 1.72900 -0.53946 
-0.82089 1.76900 -0.55194 
-0.81764 1.77800 -0.55475 
-0.77954 1.84600 -0.57596 
-0.77158 1.86400 -0.58158 
-0.76789 1.87400 -0.58470 
-0.76372 1.88300 -0.58751 
-0.75157 1.89200 -0.59032 
-0.72440 1.88300 -0.58751 
-0.66020 1.79400 -0.55974 
-0.64689 1.77800 -0.55475 
-0.54745 1.74500 -0.54445 
-0.53044 1.73700 -0.54196 
-0.47895 1.76100 -0.54944 
-0.46635 1.76900 -0.55194 
-0.38162 1.75300 -0.54695 
-0.35966 1.75300 -0.54695 
-0.33770 1.75300 -0.54695 
-0.29835 1.73700 -0.54196 
-0.28254 1.72900 -0.53946 
-0.23715 1.71400 -0.53478 
-0.03628 2.10000 -0.65521 
-0.02894 2.20900 -0.68922 
-0.01164 2.45000 -0.76442 
-0.00148 2.58200 -0.80560 
0.13035 2.87400 -0.89671 
0.19326 2.91800 -0.91043 
0.23336 2.96300 -0.92447 
0.25810 2.96300 -0.92447 
0.29980 3.00900 -0.93883 
0.35575 3.05800 -0.95412 
0.38428 3.08200 -0.96160 
0.45226 3.10700 -0.96940 
0.54802 3.21200 -1.00216 
0.58468 3.26700 -1.01932 
0.63924 3.26700 -1.01932 
0.74755 3.32400 -1.03711 
0.78253 3.23900 -1.01059 
0.81550 3.10700 -0.96940 
0.89902 3.08200 -0.96160 
1.11388 3.10700 -0.96940 
1.25198 3.03300 -0.94632 
1.24610 2.69200 -0.83992 
1.19043 2.41900 -0.75474 
1.20559 2.38900 -0.74538 
1.29346 2.40400 -0.75006 
1.30350 2.40400 -0.75006 
1.51364 2.41900 -0.75474 
1.56372 2.45000 -0.76442 
1.59416 2.43400 -0.75942 
1.62470 2.40400 -0.75006 
1.63369 2.35900 -0.73602 
1.70264 2.35900 -0.73602 
1.74320 2.37400 -0.74070 
1.81542 2.40400 -0.75006 
2.00113 2.49800 -0.77939 
2.07310 2.54800 -0.79499 
2.09764 2.56500 -0.80030 
3.04497 3.47500 -1.08422 
3.33024 3.74700 -1.16909 
3.80301 4.20000 -1.31043 
4.42612 4.77800 -1.49077 
4.78496 4.96400 -1.54880 
4.86787 4.96400 -1.54880 
-1.27996 1.38000 -0.43633 
-1.26843 1.38000 -0.43633 
-1.26725 1.38500 -0.43791 
-1.23057 1.41600 -0.44771 
-1.22305 1.42100 -0.44929 
-1.21373 1.43100 -0.45246 
-1.20500 1.44200 -0.45593 
-1.20093 1.45900 -0.46131 
-1.19894 1.46400 -0.46289 
-1.14947 1.48700 -0.47016 
-1.14327 1.48700 -0.47016 
-1.08601 1.51100 -0.47775 
-1.07766 1.51700 -0.47965 
-1.06667 1.54700 -0.48913 
-1.03576 1.59900 -0.50557 
-0.90987 1.71400 -0.54194 
-0.86129 1.76100 -0.55680 
-0.84659 1.76100 -0.55680 
-0.80253 1.79400 -0.56723 
-0.79151 1.83800 -0.58114 
-0.78725 1.84600 -0.58367 
-0.77936 1.86400 -0.58936 
-0.74013 1.88300 -0.59537 
-0.72877 1.87400 -0.59252 
-0.71710 1.86400 -0.58936 
-0.68497 1.82000 -0.57545 
-0.59117 1.74500 -0.55174 
-0.57453 1.76100 -0.55680 
-0.51831 1.74500 -0.55174 
-0.38162 1.75300 -0.55427 
-0.37259 1.74500 -0.55174 
-0.28254 1.72900 -0.54668 
-0.24431 1.71400 -0.54194 
-0.15057 1.70600 -0.53941 
-0.14479 1.72200 -0.54447 
-0.09358 1.70600 -0.53941 
-0.07158 1.69100 -0.53466 
-0.02031 2.27500 -0.71931 
0.05624 2.77000 -0.87582 
0.15548 2.89500 -0.91535 
0.24382 2.94000 -0.92957 
0.39715 3.08200 -0.97447 
0.51681 3.18500 -1.00704 
0.74755 3.32400 -1.05099 
0.76854 3.29500 -1.04182 
0.78253 3.23900 -1.02411 
0.79608 3.18500 -1.00704 
0.82847 3.10700 -0.98238 
0.95820 3.10700 -0.98238 
1.05779 3.13300 -0.99060 
1.17292 3.05800 -0.96688 
1.26464 3.03300 -0.95898 
1.27731 3.03300 -0.95898 
1.31530 3.03300 -0.95898 
1.30380 2.89500 -0.91535 
1.21674 2.58200 -0.81638 
1.20313 2.40400 -0.76010 
1.31532 2.38900 -0.75536 
1.32688 2.37400 -0.75062 
1.32835 2.35900 -0.74587 
1.36942 2.34500 -0.74145 
1.47492 2.38900 -0.75536 
1.52374 2.41900 -0.76484 
1.54335 2.43400 -0.76959 
1.59416 2.43400 -0.76959 
1.63452 2.38900 -0.75536 
1.75311 2.37400 -0.75062 
1.77416 2.38900 -0.75536 
1.79411 2.38900 -0.75536 
2.11906 2.56500 -0.81101 
2.14389 2.58200 -0.81638 
2.34625 2.77000 -0.87582 
2.62850 3.05800 -0.96688 
3.90605 4.29400 -1.35768 
4.37147 4.71900 -1.49206 
4.48597 4.77800 -1.51072 
4.90740 4.90000 -1.54929 
-1.27996 1.38000 -0.44209 
-1.25892 1.39500 -0.44690 
-1.23861 1.40500 -0.45010 
-1.21002 1.44800 -0.46388 
-1.16562 1.47600 -0.47285 
-1.16339 1.48100 -0.47445 
-1.15568 1.48700 -0.47637 
-1.12746 1.49900 -0.48022 
-1.09232 1.51100 -0.48406 
-1.07121 1.53500 -0.49175 
-1.04918 1.57900 -0.50584 
-1.03576 1.59900 -0.51225 
-1.02688 1.60600 -0.51449 
-1.02462 1.61300 -0.51674 
-0.90339 1.72900 -0.55390 
-0.86864 1.76100 -0.56415 
-0.83923 1.76100 -0.56415 
-0.82132 1.78600 -0.57216 
-0.81751 1.79400 -0.57472 
-0.78725 1.84600 -0.59138 
-0.75585 1.88300 -0.60323 
-0.72138 1.85500 -0.59426 
-0.61022 1.73700 -0.55646 
-0.51831 1.74500 -0.55902 
-0.47895 1.76100 -0.56415 
-0.46424 1.76100 -0.56415 
-0.44218 1.76100 -0.56415 
-0.32306 1.75300 -0.56159 
-0.12265 1.71400 -0.54909 
-0.03943 1.83800 -0.58882 
-0.00146 2.53100 -0.81082 
0.02108 2.71100 -0.86849 
0.05664 2.79000 -0.89380 
0.22981 2.91800 -0.93480 
0.32752 3.03300 -0.97164 
0.42632 3.10700 -0.99535 
0.48621 3.15900 -1.01201 
0.54341 3.18500 -1.02034 
0.61196 3.26700 -1.04661 
0.68600 3.29500 -1.05558 
0.74755 3.32400 -1.06487 
0.82233 3.13300 -1.00368 
0.91390 3.13300 -1.00368 
0.99712 3.10700 -0.99535 
1.07496 3.10700 -0.99535 
1.15639 3.08200 -0.98734 
1.20132 3.03300 -0.97164 
1.27064 2.77000 -0.88739 
1.20328 2.53100 -0.81082 
1.18523 2.45000 -0.78488 
1.19043 2.41900 -0.77494 
1.22320 2.40400 -0.77014 
1.23324 2.40400 -0.77014 
1.29143 2.41900 -0.77494 
1.33820 2.35900 -0.75572 
1.34005 2.34500 -0.75124 
1.34984 2.34500 -0.75124 
1.40859 2.34500 -0.75124 
1.45574 2.37400 -0.76053 
1.60464 2.45000 -0.78488 
1.62474 2.41900 -0.77494 
1.67309 2.35900 -0.75572 
1.73219 2.35900 -0.75572 
1.94222 2.45000 -0.78488 
2.12977 2.56500 -0.82172 
2.72850 3.15900 -1.01201 
2.94936 3.38200 -1.08345 
3.86330 4.24700 -1.36056 
4.54880 4.71900 -1.51176 
4.60791 4.71900 -1.51176 
4.84531 4.83800 -1.54989 
4.80517 4.77800 -1.53067 
-1.27996 1.38000 -0.44786 
-1.26021 1.39000 -0.45110 
-1.20206 1.45300 -0.47155 
-1.19157 1.47000 -0.47706 
-1.11312 1.50500 -0.48842 
-1.08192 1.52300 -0.49426 
-1.06667 1.54700 -0.50205 
-1.05833 1.57300 -0.51049 
-1.03853 1.59300 -0.51698 
-1.02462 1.61300 -0.52347 
-1.01930 1.62600 -0.52769 
-1.01687 1.63300 -0.52996 
-0.95268 1.67600 -0.54392 
-0.94002 1.69100 -0.54878 
-0.91987 1.70600 -0.55365 
-0.90693 1.72200 -0.55885 
-0.89617 1.72900 -0.56112 
-0.87202 1.75300 -0.56891 
-0.85394 1.76100 -0.57150 
-0.82878 1.78600 -0.57962 
-0.80257 1.81100 -0.58773 
-0.75601 1.86400 -0.60493 
-0.62184 1.72900 -0.56112 
-0.59760 1.78600 -0.57962 
-0.58269 1.78600 -0.57962 
-0.54017 1.74500 -0.56631 
-0.52068 1.75300 -0.56891 
-0.51337 1.75300 -0.56891 
-0.49365 1.76100 -0.57150 
-0.47895 1.76100 -0.57150 
-0.43285 1.75300 -0.56891 
-0.41089 1.75300 -0.56891 
-0.38162 1.75300 -0.56891 
-0.32887 1.74500 -0.56631 
-0.25146 1.71400 -0.55625 
-0.20755 1.70600 -0.55365 
-0.12265 1.71400 -0.55625 
-0.08494 1.67600 -0.54392 
-0.07761 1.66900 -0.54164 
-0.03814 1.77800 -0.57702 
0.04467 2.77000 -0.89896 
0.09294 2.83100 -0.91875 
0.20544 2.91800 -0.94699 
0.34018 3.03300 -0.98431 
0.40037 3.10700 -1.00832 
0.68600 3.29500 -1.06933 
0.74755 3.32400 -1.07875 
0.91390 3.13300 -1.01676 
1.02307 3.10700 -1.00832 
1.18866 3.03300 -0.98431 
1.19781 2.43400 -0.78991 
1.22073 2.41900 -0.78504 
1.24093 2.41900 -0.78504 
1.31354 2.40400 -0.78018 
1.43670 2.35900 -0.76557 
1.56372 2.45000 -0.79510 
1.62465 2.43400 -0.78991 
1.66444 2.38900 -0.77531 
1.77158 2.35900 -0.76557 
1.79276 2.37400 -0.77044 
1.82250 2.37400 -0.77044 
2.05675 2.51500 -0.81620 
2.08041 2.53100 -0.82139 
3.44769 3.86100 -1.25302 
4.59020 4.66100 -1.51265 
-1.27996 1.38000 -0.45362 
-1.27419 1.38000 -0.45362 
-1.23421 1.40000 -0.46019 
-1.23275 1.40500 -0.46183 
-1.23125 1.41000 -0.46348 
-1.22140 1.42600 -0.46874 
-1.21102 1.44200 -0.47400 
-1.19894 1.46400 -0.48123 
-1.16189 1.48700 -0.48879 
-1.08828 1.52300 -0.50062 
-1.07762 1.53500 -0.50457 
-1.06261 1.56000 -0.51278 
-1.02908 1.59900 -0.52560 
-1.00496 1.64700 -0.54138 
-1.00293 1.65500 -0.54401 
-0.99330 1.66200 -0.54631 
-0.95019 1.68400 -0.55354 
-0.87934 1.75300 -0.57623 
-0.81408 1.80300 -0.59266 
-0.47895 1.76100 -0.57885 
-0.39626 1.75300 -0.57623 
-0.38162 1.75300 -0.57623 
-0.26088 1.72900 -0.56834 
-0.25264 1.72200 -0.56604 
-0.23000 1.71400 -0.56341 
-0.20043 1.70600 -0.56078 
-0.12980 1.71400 -0.56341 
-0.03160 1.82900 -0.60121 
-0.01081 2.27500 -0.74781 
0.02123 2.73000 -0.89737 
0.25610 2.94000 -0.96640 
0.29751 2.98600 -0.98152 
0.32752 3.03300 -0.99697 
0.34018 3.03300 -0.99697 
0.42632 3.10700 -1.02129 
0.76201 3.26700 -1.07389 
0.94006 3.13300 -1.02984 
1.02307 3.10700 -1.02129 
1.06631 3.08200 -1.01308 
1.07918 3.08200 -1.01308 
1.09205 3.08200 -1.01308 
1.11778 3.08200 -1.01308 
1.15639 3.08200 -1.01308 
1.18569 3.05800 -1.00519 
1.34063 3.03300 -0.99697 
1.21063 2.41900 -0.79514 
1.28752 2.45000 -0.80533 
1.30798 2.45000 -0.80533 
1.30960 2.43400 -0.80007 
1.33680 2.37400 -0.78035 
1.33820 2.35900 -0.77542 
1.56372 2.45000 -0.80533 
1.67441 2.38900 -0.78528 
1.70264 2.35900 -0.77542 
1.72234 2.35900 -0.77542 
1.74149 2.34500 -0.77082 
1.80024 2.34500 -0.77082 
1.83068 2.35900 -0.77542 
1.88389 2.38900 -0.78528 
2.66200 3.08200 -1.01308 
3.25091 3.67500 -1.20800 
3.36313 3.78400 -1.24383 
3.41286 3.82200 -1.25632 
3.62594 4.02300 -1.32239 
4.22805 4.44400 -1.46078 
4.28372 4.44400 -1.46078 
4.30227 4.44400 -1.46078 
4.59487 4.55000 -1.49562 
-1.27881 1.38500 -0.46104 
-1.25310 1.39500 -0.46437 
-1.22536 1.41000 -0.46937 
-1.20813 1.45300 -0.48368 
-1.12569 1.50500 -0.50099 
-1.09666 1.51700 -0.50498 
-1.09464 1.52300 -0.50698 
-1.09256 1.52900 -0.50898 
-1.02231 1.62000 -0.53927 
-1.01439 1.64000 -0.54593 
-0.98767 1.67600 -0.55791 
-0.97367 1.67600 -0.55791 
-0.91412 1.72200 -0.57323 
-0.88989 1.74500 -0.58088 
-0.86864 1.76100 -0.58621 
-0.82878 1.78600 -0.59453 
-0.79527 1.82900 -0.60884 
-0.77954 1.84600 -0.61450 
-0.73057 1.82000 -0.60585 
-0.64508 1.71400 -0.57056 
-0.62275 1.79400 -0.59719 
-0.61658 1.82000 -0.60585 
-0.54512 1.76100 -0.58621 
-0.53532 1.75300 -0.58354 
-0.44953 1.76100 -0.58621 
-0.43483 1.76100 -0.58621 
-0.31574 1.75300 -0.58354 
-0.30842 1.75300 -0.58354 
-0.30110 1.75300 -0.58354 
-0.25367 1.72900 -0.57556 
-0.15057 1.70600 -0.56790 
-0.11448 1.69900 -0.56557 
-0.09893 1.67600 -0.55791 
0.03310 2.77000 -0.92209 
0.24382 2.94000 -0.97868 
0.29751 2.98600 -0.99399 
0.31236 3.00900 -1.00165 
0.34018 3.03300 -1.00963 
0.54341 3.18500 -1.06023 
0.59319 3.23900 -1.07821 
0.71979 3.32400 -1.10650 
0.73367 3.32400 -1.10650 
0.80938 3.18500 -1.06023 
0.87465 3.13300 -1.04292 
0.92698 3.13300 -1.04292 
1.02770 3.08200 -1.02595 
1.16015 3.05800 -1.01796 
1.27220 3.08200 -1.02595 
1.27507 3.05800 -1.01796 
1.31337 3.05800 -1.01796 
1.33891 3.05800 -1.01796 
1.29635 2.85200 -0.94938 
1.22830 2.43400 -0.81024 
1.27729 2.45000 -0.81556 
1.50354 2.41900 -0.80524 
1.59451 2.48200 -0.82622 
1.61524 2.48200 -0.82622 
1.75128 2.34500 -0.78061 
1.77975 2.33100 -0.77595 
1.88197 2.37400 -0.79026 
1.91381 2.38900 -0.79526 
1.98035 2.43400 -0.81024 
2.40360 2.81000 -0.93540 
3.41286 3.82200 -1.27228 
3.77870 4.15400 -1.38280 
4.02316 4.34300 -1.44571 
4.10616 4.39300 -1.46236 
4.09569 4.34300 -1.44571 
4.11383 4.34300 -1.44571 
4.28958 4.39300 -1.46236 
4.43216 4.44400 -1.47933 
-1.27881 1.38500 -0.46683 
-1.25568 1.38500 -0.46683 
-1.24145 1.39500 -0.47020 
-1.22466 1.41600 -0.47728 
-1.21971 1.43100 -0.48233 
-1.21282 1.43700 -0.48435 
-1.19157 1.47000 -0.49548 
-1.14788 1.49300 -0.50323 
-1.12386 1.51100 -0.50930 
-1.11566 1.51700 -0.51132 
-1.08618 1.52900 -0.51536 
-1.08184 1.54100 -0.51941 
-1.04721 1.58600 -0.53458 
-1.04518 1.59300 -0.53693 
-1.00754 1.64000 -0.55278 
-0.99808 1.64700 -0.55514 
-0.99051 1.66900 -0.56255 
-0.97129 1.68400 -0.56761 
-0.92418 1.71400 -0.57772 
-0.88666 1.75300 -0.59086 
-0.86864 1.76100 -0.59356 
-0.83249 1.79400 -0.60468 
-0.63024 1.79400 -0.60468 
-0.58328 1.81100 -0.61041 
-0.56032 1.78600 -0.60199 
-0.51337 1.75300 -0.59086 
-0.45689 1.76100 -0.59356 
-0.40358 1.75300 -0.59086 
-0.38162 1.75300 -0.59086 
-0.32306 1.75300 -0.59086 
-0.31574 1.75300 -0.59086 
-0.28516 1.74500 -0.58817 
-0.25367 1.72900 -0.58277 
-0.15769 1.70600 -0.57502 
-0.07627 1.64000 -0.55278 
-0.04152 1.62000 -0.54604 
-0.03042 1.76100 -0.59356 
0.15671 2.91800 -0.98354 
0.31236 3.00900 -1.01421 
0.34298 3.05800 -1.03072 
0.44297 3.13300 -1.05600 
0.49940 3.15900 -1.06477 
0.62024 3.23900 -1.09173 
0.69203 3.32400 -1.12038 
0.81596 3.15900 -1.06477 
0.88191 3.15900 -1.06477 
0.97118 3.10700 -1.04724 
1.02770 3.08200 -1.03881 
1.07918 3.08200 -1.03881 
1.17292 3.05800 -1.03072 
1.27507 3.05800 -1.03072 
1.28783 3.05800 -1.03072 
1.19035 2.48200 -0.83658 
1.19546 2.45000 -0.82579 
1.22830 2.43400 -0.82040 
1.23846 2.43400 -0.82040 
1.25684 2.45000 -0.82579 
1.26707 2.45000 -0.82579 
1.62565 2.49800 -0.84197 
1.64651 2.49800 -0.84197 
1.68534 2.41900 -0.81534 
1.71211 2.34500 -0.79040 
1.73929 2.31600 -0.78063 
1.74896 2.31600 -0.78063 
1.74800 2.30200 -0.77591 
1.83815 2.33100 -0.78568 
1.94590 2.40400 -0.81029 
2.15119 2.56500 -0.86456 
2.21751 2.61800 -0.88242 
3.49880 3.90000 -1.31453 
3.64274 4.02300 -1.35599 
4.07609 4.24700 -1.43149 
4.09382 4.24700 -1.43149 
4.17498 4.29400 -1.44733 
4.31329 4.34300 -1.46384 
4.34956 4.34300 -1.46384 
4.36770 4.34300 -1.46384 
-1.21545 1.42600 -0.48660 
-1.18411 1.47600 -0.50366 
-1.13825 1.50500 -0.51356 
-1.13197 1.50500 -0.51356 
-1.11371 1.52300 -0.51970 
-1.10735 1.52300 -0.51970 
-1.10099 1.52300 -0.51970 
-1.08184 1.54100 -0.52584 
-1.06667 1.54700 -0.52789 
-1.05833 1.57300 -0.53676 
-1.04518 1.59300 -0.54359 
-0.99051 1.66900 -0.56952 
-0.92418 1.71400 -0.58488 
-0.80656 1.82000 -0.62105 
-0.78384 1.83800 -0.62719 
-0.58908 1.82900 -0.62412 
-0.54760 1.76900 -0.60364 
-0.52068 1.75300 -0.59818 
-0.43483 1.76100 -0.60091 
-0.28647 1.75300 -0.59818 
-0.27787 1.74500 -0.59545 
-0.21568 1.71400 -0.58488 
-0.16481 1.70600 -0.58215 
-0.13632 1.70600 -0.58215 
-0.12920 1.70600 -0.58215 
-0.10593 1.67600 -0.57191 
-0.09811 1.66200 -0.56713 
0.04532 2.81000 -0.95887 
0.05747 2.83100 -0.96603 
0.08172 2.85200 -0.97320 
0.40037 3.10700 -1.06021 
0.45605 3.13300 -1.06909 
0.54341 3.18500 -1.08683 
0.63924 3.26700 -1.11481 
0.67224 3.29500 -1.12437 
0.70591 3.32400 -1.13426 
0.84234 3.15900 -1.07796 
0.86872 3.15900 -1.07796 
1.05344 3.08200 -1.05168 
1.06631 3.08200 -1.05168 
1.09205 3.08200 -1.05168 
1.11778 3.08200 -1.05168 
1.29435 2.87400 -0.98071 
1.23118 2.63600 -0.89949 
1.19297 2.46600 -0.84148 
1.21814 2.43400 -0.83056 
1.26504 2.46600 -0.84148 
1.34009 2.43400 -0.83056 
1.37760 2.35900 -0.80497 
1.41838 2.34500 -0.80019 
1.49421 2.40400 -0.82033 
1.69749 2.46600 -0.84148 
1.71431 2.38900 -0.81521 
1.79606 2.30200 -0.78552 
3.25091 3.67500 -1.25403 
3.36313 3.78400 -1.29123 
3.49880 3.90000 -1.33081 
3.90823 4.20000 -1.43318 
3.93480 4.15400 -1.41748 
4.31842 4.29400 -1.46526 
-1.26843 1.38000 -0.47667 
-1.24145 1.39500 -0.48185 
-1.21373 1.43100 -0.49428 
-1.21102 1.44200 -0.49808 
-1.19894 1.46400 -0.50568 
-1.19282 1.46400 -0.50568 
-1.18671 1.46400 -0.50568 
-1.15720 1.48100 -0.51155 
-1.14788 1.49300 -0.51570 
-1.14165 1.49300 -0.51570 
-1.11756 1.51100 -0.52191 
-1.10099 1.52300 -0.52606 
-1.09895 1.52900 -0.52813 
-1.00324 1.63300 -0.56405 
-0.97129 1.68400 -0.58167 
-0.96426 1.68400 -0.58167 
-0.93134 1.71400 -0.59203 
-0.90757 1.73700 -0.59998 
-0.82913 1.80300 -0.62277 
-0.81769 1.81100 -0.62554 
-0.77236 1.82900 -0.63175 
-0.64208 1.66900 -0.57649 
-0.49873 1.75300 -0.60550 
-0.38336 1.76100 -0.60827 
-0.28647 1.75300 -0.60550 
-0.26330 1.74500 -0.60274 
-0.21669 1.72200 -0.59480 
-0.15057 1.70600 -0.58927 
-0.13632 1.70600 -0.58927 
0.05747 2.83100 -0.97785 
0.21927 2.94000 -1.01550 
0.24573 2.96300 -1.02345 
0.29980 3.00900 -1.03934 
0.31485 3.03300 -1.04763 
0.54341 3.18500 -1.10013 
0.60672 3.23900 -1.11878 
0.80958 3.23900 -1.11878 
1.05344 3.08200 -1.06455 
1.06631 3.08200 -1.06455 
1.07918 3.08200 -1.06455 
1.25464 3.00900 -1.03934 
1.29492 2.98600 -1.03139 
1.29952 2.94000 -1.01550 
1.28444 2.85200 -0.98511 
1.20798 2.43400 -0.84073 
1.34365 2.40400 -0.83036 
1.34524 2.38900 -0.82518 
1.40859 2.34500 -0.80998 
1.49421 2.40400 -0.83036 
1.56364 2.46600 -0.85178 
1.63671 2.51500 -0.86870 
1.70595 2.43400 -0.84073 
1.71211 2.34500 -0.80998 
1.70955 2.30200 -0.79513 
1.84566 2.31600 -0.79997 
2.01084 2.43400 -0.84073 
3.49880 3.90000 -1.34710 
4.03887 4.15400 -1.43483 
4.23568 4.24700 -1.46695 
4.28888 4.24700 -1.46695 
-1.25691 1.38000 -0.48243 
-1.19599 1.45300 -0.50795 
-1.15102 1.48100 -0.51774 
-1.13197 1.50500 -0.52613 
-1.08618 1.52900 -0.53452 
-1.07540 1.54100 -0.53871 
-1.06667 1.54700 -0.54081 
-1.06501 1.55400 -0.54325 
-1.05609 1.56000 -0.54535 
-1.00573 1.62600 -0.56842 
-1.00024 1.66200 -0.58101 
-0.96426 1.68400 -0.58870 
-0.95156 1.69900 -0.59394 
-0.87600 1.76100 -0.61562 
-0.85476 1.77800 -0.62156 
-0.83666 1.80300 -0.63030 
-0.62936 1.69100 -0.59115 
-0.63489 1.74500 -0.61003 
-0.64436 1.90200 -0.66491 
-0.63307 1.89200 -0.66141 
-0.55286 1.78600 -0.62436 
-0.42012 1.76100 -0.61562 
-0.40542 1.76100 -0.61562 
-0.33924 1.76100 -0.61562 
-0.32454 1.76100 -0.61562 
-0.29513 1.76100 -0.61562 
-0.26330 1.74500 -0.61003 
-0.23201 1.72900 -0.60443 
-0.10505 1.66200 -0.58101 
0.28504 2.98600 -1.04386 
0.37443 3.10700 -1.08616 
0.44297 3.13300 -1.09525 
0.45605 3.13300 -1.09525 
0.46913 3.13300 -1.09525 
0.52578 3.15900 -1.10434 
0.60672 3.23900 -1.13230 
0.62024 3.23900 -1.13230 
0.77531 3.32400 -1.16202 
0.85553 3.15900 -1.10434 
0.95820 3.10700 -1.08616 
1.04057 3.08200 -1.07742 
1.06631 3.08200 -1.07742 
1.13065 3.08200 -1.07742 
1.22665 3.03300 -1.06029 
1.28245 2.98600 -1.04386 
1.28146 2.49800 -0.87326 
1.33009 2.53100 -0.88480 
1.34966 2.54800 -0.89074 
1.34671 2.37400 -0.82991 
1.39627 2.37400 -0.82991 
1.63671 2.51500 -0.87921 
1.69866 2.49800 -0.87326 
1.77636 2.28900 -0.80020 
1.78592 2.28900 -0.80020 
1.85762 2.33100 -0.81488 
2.05787 2.46600 -0.86208 
2.91266 3.32400 -1.16202 
3.25091 3.67500 -1.28472 
3.36313 3.78400 -1.32283 
3.73260 4.06600 -1.42141 
3.78353 4.06600 -1.42141 
4.03887 4.15400 -1.45217 
4.05621 4.15400 -1.45217 
4.17127 4.20000 -1.46825 
-1.29254 1.37500 -0.48642 
-1.24990 1.38500 -0.48996 
-1.22980 1.39500 -0.49350 
-1.20949 1.42600 -0.50446 
-1.17930 1.47000 -0.52003 
-1.16339 1.48100 -0.52392 
-1.07540 1.54100 -0.54514 
-1.06897 1.54100 -0.54514 
-1.01116 1.61300 -0.57062 
-1.00069 1.64000 -0.58017 
-0.99808 1.64700 -0.58264 
-0.96667 1.67600 -0.59290 
-0.95722 1.68400 -0.59573 
-0.95156 1.69900 -0.60104 
-0.93412 1.70600 -0.60351 
-0.89397 1.75300 -0.62014 
-0.87934 1.75300 -0.62014 
-0.86520 1.76900 -0.62580 
-0.84419 1.80300 -0.63783 
-0.78376 1.82000 -0.64384 
-0.73225 1.76900 -0.62580 
-0.62674 1.64700 -0.58264 
-0.63371 1.72200 -0.60917 
-0.63307 1.89200 -0.66931 
-0.57858 1.82000 -0.64384 
-0.54296 1.77800 -0.62899 
-0.44953 1.76100 -0.62297 
-0.31862 1.76900 -0.62580 
-0.30385 1.76900 -0.62580 
-0.23308 1.73700 -0.61448 
-0.15769 1.70600 -0.60351 
-0.15127 1.71400 -0.60634 
-0.12806 1.69100 -0.59821 
-0.06051 1.58600 -0.56106 
-0.02909 1.68400 -0.59573 
0.07035 2.87400 -1.01671 
0.37443 3.10700 -1.09913 
0.41680 3.13300 -1.10833 
0.52578 3.15900 -1.11753 
0.67224 3.29500 -1.16564 
0.70591 3.32400 -1.17590 
0.76807 3.35300 -1.18616 
0.89510 3.15900 -1.11753 
1.07918 3.08200 -1.09029 
1.14352 3.08200 -1.09029 
1.16926 3.08200 -1.09029 
1.18569 3.05800 -1.08180 
1.22665 3.03300 -1.07295 
1.24207 3.00900 -1.06446 
1.26998 2.98600 -1.05633 
1.28245 2.98600 -1.05633 
1.28979 2.91800 -1.03227 
1.26552 2.81000 -0.99407 
1.25907 2.77000 -0.97992 
1.20873 2.56500 -0.90739 
1.35867 2.56500 -0.90739 
1.34805 2.35900 -0.83452 
1.40715 2.35900 -0.83452 
1.41700 2.35900 -0.83452 
1.45574 2.37400 -0.83983 
1.62621 2.51500 -0.88971 
1.69997 2.53100 -0.89537 
1.71022 2.51500 -0.88971 
1.70909 2.49800 -0.88369 
1.73584 2.41900 -0.85575 
1.73109 2.33100 -0.82461 
1.72962 2.31600 -0.81931 
1.73813 2.28900 -0.80976 
1.94374 2.38900 -0.84513 
2.03429 2.45000 -0.86671 
2.11976 2.51500 -0.88971 
2.14381 2.53100 -0.89537 
3.55113 3.94000 -1.39381 
3.72672 4.02300 -1.42318 
3.80051 4.06600 -1.43839 
3.86842 4.06600 -1.43839 
3.99608 4.11000 -1.45395 
4.05621 4.15400 -1.46952 
4.20635 4.20000 -1.48579 
-1.25115 1.38000 -0.49395 
-1.24411 1.38500 -0.49574 
-1.23700 1.39000 -0.49753 
-1.22688 1.40500 -0.50290 
-1.21119 1.42100 -0.50863 
-1.19898 1.44200 -0.51614 
-1.18875 1.45900 -0.52223 
-1.15720 1.48100 -0.53010 
-1.14947 1.48700 -0.53225 
-1.12918 1.49300 -0.53440 
-1.11756 1.51100 -0.54084 
-1.06897 1.54100 -0.55158 
-1.06021 1.54700 -0.55373 
-1.02522 1.59300 -0.57019 
-1.01116 1.61300 -0.57735 
-0.99808 1.64700 -0.58952 
-0.98354 1.66900 -0.59739 
-0.93412 1.70600 -0.61064 
-0.92131 1.72200 -0.61636 
-0.88666 1.75300 -0.62746 
-0.86520 1.76900 -0.63319 
-0.85496 1.79400 -0.64214 
-0.62999 1.62000 -0.57986 
-0.64071 1.76100 -0.63032 
-0.64846 1.80300 -0.64536 
-0.65539 1.91100 -0.68401 
-0.64436 1.90200 -0.68079 
-0.55286 1.78600 -0.63927 
-0.44953 1.76100 -0.63032 
-0.44218 1.76100 -0.63032 
-0.40542 1.76100 -0.63032 
-0.39071 1.76100 -0.63032 
-0.32601 1.76900 -0.63319 
-0.28908 1.76900 -0.63319 
-0.18793 1.72200 -0.61636 
-0.15843 1.71400 -0.61350 
-0.13576 1.69900 -0.60813 
-0.10461 1.65500 -0.59238 
-0.04688 1.57300 -0.56303 
-0.04013 1.56600 -0.56053 
0.15789 2.94000 -1.05233 
0.27257 2.98600 -1.06879 
0.33022 3.05800 -1.09457 
0.49529 3.13300 -1.12141 
0.57000 3.18500 -1.14002 
0.58825 3.21200 -1.14969 
0.67224 3.29500 -1.17940 
0.71979 3.32400 -1.18978 
0.76807 3.35300 -1.20016 
0.82268 3.18500 -1.14002 
0.83598 3.18500 -1.14002 
0.84234 3.15900 -1.13072 
0.89510 3.15900 -1.13072 
0.95314 3.13300 -1.12141 
1.01009 3.10700 -1.11210 
1.04901 3.10700 -1.11210 
1.13065 3.08200 -1.10316 
1.28245 2.98600 -1.06879 
1.22615 2.45000 -0.87694 
1.30896 2.53100 -0.90593 
1.35913 2.45000 -0.87694 
1.41838 2.34500 -0.83936 
1.58415 2.48200 -0.88840 
1.71053 2.53100 -0.90593 
1.72110 2.53100 -0.90593 
1.72072 2.51500 -0.90021 
1.72995 2.49800 -0.89412 
1.73960 2.48200 -0.88840 
1.74424 2.38900 -0.85511 
1.75056 2.33100 -0.83435 
3.56758 3.94000 -1.41026 
3.81071 4.02300 -1.43997 
3.90237 4.06600 -1.45536 
-1.24411 1.38500 -0.50152 
-1.23562 1.39500 -0.50514 
-1.22980 1.39500 -0.50514 
-1.22101 1.40500 -0.50877 
-1.21119 1.42100 -0.51456 
-1.20082 1.43700 -0.52035 
-1.17316 1.47000 -0.53230 
-1.14327 1.48700 -0.53846 
-1.13541 1.49300 -0.54063 
-1.04519 1.57300 -0.56960 
-1.00324 1.63300 -0.59133 
-0.96667 1.67600 -0.60690 
-0.95156 1.69900 -0.61523 
-0.87934 1.75300 -0.63478 
-0.86960 1.77800 -0.64383 
-0.83281 1.81100 -0.65578 
-0.62551 1.66200 -0.60183 
-0.47677 1.75300 -0.63478 
-0.45689 1.76100 -0.63768 
-0.44953 1.76100 -0.63768 
-0.42012 1.76100 -0.63768 
-0.41277 1.76100 -0.63768 
-0.34817 1.76900 -0.64057 
-0.34078 1.76900 -0.64057 
-0.33340 1.76900 -0.64057 
-0.20313 1.72900 -0.62609 
-0.17355 1.72200 -0.62355 
-0.15917 1.72200 -0.62355 
-0.12806 1.69100 -0.61233 
-0.08175 1.61300 -0.58408 
-0.07436 1.59900 -0.57902 
-0.06713 1.58600 -0.57431 
-0.00143 2.48200 -0.89876 
0.05835 2.87400 -1.04071 
0.13334 2.94000 -1.06460 
0.17017 2.94000 -1.06460 
0.27467 3.00900 -1.08959 
0.38740 3.10700 -1.12508 
0.43345 3.15900 -1.14391 
0.46913 3.13300 -1.13449 
0.53897 3.15900 -1.14391 
0.62024 3.23900 -1.17288 
0.78919 3.32400 -1.20366 
0.90082 3.13300 -1.13449 
1.07087 3.13300 -1.13449 
1.11388 3.10700 -1.12508 
1.13982 3.10700 -1.12508 
1.19499 3.08200 -1.11602 
1.21123 3.05800 -1.10733 
1.25198 3.03300 -1.09828 
1.25464 3.00900 -1.08959 
1.25907 2.77000 -1.00305 
1.19035 2.48200 -0.89876 
1.31775 2.54800 -0.92266 
1.36652 2.48200 -0.89876 
1.34671 2.37400 -0.85965 
1.35662 2.37400 -0.85965 
1.41700 2.35900 -0.85422 
1.47492 2.38900 -0.86508 
1.56364 2.46600 -0.89297 
1.58415 2.48200 -0.89876 
1.60479 2.49800 -0.90455 
1.72110 2.53100 -0.91650 
1.76419 2.38900 -0.86508 
1.77002 2.33100 -0.84408 
1.95594 2.40400 -0.87051 
2.00068 2.43400 -0.88138 
2.55921 2.96300 -1.07293 
2.96348 3.38200 -1.22466 
3.11583 3.53900 -1.28151 
3.28275 3.71100 -1.34379 
3.36313 3.78400 -1.37023 
3.46381 3.86100 -1.39811 
3.62133 3.98100 -1.44156 
3.63795 3.98100 -1.44156 
3.67120 3.98100 -1.44156 
3.84431 4.02300 -1.45677 
3.93633 4.06600 -1.47234 
4.20635 4.20000 -1.52086 
-1.25924 1.37000 -0.50181 
-1.24411 1.38500 -0.50731 
-1.23562 1.39500 -0.51097 
-1.21284 1.41600 -0.51866 
-1.16562 1.47600 -0.54064 
-1.13541 1.49300 -0.54687 
-1.12746 1.49900 -0.54906 
-1.09464 1.52300 -0.55785 
-1.05203 1.55400 -0.56921 
-1.02522 1.59300 -0.58349 
-0.99602 1.65500 -0.60620 
-0.99051 1.66900 -0.61133 
-0.98354 1.66900 -0.61133 
-0.95156 1.69900 -0.62232 
-0.92699 1.70600 -0.62488 
-0.90339 1.72900 -0.63331 
-0.87259 1.76900 -0.64796 
-0.83666 1.80300 -0.66041 
-0.82525 1.81100 -0.66334 
-0.80656 1.82000 -0.66664 
-0.76507 1.79400 -0.65712 
-0.72960 1.74500 -0.63917 
-0.63125 1.60600 -0.58826 
-0.62053 1.61300 -0.59082 
-0.65134 1.81100 -0.66334 
-0.59198 1.83800 -0.67323 
-0.47677 1.75300 -0.64210 
-0.47159 1.76100 -0.64503 
-0.44218 1.76100 -0.64503 
-0.32767 1.77800 -0.65126 
-0.25101 1.76100 -0.64503 
-0.21230 1.74500 -0.63917 
-0.08886 1.62000 -0.59338 
-0.00144 2.49800 -0.91498 
0.05835 2.87400 -1.05271 
0.09579 2.91800 -1.06882 
0.10879 2.94000 -1.07688 
0.13334 2.94000 -1.07688 
0.28952 3.03300 -1.11095 
0.34568 3.08200 -1.12889 
0.40372 3.13300 -1.14757 
0.48221 3.13300 -1.14757 
0.63924 3.26700 -1.19666 
0.78919 3.32400 -1.21753 
0.80293 3.26700 -1.19666 
0.84927 3.18500 -1.16662 
0.89510 3.15900 -1.15710 
1.11012 3.13300 -1.14757 
1.26230 3.05800 -1.12010 
1.23730 2.67300 -0.97908 
1.19567 2.51500 -0.92121 
1.19035 2.48200 -0.90912 
1.23415 2.46600 -0.90326 
1.39767 2.61800 -0.95894 
1.36652 2.48200 -0.90912 
1.36653 2.37400 -0.86956 
1.37644 2.37400 -0.86956 
1.38636 2.37400 -0.86956 
1.58415 2.48200 -0.90912 
1.76273 2.51500 -0.92121 
1.77167 2.49800 -0.91498 
1.78285 2.37400 -0.86956 
1.86215 2.37400 -0.86956 
2.00068 2.43400 -0.89154 
2.59895 3.00900 -1.10215 
3.14488 3.57200 -1.30837 
3.63339 3.94000 -1.44317 
3.64984 3.94000 -1.44317 
3.66629 3.94000 -1.44317 
3.69919 3.94000 -1.44317 
3.73209 3.94000 -1.44317 
3.80417 3.98100 -1.45818 
4.16028 4.15400 -1.52155 
4.22388 4.20000 -1.53840 
4.24142 4.20000 -1.53840 
-1.23421 1.40000 -0.51865 
-1.22101 1.40500 -0.52050 
-1.21119 1.42100 -0.52643 
-1.19296 1.44200 -0.53421 
-1.15102 1.48100 -0.54865 
-1.14484 1.48100 -0.54865 
-1.12120 1.49900 -0.55532 
-1.09666 1.51700 -0.56199 
-1.07341 1.52900 -0.56644 
-1.07121 1.53500 -0.56866 
-1.02940 1.57900 -0.58496 
-0.99051 1.66900 -0.61830 
-0.93412 1.70600 -0.63201 
-0.88666 1.75300 -0.64942 
-0.87934 1.75300 -0.64942 
-0.80656 1.82000 -0.67424 
-0.70617 1.70600 -0.63201 
-0.62053 1.61300 -0.59755 
-0.66467 1.89200 -0.70091 
-0.65230 1.90200 -0.70462 
-0.60226 1.84600 -0.68387 
-0.56283 1.79400 -0.66461 
-0.55286 1.78600 -0.66164 
-0.53041 1.76100 -0.65238 
-0.45689 1.76100 -0.65238 
-0.44218 1.76100 -0.65238 
-0.42942 1.76900 -0.65535 
-0.37964 1.77800 -0.65868 
-0.36058 1.79400 -0.66461 
-0.33062 1.79400 -0.66461 
-0.26828 1.77800 -0.65868 
-0.19044 1.74500 -0.64646 
-0.16704 1.72900 -0.64053 
-0.15982 1.72900 -0.64053 
-0.14412 1.71400 -0.63497 
-0.11246 1.66900 -0.61830 
-0.05321 1.56600 -0.58014 
0.14562 2.94000 -1.08916 
0.28952 3.03300 -1.12361 
0.31485 3.03300 -1.12361 
0.34568 3.08200 -1.14176 
0.50837 3.13300 -1.16066 
0.52578 3.15900 -1.17029 
0.66653 3.26700 -1.21030 
0.69975 3.29500 -1.22067 
0.79606 3.29500 -1.22067 
0.89510 3.15900 -1.17029 
1.07976 3.15900 -1.17029 
1.09295 3.15900 -1.17029 
1.22073 3.08200 -1.14176 
1.28997 3.03300 -1.12361 
1.30263 3.03300 -1.12361 
1.20326 2.46600 -0.91356 
1.39767 2.61800 -0.96987 
1.38924 2.58200 -0.95653 
1.35662 2.37400 -0.87948 
1.36653 2.37400 -0.87948 
1.76273 2.51500 -0.93171 
1.79016 2.46600 -0.91356 
1.79742 2.43400 -0.90170 
1.80409 2.38900 -0.88503 
2.01383 2.45000 -0.90763 
2.19140 2.60000 -0.96320 
3.67792 3.90000 -1.44480 
3.73209 3.94000 -1.45962 
4.16028 4.15400 -1.53890 
-1.25924 1.37000 -0.51325 
-1.22688 1.40500 -0.52636 
-1.22536 1.41000 -0.52824 
-1.17657 1.45900 -0.54660 
-1.09863 1.51100 -0.56608 
-1.09666 1.51700 -0.56832 
-1.09464 1.52300 -0.57057 
-1.08828 1.52300 -0.57057 
-1.04054 1.56600 -0.58668 
-1.01857 1.59300 -0.59680 
-1.00573 1.62600 -0.60916 
-0.99330 1.66200 -0.62265 
-0.90693 1.72200 -0.64512 
-0.89307 1.73700 -0.65074 
-0.86245 1.79400 -0.67210 
-0.83666 1.80300 -0.67547 
-0.82913 1.80300 -0.67547 
-0.74027 1.75300 -0.65674 
-0.70328 1.69900 -0.63651 
-0.62053 1.61300 -0.60429 
-0.63234 1.69900 -0.63651 
-0.64097 1.89200 -0.70881 
-0.60226 1.84600 -0.69158 
-0.52306 1.76100 -0.65974 
-0.40003 1.80300 -0.67547 
-0.35821 1.82000 -0.68184 
-0.24601 1.77800 -0.66610 
-0.19131 1.75300 -0.65674 
-0.12050 1.68400 -0.63089 
-0.07469 1.60600 -0.60167 
0.10879 2.94000 -1.10143 
0.17017 2.94000 -1.10143 
0.19624 2.96300 -1.11005 
0.20861 2.96300 -1.11005 
0.22098 2.96300 -1.11005 
0.24573 2.96300 -1.11005 
0.28952 3.03300 -1.13627 
0.40037 3.10700 -1.16400 
0.55216 3.15900 -1.18348 
0.59660 3.18500 -1.19322 
0.66081 3.23900 -1.21345 
0.87587 3.18500 -1.19322 
1.02215 3.18500 -1.19322 
1.03545 3.18500 -1.19322 
1.09295 3.15900 -1.18348 
1.10614 3.15900 -1.18348 
1.17552 3.13300 -1.17374 
1.31530 3.03300 -1.13627 
1.19567 2.51500 -0.94221 
1.20071 2.48200 -0.92985 
1.23415 2.46600 -0.92385 
1.33725 2.56500 -0.96094 
1.36042 2.43400 -0.91187 
1.35522 2.38900 -0.89501 
1.48418 2.40400 -0.90063 
1.80473 2.51500 -0.94221 
1.81946 2.45000 -0.91786 
1.82674 2.41900 -0.90625 
1.83549 2.40400 -0.90063 
2.14048 2.56500 -0.96094 
2.81113 3.23900 -1.21345 
3.28275 3.71100 -1.39028 
3.33024 3.74700 -1.40376 
3.82751 4.02300 -1.50716 
3.86110 4.02300 -1.50716 
4.01325 4.11000 -1.53976 
4.27115 4.24700 -1.59108 
-1.19296 1.44200 -0.54625 
-1.16562 1.47600 -0.55913 
-1.11940 1.50500 -0.57011 
-1.11756 1.51100 -0.57239 
-1.10494 1.51100 -0.57239 
-1.05852 1.55400 -0.58867 
-1.03400 1.56600 -0.59322 
-1.03205 1.57300 -0.59587 
-0.99602 1.65500 -0.62693 
-0.98354 1.66900 -0.63224 
-0.94447 1.69900 -0.64360 
-0.93738 1.69900 -0.64360 
-0.89307 1.73700 -0.65800 
-0.83666 1.80300 -0.68300 
-0.82913 1.80300 -0.68300 
-0.67124 1.65500 -0.62693 
-0.66467 1.89200 -0.71671 
-0.64097 1.89200 -0.71671 
-0.53041 1.76100 -0.66709 
-0.51571 1.76100 -0.66709 
-0.47083 1.78600 -0.67656 
-0.40580 1.82900 -0.69285 
-0.36332 1.84600 -0.69929 
-0.28361 1.82900 -0.69285 
-0.23966 1.78600 -0.67656 
-0.16858 1.74500 -0.66103 
-0.15330 1.73700 -0.65800 
-0.10549 1.66900 -0.63224 
-0.08996 1.64000 -0.62125 
-0.07501 1.61300 -0.61102 
-0.06051 1.58600 -0.60080 
0.04599 2.85200 -1.08037 
0.05877 2.89500 -1.09666 
0.24573 2.96300 -1.12242 
0.35855 3.08200 -1.16750 
0.40037 3.10700 -1.17697 
0.44297 3.13300 -1.18682 
0.50837 3.13300 -1.18682 
0.62848 3.21200 -1.21674 
0.68786 3.23900 -1.22697 
0.77565 3.26700 -1.23758 
0.79605 3.23900 -1.22697 
0.82310 3.23900 -1.22697 
0.94236 3.18500 -1.20652 
0.99556 3.18500 -1.20652 
1.14936 3.13300 -1.18682 
1.20169 3.13300 -1.18682 
1.28252 3.10700 -1.17697 
1.26146 2.75000 -1.04173 
1.23118 2.63600 -0.99855 
1.29018 2.51500 -0.95271 
1.33725 2.56500 -0.97165 
1.43592 2.37400 -0.89930 
1.47414 2.40400 -0.91066 
1.56364 2.46600 -0.93415 
1.68940 2.53100 -0.95877 
1.83735 2.53100 -0.95877 
1.93970 2.43400 -0.92203 
2.64913 3.08200 -1.16750 
2.75096 3.18500 -1.20652 
3.89312 4.11000 -1.55692 
3.91028 4.11000 -1.55692 
-1.25810 1.37500 -0.52661 
-1.25235 1.37500 -0.52661 
-1.24145 1.39500 -0.53427 
-1.13372 1.49900 -0.57410 
-1.11940 1.50500 -0.57640 
-1.08618 1.52900 -0.58559 
-1.00069 1.64000 -0.62810 
-0.99808 1.64700 -0.63078 
-0.92699 1.70600 -0.65338 
-0.88666 1.75300 -0.67138 
-0.86606 1.78600 -0.68402 
-0.86245 1.79400 -0.68708 
-0.84419 1.80300 -0.69053 
-0.79896 1.82000 -0.69704 
-0.77256 1.79400 -0.68708 
-0.72291 1.72900 -0.66219 
-0.68676 1.67600 -0.64189 
-0.62674 1.64700 -0.63078 
-0.63494 1.70600 -0.65338 
-0.64217 1.74500 -0.66831 
-0.65942 1.85500 -0.71044 
-0.66024 1.90200 -0.72844 
-0.65230 1.90200 -0.72844 
-0.62705 1.87400 -0.71772 
-0.57318 1.80300 -0.69053 
-0.44040 1.84600 -0.70700 
-0.16935 1.75300 -0.67138 
-0.15401 1.74500 -0.66831 
-0.13760 1.72200 -0.65950 
-0.07562 1.62600 -0.62274 
0.13438 2.96300 -1.13479 
0.15789 2.94000 -1.12598 
0.19624 2.96300 -1.13479 
0.27257 2.98600 -1.14360 
0.49529 3.13300 -1.19990 
0.50837 3.13300 -1.19990 
0.63650 3.18500 -1.21981 
0.65531 3.21200 -1.23016 
0.66872 3.21200 -1.23016 
0.84927 3.18500 -1.21981 
0.91577 3.18500 -1.21981 
1.02215 3.18500 -1.21981 
1.21766 3.10700 -1.18994 
1.33891 3.05800 -1.17118 
1.24610 2.69200 -1.03100 
1.23959 2.65400 -1.01645 
1.21107 2.48200 -0.95058 
1.37419 2.51500 -0.96321 
1.36042 2.43400 -0.93219 
1.36519 2.38900 -0.91496 
1.37644 2.37400 -0.90921 
1.42601 2.37400 -0.90921 
1.62565 2.49800 -0.95670 
1.65772 2.51500 -0.96321 
1.66822 2.51500 -0.96321 
1.76458 2.54800 -0.97585 
1.82841 2.54800 -0.97585 
1.84468 2.49800 -0.95670 
1.86856 2.43400 -0.93219 
1.89905 2.43400 -0.93219 
1.91937 2.43400 -0.93219 
1.92954 2.43400 -0.93219 
3.25091 3.67500 -1.40748 
3.70993 4.02300 -1.54076 
3.78353 4.06600 -1.55723 
3.87596 4.11000 -1.57408 
4.04757 4.11000 -1.57408 
-1.24411 1.38500 -0.53622 
-1.24145 1.39500 -0.54009 
-1.23125 1.41000 -0.54590 
-1.22305 1.42100 -0.55016 
-1.20082 1.43700 -0.55635 
-1.17448 1.46400 -0.56681 
-1.16562 1.47600 -0.57145 
-1.15411 1.49300 -0.57803 
-1.14165 1.49300 -0.57803 
-1.08828 1.52300 -0.58965 
-1.05852 1.55400 -0.60165 
-1.04307 1.56000 -0.60397 
-1.01857 1.59300 -0.61675 
-1.00878 1.62000 -0.62720 
-0.96426 1.68400 -0.65198 
-0.95414 1.69100 -0.65469 
-0.87998 1.76900 -0.68489 
-0.80257 1.81100 -0.70115 
-0.77256 1.79400 -0.69457 
-0.74365 1.76100 -0.68179 
-0.64868 1.63300 -0.63224 
-0.55286 1.78600 -0.69147 
-0.53049 1.78600 -0.69147 
-0.46026 1.86400 -0.72167 
-0.44348 1.89200 -0.73251 
-0.38792 1.93000 -0.74722 
-0.37986 1.93000 -0.74722 
-0.34942 1.94000 -0.75110 
-0.28037 1.91100 -0.73987 
-0.20622 1.82000 -0.70464 
-0.17177 1.77800 -0.68838 
-0.12265 1.71400 -0.66360 
0.03383 2.83100 -1.09606 
0.09579 2.91800 -1.12974 
0.15913 2.96300 -1.14716 
0.17150 2.96300 -1.14716 
0.37141 3.08200 -1.19324 
0.39715 3.08200 -1.19324 
0.42632 3.10700 -1.20291 
0.43929 3.10700 -1.20291 
0.56535 3.15900 -1.22305 
0.57854 3.15900 -1.22305 
0.78942 3.21200 -1.24357 
0.88917 3.18500 -1.23311 
1.11933 3.15900 -1.22305 
1.15280 3.10700 -1.20291 
1.17874 3.10700 -1.20291 
1.29326 3.13300 -1.21298 
1.29550 3.10700 -1.20291 
1.28680 2.83100 -1.09606 
1.36652 2.48200 -0.96094 
1.36214 2.41900 -0.93655 
1.45497 2.38900 -0.92493 
1.48334 2.41900 -0.93655 
1.52281 2.45000 -0.94855 
1.63671 2.51500 -0.97371 
1.69997 2.53100 -0.97991 
1.72202 2.54800 -0.98649 
1.73266 2.54800 -0.98649 
1.81919 2.56500 -0.99307 
1.84969 2.54800 -0.98649 
1.84792 2.53100 -0.97991 
1.85848 2.53100 -0.97991 
1.89905 2.43400 -0.94235 
1.91765 2.41900 -0.93655 
2.18471 2.61800 -1.01359 
2.97639 3.41300 -1.32139 
3.54765 3.90000 -1.50993 
3.81749 4.06600 -1.57420 
3.83447 4.06600 -1.57420 
3.97892 4.11000 -1.59124 
3.95330 4.06600 -1.57420 
-1.24145 1.39500 -0.54592 
-1.23057 1.41600 -0.55414 
-1.22305 1.42100 -0.55609 
-1.20082 1.43700 -0.56235 
-1.16562 1.47600 -0.57762 
-1.16339 1.48100 -0.57957 
-1.14165 1.49300 -0.58427 
-1.05852 1.55400 -0.60814 
-1.02734 1.58600 -0.62066 
-1.00878 1.62000 -0.63397 
-1.00573 1.62600 -0.63632 
-0.99121 1.64700 -0.64453 
-0.98911 1.65500 -0.64766 
-0.93738 1.69900 -0.66488 
-0.92699 1.70600 -0.66762 
-0.91703 1.71400 -0.67075 
-0.83666 1.80300 -0.70558 
-0.81013 1.81100 -0.70871 
-0.77644 1.80300 -0.70558 
-0.72960 1.74500 -0.68289 
-0.63792 1.88300 -0.73689 
-0.55286 1.78600 -0.69893 
-0.48068 1.88300 -0.73689 
-0.42668 1.96000 -0.76702 
-0.39595 1.97000 -0.77094 
-0.28756 1.96000 -0.76702 
-0.23018 1.89200 -0.74041 
-0.19470 1.85500 -0.72593 
-0.14874 1.76900 -0.69228 
-0.13154 1.73700 -0.67975 
-0.06883 1.62600 -0.63632 
-0.04392 1.71400 -0.67075 
-0.00154 2.67300 -1.04605 
0.01005 2.79000 -1.09183 
0.03358 2.81000 -1.09966 
0.09579 2.91800 -1.14192 
0.38428 3.08200 -1.20610 
0.53897 3.15900 -1.23624 
0.62320 3.18500 -1.24641 
0.70299 3.18500 -1.24641 
0.75618 3.18500 -1.24641 
0.97718 3.21200 -1.25698 
0.99059 3.21200 -1.25698 
1.11012 3.13300 -1.22606 
1.11388 3.10700 -1.21589 
1.12685 3.10700 -1.21589 
1.13982 3.10700 -1.21589 
1.28146 2.49800 -0.97756 
1.36652 2.48200 -0.97130 
1.35913 2.45000 -0.95878 
1.36214 2.41900 -0.94665 
1.40618 2.37400 -0.92904 
1.42601 2.37400 -0.92904 
1.44499 2.38900 -0.93491 
1.58393 2.49800 -0.97756 
1.62621 2.51500 -0.98422 
1.76458 2.54800 -0.99713 
1.78586 2.54800 -0.99713 
1.85511 2.49800 -0.97756 
1.89745 2.41900 -0.94665 
1.93587 2.40400 -0.94078 
3.07213 3.50600 -1.37203 
3.18987 3.60600 -1.41116 
3.26625 3.67500 -1.43817 
3.60048 3.94000 -1.54187 
3.74352 4.02300 -1.57435 
3.82751 4.02300 -1.57435 
3.99548 4.02300 -1.57435 
-1.22899 1.42100 -0.56203 
-1.17316 1.47000 -0.58141 
-1.16339 1.48100 -0.58576 
-1.16189 1.48700 -0.58813 
-1.14623 1.49900 -0.59288 
-1.10933 1.51700 -0.59999 
-1.06021 1.54700 -0.61186 
-1.03396 1.58600 -0.62728 
-1.02522 1.59300 -0.63005 
-1.00573 1.62600 -0.64311 
-1.00324 1.63300 -0.64587 
-0.99121 1.64700 -0.65141 
-0.97367 1.67600 -0.66288 
-0.94447 1.69900 -0.67198 
-0.91703 1.71400 -0.67791 
-0.88666 1.75300 -0.69334 
-0.88335 1.76100 -0.69650 
-0.86606 1.78600 -0.70639 
-0.84747 1.79400 -0.70955 
-0.84419 1.80300 -0.71311 
-0.83666 1.80300 -0.71311 
-0.80257 1.81100 -0.71628 
-0.78744 1.81100 -0.71628 
-0.56283 1.79400 -0.70955 
-0.54785 1.79400 -0.70955 
-0.52252 1.86400 -0.73724 
-0.49580 1.91100 -0.75583 
-0.49038 1.92100 -0.75978 
-0.46176 1.97000 -0.77916 
-0.43561 2.00100 -0.79142 
-0.42960 2.01200 -0.79577 
-0.40641 2.02200 -0.79973 
-0.31695 2.04400 -0.80843 
-0.26716 1.99100 -0.78747 
-0.25742 1.98000 -0.78312 
-0.24790 1.97000 -0.77916 
-0.19068 1.89200 -0.74831 
-0.11650 1.72900 -0.68384 
-0.05481 1.61300 -0.63796 
-0.02751 2.10000 -0.83058 
-0.00156 2.71100 -1.07224 
0.03358 2.81000 -1.11139 
0.09504 2.89500 -1.14501 
0.10798 2.91800 -1.15411 
0.17150 2.96300 -1.17191 
0.24764 2.98600 -1.18100 
0.48221 3.13300 -1.23914 
0.50837 3.13300 -1.23914 
0.53897 3.15900 -1.24943 
0.97718 3.21200 -1.27039 
1.03082 3.21200 -1.27039 
1.09295 3.15900 -1.24943 
1.10090 3.10700 -1.22886 
1.11388 3.10700 -1.22886 
1.14352 3.08200 -1.21897 
1.25934 3.08200 -1.21897 
1.27220 3.08200 -1.21897 
1.32206 2.96300 -1.17191 
1.20071 2.48200 -0.98166 
1.21107 2.48200 -0.98166 
1.24216 2.48200 -0.98166 
1.30068 2.51500 -0.99472 
1.36042 2.43400 -0.96268 
1.43502 2.38900 -0.94488 
1.46410 2.40400 -0.95081 
1.55306 2.48200 -0.98166 
1.60521 2.51500 -0.99472 
1.72202 2.54800 -1.00777 
1.77522 2.54800 -1.00777 
1.81919 2.56500 -1.01449 
1.83905 2.54800 -1.00777 
1.84969 2.54800 -1.00777 
1.85848 2.53100 -1.00104 
1.87564 2.40400 -0.95081 
2.06371 2.49800 -0.98799 
2.19973 2.63600 -1.04257 
2.49025 2.94000 -1.16281 
2.70212 3.15900 -1.24943 
3.23515 3.64000 -1.43967 
3.63339 3.94000 -1.55832 
3.93715 3.98100 -1.57454 
-1.24860 1.39000 -0.55557 
-1.24727 1.39500 -0.55757 
-1.17179 1.47600 -0.58994 
-1.13197 1.50500 -0.60153 
-1.11940 1.50500 -0.60153 
-1.10099 1.52300 -0.60873 
-1.06501 1.55400 -0.62112 
-1.04519 1.57300 -0.62871 
-1.04258 1.57900 -0.63111 
-1.02018 1.60600 -0.64190 
-1.00069 1.64000 -0.65549 
-0.99808 1.64700 -0.65829 
-0.98067 1.67600 -0.66988 
-0.93738 1.69900 -0.67907 
-0.90032 1.73700 -0.69426 
-0.88666 1.75300 -0.70065 
-0.85496 1.79400 -0.71704 
-0.84419 1.80300 -0.72064 
-0.81013 1.81100 -0.72384 
-0.70847 1.72900 -0.69106 
-0.66894 1.68400 -0.67308 
-0.65877 1.67600 -0.66988 
-0.64082 1.68400 -0.67308 
-0.65337 1.83800 -0.73463 
-0.64578 1.88300 -0.75261 
-0.58328 1.81100 -0.72384 
-0.52247 1.89200 -0.75621 
-0.51729 1.90200 -0.76021 
-0.44862 2.02200 -0.80817 
-0.43408 2.03300 -0.81257 
-0.40662 2.06600 -0.82576 
-0.31521 2.08900 -0.83495 
-0.30648 2.08900 -0.83495 
-0.25444 2.02200 -0.80817 
-0.20677 1.97000 -0.78739 
-0.03999 1.86400 -0.74502 
-0.02781 2.12300 -0.84854 
0.00997 2.77000 -1.10714 
0.04532 2.81000 -1.12313 
0.12016 2.91800 -1.16629 
0.15789 2.94000 -1.17508 
0.26010 2.98600 -1.19347 
0.27257 2.98600 -1.19347 
0.41002 3.08200 -1.23184 
0.50837 3.13300 -1.25222 
0.71768 3.13300 -1.25222 
0.74384 3.13300 -1.25222 
0.82915 3.15900 -1.26262 
0.84234 3.15900 -1.26262 
0.99059 3.21200 -1.28380 
1.05338 3.15900 -1.26262 
1.11778 3.08200 -1.23184 
1.19846 3.05800 -1.22225 
1.21123 3.05800 -1.22225 
1.23360 3.08200 -1.23184 
1.32614 3.05800 -1.22225 
1.33232 2.98600 -1.19347 
1.29635 2.85200 -1.13991 
1.27981 2.79000 -1.11513 
1.24847 2.67300 -1.06837 
1.23371 2.61800 -1.04639 
1.21107 2.48200 -0.99203 
1.22144 2.48200 -0.99203 
1.34404 2.49800 -0.99842 
