ply
format ascii 1.0
comment pointcloud saved from Realsense Viewer
element vertex 1801
property float32 x
property float32 y
property float32 z
end_header
-0.0272946 -0.239093 -3.058 
-0.0145264 -0.239093 -3.058 
-0.00174375 -0.237139 -3.033 
0.0109201 -0.237139 -3.033 
0.023584 -0.237139 -3.033 
0.035961 -0.235262 -3.009 
0.0485247 -0.235262 -3.009 
0.0606214 -0.233464 -2.986 
0.073089 -0.233464 -2.986 
0.0855566 -0.233464 -2.986 
0.0980242 -0.233464 -2.986 
0.109641 -0.231666 -2.963 
0.122012 -0.231666 -2.963 
0.133341 -0.229867 -2.94 
0.145616 -0.229867 -2.94 
0.157892 -0.229867 -2.94 
0.168894 -0.228147 -2.918 
0.181078 -0.228147 -2.918 
0.191738 -0.226349 -2.895 
0.203826 -0.226349 -2.895 
0.214347 -0.224707 -2.874 
0.226347 -0.224707 -2.874 
0.236523 -0.222987 -2.852 
0.248431 -0.222987 -2.852 
0.260339 -0.222987 -2.852 
0.270242 -0.221345 -2.831 
0.284155 -0.222987 -2.852 
0.293883 -0.221345 -2.831 
0.303436 -0.219703 -2.81 
0.301934 -0.210477 -2.692 
0.290605 -0.195309 -2.498 
0.269191 -0.163331 -2.089 
0.263412 -0.154809 -1.98 
0.260977 -0.14871 -1.902 
0.268919 -0.14871 -1.902 
0.275404 -0.147928 -1.892 
0.281957 -0.147225 -1.883 
0.289819 -0.147225 -1.883 
0.297681 -0.147225 -1.883 
0.305543 -0.147225 -1.883 
0.313405 -0.147225 -1.883 
0.319732 -0.146521 -1.874 
0.325809 -0.145739 -1.864 
0.331981 -0.145035 -1.855 
0.338078 -0.144332 -1.846 
0.344287 -0.143706 -1.838 
0.348515 -0.142299 -1.82 
0.354353 -0.141595 -1.811 
0.358517 -0.140266 -1.794 
0.362743 -0.139015 -1.778 
0.368293 -0.138311 -1.769 
0.373981 -0.137686 -1.761 
0.379601 -0.13706 -1.753 
0.383389 -0.135809 -1.737 
0.390642 -0.135809 -1.737 
0.396062 -0.135184 -1.729 
0.403281 -0.135184 -1.729 
0.4105 -0.135184 -1.729 
0.417719 -0.135184 -1.729 
0.424938 -0.135184 -1.729 
0.430408 -0.134637 -1.722 
0.554626 -0.133386 -1.706 
0.559444 -0.132838 -1.699 
0.568872 -0.133386 -1.706 
0.573632 -0.132838 -1.699 
0.580726 -0.132838 -1.699 
0.590241 -0.133386 -1.706 
0.597365 -0.133386 -1.706 
0.610157 -0.134637 -1.722 
0.622725 -0.135809 -1.737 
0.632879 -0.136435 -1.745 
0.6431 -0.13706 -1.753 
0.653387 -0.137686 -1.761 
0.657738 -0.13706 -1.753 
0.668093 -0.137686 -1.761 
0.675446 -0.137686 -1.761 
0.682798 -0.137686 -1.761 
0.690151 -0.137686 -1.761 
0.697504 -0.137686 -1.761 
0.701655 -0.13706 -1.753 
0.71221 -0.137686 -1.761 
0.719562 -0.137686 -1.761 
0.730218 -0.138311 -1.769 
0.737604 -0.138311 -1.769 
0.74499 -0.138311 -1.769 
2.48178 -0.426897 -5.46 
2.61697 -0.446052 -5.705 
2.72179 -0.459735 -5.88 
2.83368 -0.474356 -6.067 
3.0527 -0.50649 -6.478 
3.24471 -0.533621 -6.825 
3.45833 -0.563801 -7.211 
3.62535 -0.585927 -7.494 
3.80595 -0.609852 -7.8 
4.0019 -0.63581 -8.132 
4.1237 -0.649649 -8.309 
4.15839 -0.649649 -8.309 
4.28594 -0.664035 -8.493 
4.3214 -0.664035 -8.493 
4.35686 -0.664035 -8.493 
4.39232 -0.664035 -8.493 
4.33185 -0.649649 -8.309 
4.36655 -0.649649 -8.309 
4.30748 -0.63581 -8.132 
4.25121 -0.622597 -7.963 
4.19676 -0.609852 -7.8 
3.98533 -0.574669 -7.35 
3.8674 -0.553402 -7.078 
3.75766 -0.533621 -6.825 
3.65579 -0.515247 -6.59 
3.6207 -0.50649 -6.478 
3.64775 -0.50649 -6.478 
3.55454 -0.489915 -6.266 
3.5807 -0.489915 -6.266 
3.54872 -0.482018 -6.165 
3.51765 -0.474356 -6.067 
3.4875 -0.466928 -5.972 
3.51243 -0.466928 -5.972 
3.48288 -0.459735 -5.88 
3.45434 -0.452776 -5.791 
3.42686 -0.446052 -5.705 
3.39987 -0.439485 -5.621 
3.3734 -0.433073 -5.539 
3.34809 -0.426897 -5.46 
3.37088 -0.426897 -5.46 
3.39368 -0.426897 -5.46 
3.3683 -0.420876 -5.383 
3.43928 -0.426897 -5.46 
3.46207 -0.426897 -5.46 
3.48487 -0.426897 -5.46 
3.50767 -0.426897 -5.46 
3.53047 -0.426897 -5.46 
3.60468 -0.433073 -5.539 
3.68151 -0.439485 -5.621 
3.70498 -0.439485 -5.621 
3.72845 -0.439485 -5.621 
3.69718 -0.433073 -5.539 
3.66725 -0.426897 -5.46 
3.63801 -0.420876 -5.383 
3.56052 -0.409383 -5.236 
3.53381 -0.403832 -5.165 
3.46176 -0.393198 -5.029 
3.35048 -0.378265 -4.838 
3.37068 -0.378265 -4.838 
3.39088 -0.378265 -4.838 
3.41108 -0.378265 -4.838 
3.43128 -0.378265 -4.838 
3.45148 -0.378265 -4.838 
3.47168 -0.378265 -4.838 
3.44858 -0.373574 -4.778 
3.4257 -0.368961 -4.719 
3.40306 -0.364426 -4.661 
3.3814 -0.360047 -4.605 
3.32087 -0.351603 -4.497 
3.30029 -0.34746 -4.444 
3.24341 -0.339563 -4.343 
3.22475 -0.335732 -4.294 
3.17169 -0.328382 -4.2 
3.12089 -0.321345 -4.11 
3.07162 -0.314543 -4.023 
3.0247 -0.308054 -3.94 
3.01028 -0.304926 -3.9 
2.96603 -0.298828 -3.822 
2.95234 -0.295857 -3.784 
2.93912 -0.292964 -3.747 
2.92637 -0.290149 -3.711 
2.88558 -0.284598 -3.64 
2.87369 -0.281939 -3.606 
2.86151 -0.279281 -3.572 
2.87642 -0.279281 -3.572 
2.86462 -0.276701 -3.539 
2.82733 -0.271697 -3.475 
2.81567 -0.269195 -3.443 
2.80539 -0.26685 -3.413 
2.79403 -0.264426 -3.382 
2.78407 -0.262158 -3.353 
2.77387 -0.259891 -3.324 
2.78775 -0.259891 -3.324 
2.77718 -0.257624 -3.295 
2.76722 -0.255434 -3.267 
2.75703 -0.253245 -3.239 
2.74746 -0.251134 -3.212 
2.76087 -0.251134 -3.212 
2.77428 -0.251134 -3.212 
2.76426 -0.249023 -3.185 
2.77756 -0.249023 -3.185 
2.76807 -0.24699 -3.159 
2.78126 -0.24699 -3.159 
2.79445 -0.24699 -3.159 
2.78454 -0.244957 -3.133 
2.7744 -0.242925 -3.107 
2.8107 -0.244957 -3.133 
2.80035 -0.242925 -3.107 
2.79068 -0.24097 -3.082 
2.80355 -0.24097 -3.082 
2.79449 -0.239093 -3.058 
2.78431 -0.237139 -3.033 
2.77484 -0.235262 -3.009 
2.7874 -0.235262 -3.009 
2.79996 -0.235262 -3.009 
2.81253 -0.235262 -3.009 
2.82509 -0.235262 -3.009 
2.83766 -0.235262 -3.009 
2.85022 -0.235262 -3.009 
2.88562 -0.237139 -3.033 
2.89828 -0.237139 -3.033 
2.93494 -0.239093 -3.058 
2.94771 -0.239093 -3.058 
2.98371 -0.24097 -3.082 
2.99658 -0.24097 -3.082 
3.00945 -0.24097 -3.082 
3.02231 -0.24097 -3.082 
3.0598 -0.242925 -3.107 
3.09849 -0.244957 -3.133 
3.13739 -0.24699 -3.159 
3.17651 -0.249023 -3.185 
3.18981 -0.249023 -3.185 
3.23026 -0.251134 -3.212 
3.27094 -0.253245 -3.239 
-1.57621 -0.136885 -1.662 
-1.55511 -0.13565 -1.647 
-1.54823 -0.13565 -1.647 
-1.54135 -0.13565 -1.647 
-1.53448 -0.13565 -1.647 
-1.51461 -0.134496 -1.633 
-1.5078 -0.134496 -1.633 
-1.50098 -0.134496 -1.633 
-1.49416 -0.134496 -1.633 
-1.48734 -0.134496 -1.633 
-1.48687 -0.135073 -1.64 
-1.48634 -0.13565 -1.647 
-1.47946 -0.13565 -1.647 
-1.47974 -0.136308 -1.655 
-1.47283 -0.136308 -1.655 
-1.47212 -0.136885 -1.662 
-1.46518 -0.136885 -1.662 
-1.46438 -0.137461 -1.669 
-1.45741 -0.137461 -1.669 
-1.45653 -0.138038 -1.676 
-1.45645 -0.138697 -1.684 
-1.44942 -0.138697 -1.684 
-1.44838 -0.139273 -1.691 
-1.44814 -0.139932 -1.699 
-1.44698 -0.140509 -1.706 
-1.43986 -0.140509 -1.706 
-1.43945 -0.141168 -1.714 
-1.43898 -0.141827 -1.722 
-1.43179 -0.141827 -1.722 
-1.43039 -0.142403 -1.729 
-1.42318 -0.142403 -1.729 
-1.41596 -0.142403 -1.729 
-1.41526 -0.143062 -1.737 
-1.408 -0.143062 -1.737 
-1.4072 -0.143721 -1.745 
-1.39992 -0.143721 -1.745 
-1.39901 -0.14438 -1.753 
-1.39169 -0.14438 -1.753 
-1.39069 -0.145039 -1.761 
-1.38334 -0.145039 -1.761 
-1.38224 -0.145698 -1.769 
-1.38185 -0.146439 -1.778 
-1.38061 -0.147098 -1.786 
-1.3793 -0.147757 -1.794 
-1.37181 -0.147757 -1.794 
-1.37116 -0.148498 -1.803 
-1.37649 -0.149898 -1.82 
-1.37566 -0.150639 -1.829 
-1.37476 -0.151381 -1.838 
-1.37973 -0.152781 -1.855 
-1.37864 -0.153522 -1.864 
-1.37821 -0.154346 -1.874 
-1.37697 -0.155087 -1.883 
-1.38292 -0.156652 -1.902 
-1.38148 -0.157393 -1.911 
-1.38716 -0.158958 -1.93 
-1.38625 -0.159781 -1.94 
-1.38525 -0.160605 -1.95 
-1.38417 -0.161429 -1.96 
-1.38301 -0.162252 -1.97 
-1.38176 -0.163076 -1.98 
-1.37349 -0.163076 -1.98 
-1.37281 -0.163982 -1.991 
-1.37135 -0.164806 -2.001 
-1.363 -0.164806 -2.001 
-1.36209 -0.165711 -2.012 
-1.35369 -0.165711 -2.012 
-1.35197 -0.166535 -2.022 
-1.34353 -0.166535 -2.022 
-1.33509 -0.166535 -2.022 
-1.33386 -0.167441 -2.033 
-1.33255 -0.168347 -2.044 
-1.33114 -0.169253 -2.055 
-1.32256 -0.169253 -2.055 
-1.32101 -0.170159 -2.066 
-1.32699 -0.172053 -2.089 
-1.32521 -0.172959 -2.1 
-1.32397 -0.173948 -2.112 
-1.322 -0.174854 -2.123 
-1.32798 -0.17683 -2.147 
-1.32639 -0.177819 -2.159 
-1.3253 -0.178889 -2.172 
-1.32351 -0.179878 -2.184 
-1.32221 -0.180948 -2.197 
-1.32021 -0.181937 -2.209 
-1.3187 -0.183007 -2.222 
-1.31709 -0.184078 -2.235 
-1.31536 -0.185149 -2.248 
-1.31411 -0.186302 -2.262 
-1.32024 -0.188526 -2.289 
-1.31812 -0.189596 -2.302 
-1.31647 -0.190749 -2.316 
-1.31526 -0.191985 -2.331 
-1.30553 -0.191985 -2.331 
-1.30358 -0.193138 -2.345 
-1.30151 -0.194291 -2.359 
-1.29166 -0.194291 -2.359 
-1.28996 -0.195526 -2.374 
-1.28005 -0.195526 -2.374 
-1.27014 -0.195526 -2.374 
-1.26023 -0.195526 -2.374 
-1.25821 -0.196762 -2.389 
-1.24824 -0.196762 -2.389 
-1.24604 -0.197997 -2.404 
-1.236 -0.197997 -2.404 
-1.22596 -0.197997 -2.404 
-1.22351 -0.199233 -2.419 
-1.22094 -0.200468 -2.434 
-1.21078 -0.200468 -2.434 
-1.2164 -0.203104 -2.466 
-1.22175 -0.205739 -2.498 
-1.21956 -0.207139 -2.515 
-1.21676 -0.208457 -2.531 
-1.22239 -0.211257 -2.565 
-1.22821 -0.21414 -2.6 
-1.22579 -0.215623 -2.618 
-1.23156 -0.218588 -2.654 
-1.22922 -0.220152 -2.673 
-1.21806 -0.220152 -2.673 
-1.21547 -0.221717 -2.692 
-1.21273 -0.223282 -2.711 
-1.20983 -0.224847 -2.73 
-1.20722 -0.226494 -2.75 
-1.19573 -0.226494 -2.75 
-1.19286 -0.228142 -2.77 
-1.1813 -0.228142 -2.77 
-1.17818 -0.229789 -2.79 
-1.17489 -0.231436 -2.81 
-1.17185 -0.233166 -2.831 
-1.16003 -0.233166 -2.831 
-1.15673 -0.234895 -2.852 
-1.15365 -0.236707 -2.874 
-1.14999 -0.238437 -2.895 
-1.1379 -0.238437 -2.895 
-1.13476 -0.240331 -2.918 
-1.13104 -0.242143 -2.94 
-1.12752 -0.244037 -2.963 
-1.11515 -0.244037 -2.963 
-1.10277 -0.244037 -2.963 
-1.09887 -0.245932 -2.986 
-1.09477 -0.247826 -3.009 
-1.09084 -0.249803 -3.033 
-1.07817 -0.249803 -3.033 
-1.07429 -0.251862 -3.058 
-1.06985 -0.253838 -3.082 
-1.06556 -0.255897 -3.107 
-1.05259 -0.255897 -3.107 
-1.03961 -0.255897 -3.107 
-1.02664 -0.255897 -3.107 
-1.00551 -0.253838 -3.082 
-0.984913 -0.251862 -3.058 
-0.964197 -0.249803 -3.033 
-0.944004 -0.247826 -3.009 
-0.92432 -0.245932 -2.986 
-0.904829 -0.244037 -2.963 
-0.892458 -0.244037 -2.963 
-0.880086 -0.244037 -2.963 
-0.867714 -0.244037 -2.963 
-0.861982 -0.245932 -2.986 
-0.849515 -0.245932 -2.986 
-0.843495 -0.247826 -3.009 
-0.837559 -0.249803 -3.033 
-0.831694 -0.251862 -3.058 
-0.825353 -0.253838 -3.082 
-0.819075 -0.255897 -3.107 
-0.812848 -0.258039 -3.133 
-0.806403 -0.26018 -3.159 
-0.799742 -0.262322 -3.185 
-0.786444 -0.262322 -3.185 
-0.773145 -0.262322 -3.185 
-0.759847 -0.262322 -3.185 
-0.746548 -0.262322 -3.185 
-0.733249 -0.262322 -3.185 
-0.719951 -0.262322 -3.185 
-0.706652 -0.262322 -3.185 
-0.687694 -0.26018 -3.159 
-0.674504 -0.26018 -3.159 
-0.661314 -0.26018 -3.159 
-0.648124 -0.26018 -3.159 
-0.629708 -0.258039 -3.133 
-0.616627 -0.258039 -3.133 
-0.603545 -0.258039 -3.133 
-0.590464 -0.258039 -3.133 
-0.577383 -0.258039 -3.133 
-0.564301 -0.258039 -3.133 
-0.55122 -0.258039 -3.133 
-0.538139 -0.258039 -3.133 
-0.525057 -0.258039 -3.133 
-0.511976 -0.258039 -3.133 
-0.494754 -0.255897 -3.107 
-0.481781 -0.255897 -3.107 
-0.468808 -0.255897 -3.107 
-0.452168 -0.253838 -3.082 
-0.439299 -0.253838 -3.082 
-0.426431 -0.253838 -3.082 
-0.410342 -0.251862 -3.058 
-0.397574 -0.251862 -3.058 
-0.38166 -0.249803 -3.033 
-0.368996 -0.249803 -3.033 
-0.356332 -0.249803 -3.033 
-0.343668 -0.249803 -3.033 
-0.331004 -0.249803 -3.033 
-0.31834 -0.249803 -3.033 
-0.305676 -0.249803 -3.033 
-0.293013 -0.249803 -3.033 
-0.280349 -0.249803 -3.033 
-0.267685 -0.249803 -3.033 
-0.255021 -0.249803 -3.033 
-0.244355 -0.251862 -3.058 
-0.231587 -0.251862 -3.058 
-0.220536 -0.253838 -3.082 
-0.207667 -0.253838 -3.082 
-0.194799 -0.253838 -3.082 
-0.183406 -0.255897 -3.107 
-0.170433 -0.255897 -3.107 
-0.15746 -0.255897 -3.107 
-0.144488 -0.255897 -3.107 
-0.131515 -0.255897 -3.107 
-0.118542 -0.255897 -3.107 
-0.105569 -0.255897 -3.107 
-0.0918511 -0.253838 -3.082 
-0.0789826 -0.253838 -3.082 
-0.0661142 -0.253838 -3.082 
-0.0528311 -0.251862 -3.058 
-0.0400629 -0.251862 -3.058 
-0.0270715 -0.249803 -3.033 
-0.0144076 -0.249803 -3.033 
-0.00174375 -0.249803 -3.033 
0.0109201 -0.249803 -3.033 
0.0233973 -0.247826 -3.009 
0.035961 -0.247826 -3.009 
0.0481537 -0.245932 -2.986 
0.0606214 -0.245932 -2.986 
0.073089 -0.245932 -2.986 
0.0855566 -0.245932 -2.986 
0.0980242 -0.245932 -2.986 
0.109641 -0.244037 -2.963 
0.122012 -0.244037 -2.963 
0.133341 -0.242143 -2.94 
0.145616 -0.242143 -2.94 
0.157892 -0.242143 -2.94 
0.168894 -0.240331 -2.918 
0.181078 -0.240331 -2.918 
0.191738 -0.238437 -2.895 
0.203826 -0.238437 -2.895 
0.214347 -0.236707 -2.874 
0.226347 -0.236707 -2.874 
0.236523 -0.234895 -2.852 
0.248431 -0.234895 -2.852 
0.260339 -0.234895 -2.852 
0.270242 -0.233166 -2.831 
0.282063 -0.233166 -2.831 
0.293883 -0.233166 -2.831 
0.303436 -0.231436 -2.81 
0.297672 -0.218588 -2.654 
0.288744 -0.204421 -2.482 
0.267645 -0.171065 -2.077 
0.262082 -0.162252 -1.97 
0.262212 -0.157393 -1.911 
0.270191 -0.157393 -1.911 
0.275404 -0.155828 -1.892 
0.281957 -0.155087 -1.883 
0.289819 -0.155087 -1.883 
0.297681 -0.155087 -1.883 
0.305543 -0.155087 -1.883 
0.313405 -0.155087 -1.883 
0.319732 -0.154346 -1.874 
0.325809 -0.153522 -1.864 
0.331981 -0.152781 -1.855 
0.338078 -0.152039 -1.846 
0.344287 -0.151381 -1.838 
0.348515 -0.149898 -1.82 
0.354353 -0.149157 -1.811 
0.358517 -0.147757 -1.794 
0.362743 -0.146439 -1.778 
0.368293 -0.145698 -1.769 
0.373981 -0.145039 -1.761 
0.379601 -0.14438 -1.753 
0.385155 -0.143721 -1.745 
0.390642 -0.143062 -1.737 
0.396062 -0.142403 -1.729 
0.403281 -0.142403 -1.729 
0.4105 -0.142403 -1.729 
0.424938 -0.142403 -1.729 
0.55235 -0.139932 -1.699 
0.559444 -0.139932 -1.699 
0.566538 -0.139932 -1.699 
0.573632 -0.139932 -1.699 
0.580726 -0.139932 -1.699 
0.58782 -0.139932 -1.699 
0.597365 -0.140509 -1.706 
0.610157 -0.141827 -1.722 
0.622725 -0.143062 -1.737 
0.632879 -0.143721 -1.745 
0.6431 -0.14438 -1.753 
0.653387 -0.145039 -1.761 
0.657738 -0.14438 -1.753 
0.668093 -0.145039 -1.761 
0.675446 -0.145039 -1.761 
0.682798 -0.145039 -1.761 
0.690151 -0.145039 -1.761 
0.697504 -0.145039 -1.761 
0.704857 -0.145039 -1.761 
0.71221 -0.145039 -1.761 
0.719562 -0.145039 -1.761 
0.730218 -0.145698 -1.769 
0.737604 -0.145698 -1.769 
0.74878 -0.146439 -1.778 
2.50802 -0.462954 -5.621 
2.60806 -0.476956 -5.791 
2.71451 -0.491863 -5.972 
2.78302 -0.499688 -6.067 
2.85372 -0.507759 -6.165 
2.9752 -0.524643 -6.37 
3.15967 -0.552234 -6.705 
3.30366 -0.572331 -6.949 
3.59406 -0.617218 -7.494 
3.69791 -0.629572 -7.644 
3.88548 -0.655845 -7.963 
4.089 -0.684342 -8.309 
4.21501 -0.699497 -8.493 
4.25047 -0.699497 -8.493 
4.38333 -0.715393 -8.686 
4.4196 -0.715393 -8.686 
4.35686 -0.699497 -8.493 
4.39232 -0.699497 -8.493 
4.33185 -0.684342 -8.309 
4.36655 -0.684342 -8.309 
4.40124 -0.684342 -8.309 
4.25121 -0.655845 -7.963 
4.28446 -0.655845 -7.963 
4.06341 -0.617218 -7.494 
3.94007 -0.593909 -7.211 
3.75766 -0.562118 -6.825 
3.71958 -0.552234 -6.705 
3.6207 -0.533538 -6.478 
3.64775 -0.533538 -6.478 
3.55454 -0.516078 -6.266 
3.5807 -0.516078 -6.266 
3.54872 -0.507759 -6.165 
3.51765 -0.499688 -6.067 
3.4875 -0.491863 -5.972 
3.45832 -0.484286 -5.88 
3.43016 -0.476956 -5.791 
3.40304 -0.469873 -5.705 
3.3764 -0.462954 -5.621 
3.35027 -0.456201 -5.539 
3.32529 -0.449694 -5.46 
3.30087 -0.443352 -5.383 
3.32335 -0.443352 -5.383 
3.34582 -0.443352 -5.383 
3.3683 -0.443352 -5.383 
3.34353 -0.437175 -5.308 
3.36569 -0.437175 -5.308 
3.38786 -0.437175 -5.308 
3.41002 -0.437175 -5.308 
3.48068 -0.443352 -5.383 
3.55326 -0.449694 -5.46 
3.57606 -0.449694 -5.46 
3.59886 -0.449694 -5.46 
3.62166 -0.449694 -5.46 
3.59306 -0.443352 -5.383 
3.56516 -0.437175 -5.308 
3.53866 -0.431245 -5.236 
3.51224 -0.425398 -5.165 
3.4866 -0.419715 -5.096 
3.37296 -0.403572 -4.9 
3.30893 -0.393524 -4.778 
3.28777 -0.388664 -4.719 
3.30748 -0.388664 -4.719 
3.32718 -0.388664 -4.719 
3.34688 -0.388664 -4.719 
3.32521 -0.383887 -4.661 
3.34467 -0.383887 -4.661 
3.32371 -0.379275 -4.605 
3.30301 -0.374745 -4.55 
3.32201 -0.374745 -4.55 
3.30209 -0.37038 -4.497 
3.24407 -0.361814 -4.393 
3.22528 -0.357696 -4.343 
3.17172 -0.34979 -4.247 
3.15416 -0.345919 -4.2 
3.13695 -0.34213 -4.154 
3.08748 -0.334882 -4.066 
3.03956 -0.327881 -3.981 
2.99399 -0.32121 -3.9 
2.98018 -0.317998 -3.861 
2.93654 -0.311656 -3.784 
2.92347 -0.308609 -3.747 
2.93912 -0.308609 -3.747 
2.92637 -0.305644 -3.711 
2.88558 -0.299796 -3.64 
2.87369 -0.296996 -3.606 
2.86151 -0.294196 -3.572 
2.87642 -0.294196 -3.572 
2.86462 -0.291478 -3.539 
2.85255 -0.28876 -3.506 
2.81567 -0.283571 -3.443 
2.80539 -0.2811 -3.413 
2.79403 -0.278547 -3.382 
2.80815 -0.278547 -3.382 
2.79807 -0.276158 -3.353 
2.78775 -0.27377 -3.324 
2.77718 -0.271381 -3.295 
2.76722 -0.269075 -3.267 
2.75703 -0.266769 -3.239 
2.74746 -0.264545 -3.212 
2.76087 -0.264545 -3.212 
2.75096 -0.262322 -3.185 
2.74169 -0.26018 -3.159 
2.73221 -0.258039 -3.133 
2.74529 -0.258039 -3.133 
2.73548 -0.255897 -3.107 
2.74846 -0.255897 -3.107 
2.76143 -0.255897 -3.107 
2.75208 -0.253838 -3.082 
2.78737 -0.255897 -3.107 
2.77781 -0.253838 -3.082 
2.76895 -0.251862 -3.058 
2.75898 -0.249803 -3.033 
2.74971 -0.247826 -3.009 
2.76227 -0.247826 -3.009 
2.75363 -0.245932 -2.986 
2.76609 -0.245932 -2.986 
2.75716 -0.244037 -2.963 
2.76953 -0.244037 -2.963 
2.7819 -0.244037 -2.963 
2.79427 -0.244037 -2.963 
2.82843 -0.245932 -2.986 
2.8409 -0.245932 -2.986 
2.87535 -0.247826 -3.009 
2.91094 -0.249803 -3.033 
2.92361 -0.249803 -3.033 
2.96047 -0.251862 -3.058 
2.97324 -0.251862 -3.058 
2.98601 -0.251862 -3.058 
3.02231 -0.253838 -3.082 
3.03518 -0.253838 -3.082 
3.09849 -0.258039 -3.133 
3.13739 -0.26018 -3.159 
3.17651 -0.262322 -3.185 
3.18981 -0.262322 -3.185 
3.23026 -0.264545 -3.212 
3.27094 -0.266769 -3.239 
-1.55511 -0.142526 -1.647 
-1.54165 -0.141921 -1.64 
-1.5348 -0.141921 -1.64 
-1.52795 -0.141921 -1.64 
-1.52111 -0.141921 -1.64 
-1.5078 -0.141315 -1.633 
-1.50098 -0.141315 -1.633 
-1.49416 -0.141315 -1.633 
-1.48734 -0.141315 -1.633 
-1.48687 -0.141921 -1.64 
-1.48634 -0.142526 -1.647 
-1.47946 -0.142526 -1.647 
-1.47974 -0.143219 -1.655 
-1.47283 -0.143219 -1.655 
-1.47212 -0.143824 -1.662 
-1.46518 -0.143824 -1.662 
-1.46438 -0.14443 -1.669 
-1.45741 -0.14443 -1.669 
-1.45653 -0.145036 -1.676 
-1.45645 -0.145728 -1.684 
-1.44942 -0.145728 -1.684 
-1.44838 -0.146334 -1.691 
-1.44814 -0.147026 -1.699 
-1.44698 -0.147632 -1.706 
-1.43986 -0.147632 -1.706 
-1.43945 -0.148324 -1.714 
-1.43898 -0.149017 -1.722 
-1.43761 -0.149622 -1.729 
-1.43039 -0.149622 -1.729 
-1.42318 -0.149622 -1.729 
-1.42251 -0.150315 -1.737 
-1.41526 -0.150315 -1.737 
-1.408 -0.150315 -1.737 
-1.4072 -0.151007 -1.745 
-1.39992 -0.151007 -1.745 
-1.39901 -0.151699 -1.753 
-1.39169 -0.151699 -1.753 
-1.39069 -0.152392 -1.761 
-1.38334 -0.152392 -1.761 
-1.38224 -0.153084 -1.769 
-1.38185 -0.153863 -1.778 
-1.38061 -0.154555 -1.786 
-1.3793 -0.155247 -1.794 
-1.37181 -0.155247 -1.794 
-1.37116 -0.156026 -1.803 
-1.36969 -0.156718 -1.811 
-1.36889 -0.157497 -1.82 
-1.37476 -0.159055 -1.838 
-1.37303 -0.159747 -1.846 
-1.37198 -0.160526 -1.855 
-1.37821 -0.16217 -1.874 
-1.37697 -0.162949 -1.883 
-1.37565 -0.163728 -1.892 
-1.38148 -0.165372 -1.911 
-1.38069 -0.166237 -1.921 
-1.38625 -0.167882 -1.94 
-1.37815 -0.167882 -1.94 
-1.38417 -0.169612 -1.96 
-1.38301 -0.170478 -1.97 
-1.38176 -0.171343 -1.98 
-1.37349 -0.171343 -1.98 
-1.37281 -0.172295 -1.991 
-1.37135 -0.17316 -2.001 
-1.363 -0.17316 -2.001 
-1.36209 -0.174112 -2.012 
-1.35369 -0.174112 -2.012 
-1.35197 -0.174978 -2.022 
-1.34353 -0.174978 -2.022 
-1.34235 -0.17593 -2.033 
-1.33386 -0.17593 -2.033 
-1.33255 -0.176881 -2.044 
-1.33114 -0.177833 -2.055 
-1.32964 -0.178785 -2.066 
-1.32101 -0.178785 -2.066 
-1.32699 -0.180776 -2.089 
-1.32521 -0.181728 -2.1 
-1.32397 -0.182766 -2.112 
-1.322 -0.183718 -2.123 
-1.32056 -0.184756 -2.135 
-1.32639 -0.186833 -2.159 
-1.3253 -0.187958 -2.172 
-1.32351 -0.188997 -2.184 
-1.32221 -0.190122 -2.197 
-1.32021 -0.19116 -2.209 
-1.3187 -0.192285 -2.222 
-1.31709 -0.19341 -2.235 
-1.31536 -0.194535 -2.248 
-1.31411 -0.195747 -2.262 
-1.31216 -0.196872 -2.275 
-1.31068 -0.198083 -2.289 
-1.31647 -0.20042 -2.316 
-1.31526 -0.201718 -2.331 
-1.30553 -0.201718 -2.331 
-1.30358 -0.202929 -2.345 
-1.30151 -0.204141 -2.359 
-1.29166 -0.204141 -2.359 
-1.28996 -0.205439 -2.374 
-1.28005 -0.205439 -2.374 
-1.27816 -0.206737 -2.389 
-1.26819 -0.206737 -2.389 
-1.25821 -0.206737 -2.389 
-1.24824 -0.206737 -2.389 
-1.24604 -0.208035 -2.404 
-1.236 -0.208035 -2.404 
-1.22596 -0.208035 -2.404 
-1.22351 -0.209333 -2.419 
-1.21341 -0.209333 -2.419 
-1.21078 -0.210631 -2.434 
-1.2164 -0.2134 -2.466 
-1.21393 -0.214785 -2.482 
-1.21956 -0.21764 -2.515 
-1.21676 -0.219025 -2.531 
-1.22239 -0.221967 -2.565 
-1.22821 -0.224996 -2.6 
-1.22579 -0.226554 -2.618 
-1.23156 -0.229669 -2.654 
-1.22922 -0.231313 -2.673 
-1.21806 -0.231313 -2.673 
-1.21547 -0.232957 -2.692 
-1.21273 -0.234602 -2.711 
-1.20983 -0.236246 -2.73 
-1.19844 -0.236246 -2.73 
-1.19573 -0.237977 -2.75 
-1.19286 -0.239707 -2.77 
-1.1813 -0.239707 -2.77 
-1.17818 -0.241438 -2.79 
-1.17489 -0.243169 -2.81 
-1.17185 -0.244986 -2.831 
-1.16003 -0.244986 -2.831 
-1.15673 -0.246803 -2.852 
-1.15365 -0.248707 -2.874 
-1.14999 -0.250524 -2.895 
-1.1379 -0.250524 -2.895 
-1.13476 -0.252515 -2.918 
-1.13104 -0.254419 -2.94 
-1.12752 -0.256409 -2.963 
-1.11515 -0.256409 -2.963 
-1.11133 -0.258399 -2.986 
-1.09887 -0.258399 -2.986 
-1.09477 -0.26039 -3.009 
-1.09084 -0.262466 -3.033 
-1.08706 -0.26463 -3.058 
-1.07429 -0.26463 -3.058 
-1.06985 -0.266707 -3.082 
-1.06556 -0.26887 -3.107 
-1.06139 -0.27112 -3.133 
-1.03961 -0.26887 -3.107 
-1.02664 -0.26887 -3.107 
-1.00551 -0.266707 -3.082 
-0.984913 -0.26463 -3.058 
-0.964197 -0.262466 -3.033 
-0.951533 -0.262466 -3.033 
-0.93144 -0.26039 -3.009 
-0.911853 -0.258399 -2.986 
-0.892458 -0.256409 -2.963 
-0.886918 -0.258399 -2.986 
-0.87445 -0.258399 -2.986 
-0.861982 -0.258399 -2.986 
-0.856058 -0.26039 -3.009 
-0.850222 -0.262466 -3.033 
-0.844462 -0.26463 -3.058 
-0.838221 -0.266707 -3.082 
-0.832048 -0.26887 -3.107 
-0.825929 -0.27112 -3.133 
-0.819593 -0.27337 -3.159 
-0.806403 -0.27337 -3.159 
-0.799742 -0.27562 -3.185 
-0.79311 -0.277957 -3.212 
-0.779699 -0.277957 -3.212 
-0.766288 -0.277957 -3.212 
-0.752877 -0.277957 -3.212 
-0.739465 -0.277957 -3.212 
-0.726054 -0.277957 -3.212 
-0.706652 -0.27562 -3.185 
-0.693354 -0.27562 -3.185 
-0.680055 -0.27562 -3.185 
-0.661314 -0.27337 -3.159 
-0.648124 -0.27337 -3.159 
-0.634934 -0.27337 -3.159 
-0.616627 -0.27112 -3.133 
-0.603545 -0.27112 -3.133 
-0.590464 -0.27112 -3.133 
-0.577383 -0.27112 -3.133 
-0.564301 -0.27112 -3.133 
-0.55122 -0.27112 -3.133 
-0.538139 -0.27112 -3.133 
-0.525057 -0.27112 -3.133 
-0.511976 -0.27112 -3.133 
-0.494754 -0.26887 -3.107 
-0.481781 -0.26887 -3.107 
-0.468808 -0.26887 -3.107 
-0.455836 -0.26887 -3.107 
-0.439299 -0.266707 -3.082 
-0.426431 -0.266707 -3.082 
-0.413562 -0.266707 -3.082 
-0.397574 -0.26463 -3.058 
-0.384805 -0.26463 -3.058 
-0.372037 -0.26463 -3.058 
-0.356332 -0.262466 -3.033 
-0.343668 -0.262466 -3.033 
-0.331004 -0.262466 -3.033 
-0.31834 -0.262466 -3.033 
-0.305676 -0.262466 -3.033 
-0.293013 -0.262466 -3.033 
-0.280349 -0.262466 -3.033 
-0.267685 -0.262466 -3.033 
-0.255021 -0.262466 -3.033 
-0.244355 -0.26463 -3.058 
-0.231587 -0.26463 -3.058 
-0.218818 -0.26463 -3.058 
-0.207667 -0.266707 -3.082 
-0.194799 -0.266707 -3.082 
-0.18193 -0.266707 -3.082 
-0.169062 -0.266707 -3.082 
-0.156193 -0.266707 -3.082 
-0.143325 -0.266707 -3.082 
-0.130456 -0.266707 -3.082 
-0.117588 -0.266707 -3.082 
-0.10472 -0.266707 -3.082 
-0.0911358 -0.26463 -3.058 
-0.0783676 -0.26463 -3.058 
-0.0655993 -0.26463 -3.058 
-0.0523992 -0.262466 -3.033 
-0.0397353 -0.262466 -3.033 
-0.0270715 -0.262466 -3.033 
-0.0144076 -0.262466 -3.033 
-0.00172996 -0.26039 -3.009 
0.0108337 -0.26039 -3.009 
0.0232185 -0.258399 -2.986 
0.0356861 -0.258399 -2.986 
0.0481537 -0.258399 -2.986 
0.0606214 -0.258399 -2.986 
0.073089 -0.258399 -2.986 
0.0855566 -0.258399 -2.986 
0.0972692 -0.256409 -2.963 
0.109641 -0.256409 -2.963 
0.121065 -0.254419 -2.94 
0.133341 -0.254419 -2.94 
0.145616 -0.254419 -2.94 
0.157892 -0.254419 -2.94 
0.168894 -0.252515 -2.918 
0.179651 -0.250524 -2.895 
0.191738 -0.250524 -2.895 
0.202347 -0.248707 -2.874 
0.214347 -0.248707 -2.874 
0.226347 -0.248707 -2.874 
0.236523 -0.246803 -2.852 
0.248431 -0.246803 -2.852 
0.260339 -0.246803 -2.852 
0.270242 -0.244986 -2.831 
0.284155 -0.246803 -2.852 
0.293883 -0.244986 -2.831 
0.303436 -0.243169 -2.81 
0.295653 -0.228111 -2.636 
0.26481 -0.177833 -2.055 
0.259421 -0.168747 -1.95 
0.260977 -0.164593 -1.902 
0.268919 -0.164593 -1.902 
0.275404 -0.163728 -1.892 
0.281957 -0.162949 -1.883 
0.289819 -0.162949 -1.883 
0.297681 -0.162949 -1.883 
0.305543 -0.162949 -1.883 
0.311907 -0.16217 -1.874 
0.319732 -0.16217 -1.874 
0.325809 -0.161305 -1.864 
0.331981 -0.160526 -1.855 
0.338078 -0.159747 -1.846 
0.344287 -0.159055 -1.838 
0.348515 -0.157497 -1.82 
0.352787 -0.156026 -1.803 
0.358517 -0.155247 -1.794 
0.362743 -0.153863 -1.778 
0.368293 -0.153084 -1.769 
0.373981 -0.152392 -1.761 
0.379601 -0.151699 -1.753 
0.385155 -0.151007 -1.745 
0.390642 -0.150315 -1.737 
0.396062 -0.149622 -1.729 
0.403281 -0.149622 -1.729 
0.4105 -0.149622 -1.729 
0.417719 -0.149622 -1.729 
0.424938 -0.149622 -1.729 
0.55235 -0.147026 -1.699 
0.559444 -0.147026 -1.699 
0.566538 -0.147026 -1.699 
0.573632 -0.147026 -1.699 
0.580726 -0.147026 -1.699 
0.58782 -0.147026 -1.699 
0.597365 -0.147632 -1.706 
0.610157 -0.149017 -1.722 
0.622725 -0.150315 -1.737 
0.629977 -0.150315 -1.737 
0.6431 -0.151699 -1.753 
0.650419 -0.151699 -1.753 
0.657738 -0.151699 -1.753 
0.668093 -0.152392 -1.761 
0.675446 -0.152392 -1.761 
0.682798 -0.152392 -1.761 
0.690151 -0.152392 -1.761 
0.697504 -0.152392 -1.761 
0.704857 -0.152392 -1.761 
0.71221 -0.152392 -1.761 
0.719562 -0.152392 -1.761 
0.730218 -0.153084 -1.769 
0.737604 -0.153084 -1.769 
0.74878 -0.153863 -1.778 
2.94038 -0.570278 -6.59 
3.10223 -0.590614 -6.825 
3.13073 -0.590614 -6.825 
3.15922 -0.590614 -6.825 
3.24564 -0.601345 -6.949 
3.39812 -0.624018 -7.211 
3.63408 -0.661488 -7.644 
3.81898 -0.689094 -7.963 
3.93399 -0.703718 -8.132 
4.05431 -0.719035 -8.309 
4.17955 -0.734958 -8.493 
4.3108 -0.75166 -8.686 
4.34707 -0.75166 -8.686 
4.48527 -0.76914 -8.888 
4.52238 -0.76914 -8.888 
4.55949 -0.76914 -8.888 
4.49213 -0.75166 -8.686 
4.42778 -0.734958 -8.493 
4.46324 -0.734958 -8.493 
4.40124 -0.719035 -8.309 
4.34144 -0.703718 -8.132 
4.28446 -0.689094 -7.963 
4.14474 -0.661488 -7.644 
3.94007 -0.624018 -7.211 
3.82593 -0.601345 -6.949 
3.71958 -0.58023 -6.705 
3.6833 -0.570278 -6.59 
3.64775 -0.560586 -6.478 
3.61353 -0.55124 -6.37 
3.5807 -0.54224 -6.266 
3.54872 -0.5335 -6.165 
3.51765 -0.52502 -6.067 
3.4875 -0.516798 -5.972 
3.45832 -0.508837 -5.88 
3.43016 -0.501135 -5.791 
3.40304 -0.493693 -5.705 
3.3764 -0.486424 -5.621 
3.35027 -0.479328 -5.539 
3.32529 -0.472492 -5.46 
3.30087 -0.465828 -5.383 
3.27704 -0.459338 -5.308 
3.29921 -0.459338 -5.308 
3.32137 -0.459338 -5.308 
3.29818 -0.453107 -5.236 
3.32004 -0.453107 -5.236 
3.3419 -0.453107 -5.236 
3.36376 -0.453107 -5.236 
3.38563 -0.453107 -5.236 
3.45434 -0.459338 -5.308 
3.47651 -0.459338 -5.308 
3.49867 -0.459338 -5.308 
3.52083 -0.459338 -5.308 
3.49494 -0.453107 -5.236 
3.46911 -0.446963 -5.165 
3.49068 -0.446963 -5.165 
3.41976 -0.435194 -5.029 
3.3525 -0.424031 -4.9 
3.28898 -0.413473 -4.778 
3.26807 -0.408368 -4.719 
3.20835 -0.398503 -4.605 
3.22758 -0.398503 -4.605 
3.2468 -0.398503 -4.605 
3.22702 -0.393743 -4.55 
3.24602 -0.393743 -4.55 
3.26502 -0.393743 -4.55 
3.24576 -0.389157 -4.497 
3.22607 -0.38457 -4.444 
3.20739 -0.380157 -4.393 
3.18901 -0.37583 -4.343 
3.17096 -0.37159 -4.294 
3.15399 -0.367522 -4.247 
3.13662 -0.363455 -4.2 
3.08657 -0.355667 -4.11 
3.0705 -0.351859 -4.066 
3.02293 -0.344503 -3.981 
3.00825 -0.340955 -3.94 
2.99399 -0.337494 -3.9 
2.95007 -0.330744 -3.822 
2.93654 -0.327456 -3.784 
2.92347 -0.324254 -3.747 
2.91088 -0.321139 -3.711 
2.89799 -0.318023 -3.675 
2.88558 -0.314994 -3.64 
2.87369 -0.312052 -3.606 
2.88874 -0.312052 -3.606 
2.87642 -0.30911 -3.572 
2.86462 -0.306254 -3.539 
2.85255 -0.303398 -3.506 
2.84184 -0.300716 -3.475 
2.83004 -0.297947 -3.443 
2.81964 -0.295351 -3.413 
2.80815 -0.292668 -3.382 
2.79807 -0.290158 -3.353 
2.78775 -0.287649 -3.324 
2.77718 -0.285139 -3.295 
2.76722 -0.282716 -3.267 
2.75703 -0.280293 -3.239 
2.74746 -0.277957 -3.212 
2.73766 -0.27562 -3.185 
2.7285 -0.27337 -3.159 
2.71913 -0.27112 -3.133 
2.73221 -0.27112 -3.133 
2.72251 -0.26887 -3.107 
2.71347 -0.266707 -3.082 
2.72634 -0.266707 -3.082 
2.71788 -0.26463 -3.058 
2.73065 -0.26463 -3.058 
2.76495 -0.266707 -3.082 
2.75618 -0.26463 -3.058 
2.74631 -0.262466 -3.033 
2.73715 -0.26039 -3.009 
2.72869 -0.258399 -2.986 
2.72005 -0.256409 -2.963 
2.73242 -0.256409 -2.963 
2.72348 -0.254419 -2.94 
2.73576 -0.254419 -2.94 
2.74803 -0.254419 -2.94 
2.76031 -0.254419 -2.94 
2.77258 -0.254419 -2.94 
2.80665 -0.256409 -2.963 
2.81902 -0.256409 -2.963 
2.85337 -0.258399 -2.986 
2.86584 -0.258399 -2.986 
2.90047 -0.26039 -3.009 
2.91304 -0.26039 -3.009 
2.94894 -0.262466 -3.033 
2.9616 -0.262466 -3.033 
2.99878 -0.26463 -3.058 
3.03518 -0.266707 -3.082 
3.07278 -0.26887 -3.107 
3.13739 -0.27337 -3.159 
3.15058 -0.27337 -3.159 
3.18981 -0.27562 -3.185 
3.20311 -0.27562 -3.185 
3.27094 -0.280293 -3.239 
-1.58315 -0.150764 -1.662 
-1.56957 -0.150129 -1.655 
-1.55511 -0.149403 -1.647 
-1.54823 -0.149403 -1.647 
-1.54135 -0.149403 -1.647 
-1.53448 -0.149403 -1.647 
-1.51461 -0.148133 -1.633 
-1.5078 -0.148133 -1.633 
-1.50098 -0.148133 -1.633 
-1.49416 -0.148133 -1.633 
-1.48734 -0.148133 -1.633 
-1.48687 -0.148768 -1.64 
-1.48634 -0.149403 -1.647 
-1.47946 -0.149403 -1.647 
-1.47974 -0.150129 -1.655 
-1.47283 -0.150129 -1.655 
-1.47212 -0.150764 -1.662 
-1.47135 -0.151399 -1.669 
-1.46438 -0.151399 -1.669 
-1.46352 -0.152034 -1.676 
-1.46348 -0.152759 -1.684 
-1.45645 -0.152759 -1.684 
-1.45544 -0.153394 -1.691 
-1.45523 -0.15412 -1.699 
-1.45411 -0.154755 -1.706 
-1.44698 -0.154755 -1.706 
-1.44661 -0.155481 -1.714 
-1.44617 -0.156207 -1.722 
-1.43898 -0.156207 -1.722 
-1.43761 -0.156842 -1.729 
-1.43039 -0.156842 -1.729 
-1.42318 -0.156842 -1.729 
-1.42251 -0.157567 -1.737 
-1.41526 -0.157567 -1.737 
-1.408 -0.157567 -1.737 
-1.4072 -0.158293 -1.745 
-1.39992 -0.158293 -1.745 
-1.39901 -0.159019 -1.753 
-1.39169 -0.159019 -1.753 
-1.39069 -0.159744 -1.761 
-1.38962 -0.16047 -1.769 
-1.38224 -0.16047 -1.769 
-1.38185 -0.161286 -1.778 
-1.38061 -0.162012 -1.786 
-1.3793 -0.162738 -1.794 
-1.37869 -0.163554 -1.803 
-1.37116 -0.163554 -1.803 
-1.36969 -0.16428 -1.811 
-1.37566 -0.165913 -1.829 
-1.37476 -0.166729 -1.838 
-1.37303 -0.167455 -1.846 
-1.37198 -0.168271 -1.855 
-1.37086 -0.169088 -1.864 
-1.37697 -0.170811 -1.883 
-1.37565 -0.171628 -1.892 
-1.38148 -0.173351 -1.911 
-1.38069 -0.174258 -1.921 
-1.3791 -0.175075 -1.93 
-1.37815 -0.175982 -1.94 
-1.38417 -0.177796 -1.96 
-1.38301 -0.178703 -1.97 
-1.37478 -0.178703 -1.97 
-1.37349 -0.17961 -1.98 
-1.37281 -0.180608 -1.991 
-1.37135 -0.181515 -2.001 
-1.363 -0.181515 -2.001 
-1.36209 -0.182513 -2.012 
-1.35369 -0.182513 -2.012 
-1.35197 -0.18342 -2.022 
-1.34353 -0.18342 -2.022 
-1.34235 -0.184418 -2.033 
-1.33386 -0.184418 -2.033 
-1.33255 -0.185416 -2.044 
-1.33114 -0.186414 -2.055 
-1.32964 -0.187412 -2.066 
-1.32804 -0.188409 -2.077 
-1.32699 -0.189498 -2.089 
-1.32521 -0.190496 -2.1 
-1.32397 -0.191584 -2.112 
-1.322 -0.192582 -2.123 
-1.32056 -0.193671 -2.135 
-1.31901 -0.194759 -2.147 
-1.3253 -0.197027 -2.172 
-1.32351 -0.198116 -2.184 
-1.32221 -0.199295 -2.197 
-1.32021 -0.200383 -2.209 
-1.3187 -0.201563 -2.222 
-1.31709 -0.202742 -2.235 
-1.31536 -0.203921 -2.248 
-1.31411 -0.205191 -2.262 
-1.31216 -0.20637 -2.275 
-1.31068 -0.20764 -2.289 
-1.30851 -0.20882 -2.302 
-1.31526 -0.21145 -2.331 
-1.31337 -0.21272 -2.345 
-1.30358 -0.21272 -2.345 
-1.30151 -0.21399 -2.359 
-1.29988 -0.215351 -2.374 
-1.29811 -0.216712 -2.389 
-1.28814 -0.216712 -2.389 
-1.27816 -0.216712 -2.389 
-1.26819 -0.216712 -2.389 
-1.25821 -0.216712 -2.389 
-1.25608 -0.218072 -2.404 
-1.24604 -0.218072 -2.404 
-1.236 -0.218072 -2.404 
-1.22596 -0.218072 -2.404 
-1.22351 -0.219433 -2.419 
-1.21341 -0.219433 -2.419 
-1.21078 -0.220794 -2.434 
-1.2085 -0.222245 -2.45 
-1.21393 -0.225148 -2.482 
-1.21132 -0.226599 -2.498 
-1.21676 -0.229593 -2.531 
-1.21429 -0.231135 -2.548 
-1.21971 -0.234219 -2.582 
-1.22579 -0.237485 -2.618 
-1.22321 -0.239118 -2.636 
-1.22922 -0.242474 -2.673 
-1.21806 -0.242474 -2.673 
-1.21547 -0.244197 -2.692 
-1.21273 -0.245921 -2.711 
-1.20983 -0.247645 -2.73 
-1.20722 -0.249459 -2.75 
-1.19573 -0.249459 -2.75 
-1.19286 -0.251273 -2.77 
-1.18983 -0.253087 -2.79 
-1.18662 -0.254902 -2.81 
-1.17489 -0.254902 -2.81 
-1.17185 -0.256806 -2.831 
-1.16864 -0.258711 -2.852 
-1.16565 -0.260707 -2.874 
-1.15365 -0.260707 -2.874 
-1.14999 -0.262612 -2.895 
-1.14694 -0.264698 -2.918 
-1.13476 -0.264698 -2.918 
-1.13104 -0.266694 -2.94 
-1.12752 -0.26878 -2.963 
-1.11515 -0.26878 -2.963 
-1.11133 -0.270867 -2.986 
-1.10733 -0.272953 -3.009 
-1.1035 -0.27513 -3.033 
-1.09084 -0.27513 -3.033 
-1.08706 -0.277398 -3.058 
-1.08272 -0.279575 -3.082 
-1.07853 -0.281843 -3.107 
-1.06556 -0.281843 -3.107 
-1.06139 -0.284202 -3.133 
-1.04831 -0.284202 -3.133 
-1.02664 -0.281843 -3.107 
-1.01367 -0.281843 -3.107 
-0.992643 -0.279575 -3.082 
-0.979774 -0.279575 -3.082 
-0.959376 -0.277398 -3.058 
-0.938869 -0.27513 -3.033 
-0.918876 -0.272953 -3.009 
-0.906313 -0.272953 -3.009 
-0.893749 -0.272953 -3.009 
-0.888214 -0.27513 -3.033 
-0.87555 -0.27513 -3.033 
-0.862886 -0.27513 -3.033 
-0.85723 -0.277398 -3.058 
-0.85109 -0.279575 -3.082 
-0.845021 -0.281843 -3.107 
-0.839011 -0.284202 -3.133 
-0.825929 -0.284202 -3.133 
-0.826339 -0.288919 -3.185 
-0.81304 -0.288919 -3.185 
-0.799742 -0.288919 -3.185 
-0.79311 -0.291368 -3.212 
-0.779699 -0.291368 -3.212 
-0.766288 -0.291368 -3.212 
-0.752877 -0.291368 -3.212 
-0.745681 -0.293817 -3.239 
-0.726054 -0.291368 -3.212 
-0.712643 -0.291368 -3.212 
-0.693354 -0.288919 -3.185 
-0.680055 -0.288919 -3.185 
-0.666757 -0.288919 -3.185 
-0.648124 -0.28656 -3.159 
-0.634934 -0.28656 -3.159 
-0.616627 -0.284202 -3.133 
-0.603545 -0.284202 -3.133 
-0.590464 -0.284202 -3.133 
-0.577383 -0.284202 -3.133 
-0.564301 -0.284202 -3.133 
-0.55122 -0.284202 -3.133 
-0.538139 -0.284202 -3.133 
-0.525057 -0.284202 -3.133 
-0.507727 -0.281843 -3.107 
-0.494754 -0.281843 -3.107 
-0.481781 -0.281843 -3.107 
-0.468808 -0.281843 -3.107 
-0.455836 -0.281843 -3.107 
-0.439299 -0.279575 -3.082 
-0.426431 -0.279575 -3.082 
-0.413562 -0.279575 -3.082 
-0.400694 -0.279575 -3.082 
-0.387826 -0.279575 -3.082 
-0.372037 -0.277398 -3.058 
-0.359269 -0.277398 -3.058 
-0.346501 -0.277398 -3.058 
-0.331004 -0.27513 -3.033 
-0.31834 -0.27513 -3.033 
-0.305676 -0.27513 -3.033 
-0.293013 -0.27513 -3.033 
-0.280349 -0.27513 -3.033 
-0.267685 -0.27513 -3.033 
-0.257123 -0.277398 -3.058 
-0.244355 -0.277398 -3.058 
-0.231587 -0.277398 -3.058 
-0.218818 -0.277398 -3.058 
-0.20605 -0.277398 -3.058 
-0.194799 -0.279575 -3.082 
-0.18193 -0.279575 -3.082 
-0.169062 -0.279575 -3.082 
-0.156193 -0.279575 -3.082 
-0.143325 -0.279575 -3.082 
-0.129441 -0.277398 -3.058 
-0.116672 -0.277398 -3.058 
-0.103904 -0.277398 -3.058 
-0.0911358 -0.277398 -3.058 
-0.0777269 -0.27513 -3.033 
-0.0650631 -0.27513 -3.033 
-0.0523992 -0.27513 -3.033 
-0.0394209 -0.272953 -3.009 
-0.0268573 -0.272953 -3.009 
-0.0141844 -0.270867 -2.986 
-0.00171673 -0.270867 -2.986 
0.0107509 -0.270867 -2.986 
0.0232185 -0.270867 -2.986 
0.0356861 -0.270867 -2.986 
0.0481537 -0.270867 -2.986 
0.0606214 -0.270867 -2.986 
0.073089 -0.270867 -2.986 
0.0848976 -0.26878 -2.963 
0.0972692 -0.26878 -2.963 
0.109641 -0.26878 -2.963 
0.121065 -0.266694 -2.94 
0.133341 -0.266694 -2.94 
0.145616 -0.266694 -2.94 
0.15671 -0.264698 -2.918 
0.168894 -0.264698 -2.918 
0.179651 -0.262612 -2.895 
0.191738 -0.262612 -2.895 
0.202347 -0.260707 -2.874 
0.214347 -0.260707 -2.874 
0.226347 -0.260707 -2.874 
0.236523 -0.258711 -2.852 
0.248431 -0.258711 -2.852 
0.260339 -0.258711 -2.852 
0.270242 -0.256806 -2.831 
0.282063 -0.256806 -2.831 
0.293883 -0.256806 -2.831 
0.303436 -0.254902 -2.81 
0.295653 -0.239118 -2.636 
0.263392 -0.185416 -2.044 
0.256761 -0.175075 -1.93 
0.260977 -0.172535 -1.902 
0.268919 -0.172535 -1.902 
0.275404 -0.171628 -1.892 
0.280609 -0.169995 -1.874 
0.289819 -0.170811 -1.883 
0.296258 -0.169995 -1.874 
0.305543 -0.170811 -1.883 
0.311907 -0.169995 -1.874 
0.319732 -0.169995 -1.874 
0.325809 -0.169088 -1.864 
0.331981 -0.168271 -1.855 
0.338078 -0.167455 -1.846 
0.342601 -0.165913 -1.829 
0.348515 -0.165096 -1.82 
0.352787 -0.163554 -1.803 
0.358517 -0.162738 -1.794 
0.362743 -0.161286 -1.778 
0.368293 -0.16047 -1.769 
0.373981 -0.159744 -1.761 
0.379601 -0.159019 -1.753 
0.383389 -0.157567 -1.737 
0.390642 -0.157567 -1.737 
0.396062 -0.156842 -1.729 
0.403281 -0.156842 -1.729 
0.4105 -0.156842 -1.729 
0.417719 -0.156842 -1.729 
0.55235 -0.15412 -1.699 
0.559444 -0.15412 -1.699 
0.566538 -0.15412 -1.699 
0.573632 -0.15412 -1.699 
0.580726 -0.15412 -1.699 
0.58782 -0.15412 -1.699 
0.597365 -0.154755 -1.706 
0.610157 -0.156207 -1.722 
0.617347 -0.156207 -1.722 
0.629977 -0.157567 -1.737 
0.6431 -0.159019 -1.753 
0.650419 -0.159019 -1.753 
0.66074 -0.159744 -1.761 
0.668093 -0.159744 -1.761 
0.675446 -0.159744 -1.761 
0.682798 -0.159744 -1.761 
0.690151 -0.159744 -1.761 
0.697504 -0.159744 -1.761 
0.704857 -0.159744 -1.761 
0.71221 -0.159744 -1.761 
0.719562 -0.159744 -1.761 
0.730218 -0.16047 -1.769 
0.737604 -0.16047 -1.769 
0.74878 -0.161286 -1.778 
3.4745 -0.693405 -7.644 
3.64311 -0.707556 -7.8 
3.75249 -0.722342 -7.963 
3.86608 -0.737672 -8.132 
4.07317 -0.770419 -8.493 
4.202 -0.787927 -8.686 
4.33683 -0.806251 -8.888 
4.37394 -0.806251 -8.888 
4.51626 -0.825482 -9.1 
4.55426 -0.825482 -9.1 
4.59225 -0.825482 -9.1 
4.63025 -0.825482 -9.1 
4.66825 -0.825482 -9.1 
4.5966 -0.806251 -8.888 
4.5284 -0.787927 -8.686 
4.56467 -0.787927 -8.686 
4.4987 -0.770419 -8.493 
4.43593 -0.753728 -8.309 
4.37539 -0.737672 -8.132 
4.31771 -0.722342 -7.963 
4.0947 -0.679798 -7.494 
3.97018 -0.654126 -7.211 
3.85494 -0.63036 -6.949 
3.74758 -0.608226 -6.705 
3.71082 -0.597794 -6.59 
3.6748 -0.587634 -6.478 
3.64013 -0.577837 -6.37 
3.60686 -0.568403 -6.266 
3.51765 -0.550351 -6.067 
3.4875 -0.541734 -5.972 
3.45832 -0.533388 -5.88 
3.43016 -0.525315 -5.791 
3.40304 -0.517514 -5.705 
3.3764 -0.509894 -5.621 
3.35027 -0.502455 -5.539 
3.32529 -0.495289 -5.46 
3.30087 -0.488304 -5.383 
3.27704 -0.481501 -5.308 
3.25445 -0.47497 -5.236 
3.27632 -0.47497 -5.236 
3.25345 -0.468529 -5.165 
3.27502 -0.468529 -5.165 
3.25255 -0.46227 -5.096 
3.31815 -0.468529 -5.165 
3.33972 -0.468529 -5.165 
3.36128 -0.468529 -5.165 
3.38285 -0.468529 -5.165 
3.40441 -0.468529 -5.165 
3.47308 -0.47497 -5.236 
3.44755 -0.468529 -5.165 
3.46911 -0.468529 -5.165 
3.44405 -0.46227 -5.096 
3.37556 -0.450296 -4.964 
3.31008 -0.438866 -4.838 
3.24837 -0.428071 -4.719 
3.18912 -0.41773 -4.605 
3.17003 -0.412741 -4.55 
3.15188 -0.407933 -4.497 
3.17066 -0.407933 -4.497 
3.18943 -0.407933 -4.497 
3.1704 -0.403125 -4.444 
3.18895 -0.403125 -4.444 
3.13461 -0.393963 -4.343 
3.15275 -0.393963 -4.343 
3.1351 -0.389519 -4.294 
3.11852 -0.385255 -4.247 
3.10155 -0.380992 -4.2 
3.08492 -0.376819 -4.154 
3.06941 -0.372827 -4.11 
3.02123 -0.364936 -4.023 
3.00631 -0.361126 -3.981 
2.9918 -0.357406 -3.94 
2.97771 -0.353778 -3.9 
2.96405 -0.35024 -3.861 
2.95007 -0.346702 -3.822 
2.93654 -0.343255 -3.784 
2.92347 -0.339899 -3.747 
2.91088 -0.336633 -3.711 
2.89799 -0.333368 -3.675 
2.88558 -0.330193 -3.64 
2.90078 -0.330193 -3.64 
2.88874 -0.327109 -3.606 
2.87642 -0.324024 -3.572 
2.86462 -0.321031 -3.539 
2.85255 -0.318037 -3.506 
2.84184 -0.315225 -3.475 
2.83004 -0.312322 -3.443 
2.81964 -0.309601 -3.413 
2.80815 -0.306789 -3.382 
2.79807 -0.304158 -3.353 
2.78775 -0.301528 -3.324 
2.77718 -0.298897 -3.295 
2.76722 -0.296357 -3.267 
2.75703 -0.293817 -3.239 
2.72436 -0.288919 -3.185 
2.71531 -0.28656 -3.159 
2.7285 -0.28656 -3.159 
2.71913 -0.284202 -3.133 
2.70954 -0.281843 -3.107 
2.7006 -0.279575 -3.082 
2.71347 -0.279575 -3.082 
2.70511 -0.277398 -3.058 
2.71788 -0.277398 -3.058 
2.73065 -0.277398 -3.058 
2.74341 -0.277398 -3.058 
2.73365 -0.27513 -3.033 
2.72458 -0.272953 -3.009 
2.71622 -0.270867 -2.986 
2.70767 -0.26878 -2.963 
2.72005 -0.26878 -2.963 
2.71121 -0.266694 -2.94 
2.72348 -0.266694 -2.94 
2.73576 -0.266694 -2.94 
2.72747 -0.264698 -2.918 
2.73965 -0.264698 -2.918 
2.77258 -0.266694 -2.94 
2.78486 -0.266694 -2.94 
2.79714 -0.266694 -2.94 
2.83139 -0.26878 -2.963 
2.86584 -0.270867 -2.986 
2.8783 -0.270867 -2.986 
2.91304 -0.272953 -3.009 
2.9256 -0.272953 -3.009 
2.93816 -0.272953 -3.009 
2.97426 -0.27513 -3.033 
3.01155 -0.277398 -3.058 
3.04805 -0.279575 -3.082 
3.11157 -0.284202 -3.133 
3.15058 -0.28656 -3.159 
3.16377 -0.28656 -3.159 
3.20311 -0.288919 -3.185 
3.24368 -0.291368 -3.212 
-1.58315 -0.157703 -1.662 
-1.56957 -0.157039 -1.655 
-1.55511 -0.15628 -1.647 
-1.54823 -0.15628 -1.647 
-1.5348 -0.155616 -1.64 
-1.53448 -0.15628 -1.647 
-1.51461 -0.154952 -1.633 
-1.5078 -0.154952 -1.633 
-1.50098 -0.154952 -1.633 
-1.49416 -0.154952 -1.633 
-1.48734 -0.154952 -1.633 
-1.48687 -0.155616 -1.64 
-1.48634 -0.15628 -1.647 
-1.47946 -0.15628 -1.647 
-1.47974 -0.157039 -1.655 
-1.47283 -0.157039 -1.655 
-1.47212 -0.157703 -1.662 
-1.47135 -0.158367 -1.669 
-1.47052 -0.159032 -1.676 
-1.46352 -0.159032 -1.676 
-1.46348 -0.159791 -1.684 
-1.4625 -0.160455 -1.691 
-1.45544 -0.160455 -1.691 
-1.45523 -0.161214 -1.699 
-1.45411 -0.161878 -1.706 
-1.45377 -0.162637 -1.714 
-1.44661 -0.162637 -1.714 
-1.44617 -0.163397 -1.722 
-1.44483 -0.164061 -1.729 
-1.43761 -0.164061 -1.729 
-1.43039 -0.164061 -1.729 
-1.42976 -0.16482 -1.737 
-1.42251 -0.16482 -1.737 
-1.41526 -0.16482 -1.737 
-1.408 -0.16482 -1.737 
-1.4072 -0.165579 -1.745 
-1.39992 -0.165579 -1.745 
-1.39901 -0.166338 -1.753 
-1.39805 -0.167097 -1.761 
-1.39069 -0.167097 -1.761 
-1.38962 -0.167856 -1.769 
-1.38224 -0.167856 -1.769 
-1.38185 -0.16871 -1.778 
-1.38061 -0.169469 -1.786 
-1.3793 -0.170228 -1.794 
-1.37869 -0.171082 -1.803 
-1.37725 -0.171842 -1.811 
-1.37649 -0.172696 -1.82 
-1.37566 -0.17355 -1.829 
-1.37476 -0.174403 -1.838 
-1.37303 -0.175163 -1.846 
-1.37864 -0.176871 -1.864 
-1.37821 -0.177819 -1.874 
-1.37697 -0.178673 -1.883 
-1.37565 -0.179527 -1.892 
-1.38148 -0.18133 -1.911 
-1.38069 -0.182279 -1.921 
-1.3791 -0.183133 -1.93 
-1.37815 -0.184082 -1.94 
-1.37711 -0.185031 -1.95 
-1.38301 -0.186929 -1.97 
-1.37478 -0.186929 -1.97 
-1.37349 -0.187878 -1.98 
-1.37281 -0.188921 -1.991 
-1.3645 -0.188921 -1.991 
-1.363 -0.18987 -2.001 
-1.36209 -0.190914 -2.012 
-1.35369 -0.190914 -2.012 
-1.35197 -0.191863 -2.022 
-1.34353 -0.191863 -2.022 
-1.34235 -0.192907 -2.033 
-1.33386 -0.192907 -2.033 
-1.33255 -0.19395 -2.044 
-1.33114 -0.194994 -2.055 
-1.32964 -0.196038 -2.066 
-1.32804 -0.197082 -2.077 
-1.32699 -0.19822 -2.089 
-1.32521 -0.199264 -2.1 
-1.32397 -0.200403 -2.112 
-1.322 -0.201446 -2.123 
-1.32056 -0.202585 -2.135 
-1.31901 -0.203724 -2.147 
-1.31737 -0.204862 -2.159 
-1.31624 -0.206096 -2.172 
-1.31439 -0.207235 -2.184 
-1.31304 -0.208468 -2.197 
-1.3187 -0.21084 -2.222 
-1.31709 -0.212074 -2.235 
-1.31536 -0.213307 -2.248 
-1.31411 -0.214636 -2.262 
-1.31216 -0.215869 -2.275 
-1.31068 -0.217198 -2.289 
-1.30851 -0.218431 -2.302 
-1.31526 -0.221183 -2.331 
-1.30553 -0.221183 -2.331 
-1.30358 -0.222512 -2.345 
-1.30151 -0.22384 -2.359 
-1.29988 -0.225263 -2.374 
-1.29811 -0.226687 -2.389 
-1.28814 -0.226687 -2.389 
-1.28619 -0.22811 -2.404 
-1.27615 -0.22811 -2.404 
-1.26611 -0.22811 -2.404 
-1.25608 -0.22811 -2.404 
-1.24604 -0.22811 -2.404 
-1.236 -0.22811 -2.404 
-1.22596 -0.22811 -2.404 
-1.22351 -0.229533 -2.419 
-1.21341 -0.229533 -2.419 
-1.21078 -0.230957 -2.434 
-1.2085 -0.232475 -2.45 
-1.21393 -0.235511 -2.482 
-1.21132 -0.237029 -2.498 
-1.20906 -0.238642 -2.515 
-1.21429 -0.241774 -2.548 
-1.21971 -0.245 -2.582 
-1.22579 -0.248416 -2.618 
-1.22321 -0.250124 -2.636 
-1.22048 -0.251832 -2.654 
-1.21806 -0.253635 -2.673 
-1.21547 -0.255438 -2.692 
-1.21273 -0.25724 -2.711 
-1.20983 -0.259043 -2.73 
-1.20722 -0.260941 -2.75 
-1.19573 -0.260941 -2.75 
-1.19286 -0.262839 -2.77 
-1.18983 -0.264737 -2.79 
-1.18662 -0.266634 -2.81 
-1.18367 -0.268627 -2.831 
-1.18054 -0.27062 -2.852 
-1.16864 -0.27062 -2.852 
-1.16565 -0.272707 -2.874 
-1.16208 -0.2747 -2.895 
-1.14999 -0.2747 -2.895 
-1.14694 -0.276882 -2.918 
-1.14332 -0.27897 -2.94 
-1.13989 -0.281152 -2.963 
-1.12752 -0.281152 -2.963 
-1.1238 -0.283334 -2.986 
-1.11133 -0.283334 -2.986 
-1.10733 -0.285517 -3.009 
-1.1035 -0.287794 -3.033 
-1.09084 -0.287794 -3.033 
-1.08706 -0.290166 -3.058 
-1.08272 -0.292444 -3.082 
-1.07853 -0.294816 -3.107 
-1.07448 -0.297283 -3.133 
-1.06139 -0.297283 -3.133 
-1.04831 -0.297283 -3.133 
-1.03523 -0.297283 -3.133 
-1.02215 -0.297283 -3.133 
-1.00069 -0.294816 -3.107 
-0.979774 -0.292444 -3.082 
-0.966906 -0.292444 -3.082 
-0.954037 -0.292444 -3.082 
-0.93384 -0.290166 -3.058 
-0.913542 -0.287794 -3.033 
-0.900878 -0.287794 -3.033 
-0.895535 -0.290166 -3.058 
-0.889695 -0.292444 -3.082 
-0.876827 -0.292444 -3.082 
-0.870966 -0.294816 -3.107 
-0.865173 -0.297283 -3.133 
-0.859163 -0.29975 -3.159 
-0.845973 -0.29975 -3.159 
-0.839638 -0.302217 -3.185 
-0.833344 -0.304779 -3.212 
-0.819933 -0.304779 -3.212 
-0.813301 -0.307341 -3.239 
-0.799777 -0.307341 -3.239 
-0.786253 -0.307341 -3.239 
-0.772729 -0.307341 -3.239 
-0.759205 -0.307341 -3.239 
-0.745681 -0.307341 -3.239 
-0.732157 -0.307341 -3.239 
-0.712643 -0.304779 -3.212 
-0.699232 -0.304779 -3.212 
-0.68582 -0.304779 -3.212 
-0.666757 -0.302217 -3.185 
-0.648124 -0.29975 -3.159 
-0.634934 -0.29975 -3.159 
-0.616627 -0.297283 -3.133 
-0.603545 -0.297283 -3.133 
-0.590464 -0.297283 -3.133 
-0.577383 -0.297283 -3.133 
-0.564301 -0.297283 -3.133 
-0.55122 -0.297283 -3.133 
-0.538139 -0.297283 -3.133 
-0.5207 -0.294816 -3.107 
-0.507727 -0.294816 -3.107 
-0.494754 -0.294816 -3.107 
-0.481781 -0.294816 -3.107 
-0.468808 -0.294816 -3.107 
-0.455836 -0.294816 -3.107 
-0.439299 -0.292444 -3.082 
-0.426431 -0.292444 -3.082 
-0.413562 -0.292444 -3.082 
-0.400694 -0.292444 -3.082 
-0.387826 -0.292444 -3.082 
-0.374957 -0.292444 -3.082 
-0.362089 -0.292444 -3.082 
-0.346501 -0.290166 -3.058 
-0.333732 -0.290166 -3.058 
-0.320964 -0.290166 -3.058 
-0.308196 -0.290166 -3.058 
-0.295428 -0.290166 -3.058 
-0.28266 -0.290166 -3.058 
-0.269891 -0.290166 -3.058 
-0.257123 -0.290166 -3.058 
-0.244355 -0.290166 -3.058 
-0.231587 -0.290166 -3.058 
-0.218818 -0.290166 -3.058 
-0.20605 -0.290166 -3.058 
-0.194799 -0.292444 -3.082 
-0.18193 -0.292444 -3.082 
-0.167745 -0.290166 -3.058 
-0.154977 -0.290166 -3.058 
-0.142209 -0.290166 -3.058 
-0.129441 -0.290166 -3.058 
-0.116672 -0.290166 -3.058 
-0.103904 -0.290166 -3.058 
-0.0903908 -0.287794 -3.033 
-0.0777269 -0.287794 -3.033 
-0.0645482 -0.285517 -3.009 
-0.0519846 -0.285517 -3.009 
-0.0391196 -0.283334 -2.986 
-0.026652 -0.283334 -2.986 
-0.0141844 -0.283334 -2.986 
-0.00171673 -0.283334 -2.986 
0.0107509 -0.283334 -2.986 
0.0232185 -0.283334 -2.986 
0.0356861 -0.283334 -2.986 
0.0481537 -0.283334 -2.986 
0.0606214 -0.283334 -2.986 
0.073089 -0.283334 -2.986 
0.0848976 -0.281152 -2.963 
0.0972692 -0.281152 -2.963 
0.109641 -0.281152 -2.963 
0.121065 -0.27897 -2.94 
0.133341 -0.27897 -2.94 
0.145616 -0.27897 -2.94 
0.157892 -0.27897 -2.94 
0.168894 -0.276882 -2.918 
0.179651 -0.2747 -2.895 
0.191738 -0.2747 -2.895 
0.202347 -0.272707 -2.874 
0.214347 -0.272707 -2.874 
0.226347 -0.272707 -2.874 
0.236523 -0.27062 -2.852 
0.248431 -0.27062 -2.852 
0.260339 -0.27062 -2.852 
0.270242 -0.268627 -2.831 
0.282063 -0.268627 -2.831 
0.293883 -0.268627 -2.831 
0.303436 -0.266634 -2.81 
0.295653 -0.250124 -2.636 
