ply
format ascii 1.0
comment pointcloud saved from Realsense Viewer
element vertex 1877
property float32 x
property float32 y
property float32 z
end_header
0.78792 1.57600 0.27983 
0.81873 1.57200 0.27912 
0.84138 1.57600 0.27983 
0.95023 1.59300 0.28284 
1.00096 1.60100 0.28426 
1.00427 1.59300 0.28284 
1.01100 1.58400 0.28125 
1.06662 1.59300 0.28284 
1.08597 1.59700 0.28355 
1.13373 1.58800 0.28196 
1.30177 1.60100 0.28426 
1.32087 1.60900 0.28568 
-1.09203 1.50300 0.26294 
-1.07625 1.49200 0.26102 
-1.04616 1.47700 0.25839 
-0.97959 1.49900 0.26224 
-0.97177 1.49900 0.26224 
-0.96786 1.49900 0.26224 
-0.93998 1.49200 0.26102 
-0.90104 1.49200 0.26102 
-0.85042 1.49200 0.26102 
-0.82485 1.48800 0.26032 
-0.78791 1.49900 0.26224 
-0.71807 1.48400 0.25962 
-0.65864 1.48100 0.25909 
-0.59186 1.48800 0.26032 
-0.57865 1.48400 0.25962 
-0.55303 1.48800 0.26032 
-0.54003 1.49500 0.26154 
-0.52442 1.49500 0.26154 
-0.52052 1.49500 0.26154 
-0.51662 1.49500 0.26154 
-0.50101 1.49500 0.26154 
-0.36191 1.51700 0.26539 
-0.31127 1.52100 0.26609 
-0.24345 1.54400 0.27011 
-0.21524 1.54400 0.27011 
-0.15924 1.54800 0.27081 
-0.13097 1.54800 0.27081 
-0.11451 1.54400 0.27011 
-0.09890 1.55200 0.27151 
-0.00978 1.54800 0.27081 
-0.00572 1.54400 0.27011 
0.06732 1.55600 0.27221 
0.07950 1.55600 0.27221 
0.11664 1.56400 0.27361 
0.14150 1.56800 0.27431 
0.14559 1.56800 0.27431 
0.17787 1.56400 0.27361 
0.19011 1.56400 0.27361 
0.24662 1.56000 0.27291 
0.50414 1.57600 0.27571 
0.63003 1.57200 0.27501 
0.63413 1.57200 0.27501 
0.69744 1.57600 0.27571 
0.71207 1.57200 0.27501 
0.82694 1.57200 0.27501 
0.87840 1.57600 0.27571 
0.92832 1.58400 0.27711 
0.96095 1.59700 0.27939 
0.99089 1.60500 0.28079 
1.07078 1.59300 0.27869 
1.18718 1.59300 0.27869 
1.32498 1.61400 0.28236 
1.37208 1.63500 0.28603 
-1.03845 1.47700 0.25454 
-1.03175 1.48400 0.25575 
-0.99524 1.49900 0.25833 
-0.86224 1.49900 0.25833 
-0.83874 1.49200 0.25712 
-0.82317 1.49200 0.25712 
-0.62195 1.49500 0.25764 
-0.60903 1.49200 0.25712 
-0.59027 1.48400 0.25575 
-0.39571 1.51000 0.26023 
-0.36910 1.51400 0.26092 
-0.27772 1.53300 0.26419 
-0.26693 1.54000 0.26540 
-0.24748 1.54400 0.26609 
-0.12257 1.54400 0.26609 
-0.11077 1.54800 0.26677 
-0.03805 1.54800 0.26677 
0.00234 1.54800 0.26677 
0.06310 1.55200 0.26746 
0.12104 1.56800 0.27022 
0.13365 1.57200 0.27091 
0.14559 1.56800 0.27022 
0.17378 1.56400 0.26953 
0.19011 1.56400 0.26953 
0.22915 1.55200 0.26746 
0.25069 1.56000 0.26884 
0.33140 1.57600 0.27160 
0.34785 1.57600 0.27160 
0.36430 1.57600 0.27160 
0.49876 1.57200 0.27091 
0.72663 1.56800 0.27022 
0.80025 1.57600 0.27160 
0.90124 1.58000 0.27229 
1.02234 1.57600 0.27160 
1.16394 1.58400 0.27298 
1.20568 1.60100 0.27591 
1.22544 1.60500 0.27660 
1.24328 1.60100 0.27591 
-1.10792 1.51400 0.25696 
-1.09421 1.50600 0.25561 
-0.94186 1.49500 0.25374 
-0.88962 1.49900 0.25442 
-0.82317 1.49200 0.25323 
-0.74141 1.49200 0.25323 
-0.72194 1.48400 0.25187 
-0.60903 1.49200 0.25323 
-0.59414 1.48400 0.25187 
-0.55929 1.48400 0.25187 
-0.52191 1.49900 0.25442 
-0.48408 1.50300 0.25510 
-0.31045 1.51700 0.25747 
-0.29539 1.52100 0.25815 
-0.29142 1.52100 0.25815 
-0.28098 1.52900 0.25951 
-0.27699 1.52900 0.25951 
-0.27024 1.53600 0.26070 
-0.16689 1.54400 0.26206 
-0.08720 1.56000 0.26477 
0.04678 1.54800 0.26273 
0.07971 1.56000 0.26477 
0.36842 1.57600 0.26749 
0.42188 1.57600 0.26749 
0.44245 1.57600 0.26749 
0.67586 1.59300 0.27037 
0.68202 1.58800 0.26952 
0.84549 1.57600 0.26749 
0.92832 1.58400 0.26884 
0.98007 1.60100 0.27173 
0.98424 1.60100 0.27173 
0.99429 1.59700 0.27105 
1.07910 1.59300 0.27037 
1.09157 1.59300 0.27037 
1.26835 1.60100 0.27173 
-1.12470 1.51000 0.25234 
-1.12373 1.51400 0.25301 
-1.11582 1.51400 0.25301 
-1.02677 1.48800 0.24867 
-0.98742 1.49900 0.25051 
-0.85441 1.49900 0.25051 
-0.80922 1.49500 0.24984 
-0.79183 1.49900 0.25051 
-0.73554 1.48800 0.24867 
-0.72777 1.48800 0.24867 
-0.64017 1.49200 0.24934 
-0.54284 1.49200 0.24934 
-0.46839 1.50300 0.25117 
-0.44939 1.49200 0.24934 
-0.42489 1.48800 0.24867 
-0.40645 1.50600 0.25168 
-0.39965 1.51000 0.25234 
-0.37994 1.51000 0.25234 
-0.32232 1.51700 0.25351 
-0.31045 1.51700 0.25351 
-0.29142 1.52100 0.25418 
-0.26623 1.53600 0.25669 
-0.21984 1.54800 0.25870 
0.27313 1.57200 0.26271 
0.28689 1.58000 0.26404 
0.34287 1.57200 0.26271 
0.39409 1.58000 0.26404 
0.42600 1.57600 0.26337 
0.43011 1.57600 0.26337 
0.43833 1.57600 0.26337 
0.60437 1.58000 0.26404 
0.66339 1.59300 0.26622 
0.68833 1.59300 0.26622 
0.93896 1.58800 0.26538 
0.96753 1.60100 0.26755 
0.97171 1.60100 0.26755 
0.98007 1.60100 0.26755 
1.00112 1.58800 0.26538 
1.02494 1.58000 0.26404 
1.06247 1.59300 0.26622 
1.11235 1.59300 0.26622 
1.13500 1.58400 0.26471 
1.17102 1.58800 0.26538 
1.18302 1.59300 0.26622 
1.36029 1.62600 0.27173 
-1.01395 1.49200 0.24544 
-0.99915 1.49900 0.24659 
-0.99524 1.49900 0.24659 
-0.92581 1.48800 0.24479 
-0.91944 1.48400 0.24413 
-0.83263 1.49500 0.24594 
-0.81312 1.49500 0.24594 
-0.69541 1.47700 0.24298 
-0.59414 1.48400 0.24413 
-0.57478 1.48400 0.24413 
-0.56316 1.48400 0.24413 
-0.55303 1.48800 0.24479 
-0.52582 1.49900 0.24659 
-0.42489 1.48800 0.24479 
-0.37108 1.50600 0.24775 
-0.21636 1.55200 0.25531 
-0.20368 1.54800 0.25466 
-0.18752 1.54800 0.25466 
-0.18348 1.54800 0.25466 
-0.15641 1.56000 0.25663 
-0.13164 1.55600 0.25597 
-0.11885 1.54800 0.25466 
-0.10701 1.55200 0.25531 
-0.03815 1.55200 0.25531 
0.02658 1.54800 0.25466 
0.15746 1.56400 0.25729 
0.28205 1.57600 0.25926 
0.43011 1.57600 0.25926 
0.46301 1.57600 0.25926 
0.57283 1.58400 0.26058 
0.75310 1.57200 0.25860 
0.89299 1.58000 0.25992 
0.92598 1.58000 0.25992 
0.95023 1.59300 0.26206 
0.98179 1.59700 0.26272 
1.22850 1.60900 0.26469 
-1.09711 1.51000 0.24446 
-1.06457 1.49200 0.24155 
-0.99005 1.50300 0.24333 
-0.97238 1.50600 0.24382 
-0.85833 1.49900 0.24268 
-0.77618 1.49900 0.24268 
-0.72194 1.48400 0.24025 
-0.66564 1.48800 0.24090 
-0.65011 1.48800 0.24090 
-0.62460 1.49200 0.24155 
-0.57091 1.48400 0.24025 
-0.46324 1.49900 0.24268 
-0.44939 1.49200 0.24155 
-0.43265 1.48800 0.24090 
-0.37108 1.50600 0.24382 
-0.34934 1.51400 0.24511 
-0.32628 1.51700 0.24560 
-0.22446 1.55200 0.25126 
-0.20826 1.55200 0.25126 
-0.10701 1.55200 0.25126 
-0.10296 1.55200 0.25126 
0.28205 1.57600 0.25515 
0.37253 1.57600 0.25515 
0.40234 1.58000 0.25580 
0.42708 1.58000 0.25580 
0.43532 1.58000 0.25580 
0.63323 1.58000 0.25580 
0.65923 1.59300 0.25790 
0.93246 1.58400 0.25644 
1.00844 1.58000 0.25580 
1.06247 1.59300 0.25790 
1.07078 1.59300 0.25790 
1.07571 1.58800 0.25709 
1.11847 1.58400 0.25644 
1.14863 1.58000 0.25580 
1.24916 1.61400 0.26130 
1.25337 1.61400 0.26130 
1.31981 1.61800 0.26195 
1.35271 1.62200 0.26260 
-1.13258 1.51000 0.24052 
-1.03175 1.48400 0.23638 
-0.97890 1.51000 0.24052 
-0.90493 1.49200 0.23766 
-0.85441 1.49900 0.23877 
-0.68709 1.48400 0.23638 
-0.64407 1.49200 0.23766 
-0.50491 1.49500 0.23813 
-0.49844 1.49900 0.23877 
-0.48279 1.49900 0.23877 
-0.42489 1.48800 0.23702 
-0.34054 1.51000 0.24052 
-0.30649 1.51700 0.24164 
-0.28098 1.52900 0.24355 
-0.12758 1.55600 0.24785 
0.02665 1.55200 0.24721 
0.08785 1.56000 0.24849 
0.09599 1.56000 0.24849 
0.17741 1.56000 0.24849 
0.19370 1.56000 0.24849 
0.23380 1.55600 0.24785 
0.29850 1.57600 0.25104 
0.30673 1.57600 0.25104 
0.38172 1.58000 0.25167 
0.46712 1.57600 0.25104 
0.47703 1.56800 0.24976 
0.49213 1.56400 0.24912 
0.52603 1.58000 0.25167 
0.57551 1.58000 0.25167 
0.58376 1.58000 0.25167 
0.69249 1.59300 0.25374 
0.74456 1.58000 0.25167 
1.00273 1.58400 0.25231 
1.01257 1.58000 0.25167 
1.02081 1.58000 0.25167 
1.13750 1.57600 0.25104 
1.14161 1.57600 0.25104 
1.17102 1.58800 0.25295 
-1.10893 1.51000 0.23658 
-1.08130 1.49900 0.23486 
-0.99648 1.49500 0.23423 
-0.91804 1.48800 0.23314 
-0.88725 1.49500 0.23423 
-0.77021 1.49500 0.23423 
-0.75850 1.49500 0.23423 
-0.75460 1.49500 0.23423 
-0.73554 1.48800 0.23314 
-0.63239 1.49200 0.23376 
-0.58640 1.48400 0.23251 
-0.55303 1.48800 0.23314 
-0.54673 1.49200 0.23376 
-0.28821 1.52500 0.23893 
-0.28497 1.52900 0.23956 
-0.27772 1.53300 0.24019 
-0.24748 1.54400 0.24191 
-0.20879 1.55600 0.24379 
-0.16905 1.56400 0.24504 
-0.14012 1.56000 0.24442 
-0.10322 1.55600 0.24379 
0.00640 1.55200 0.24316 
0.04296 1.55600 0.24379 
0.05514 1.55600 0.24379 
0.11256 1.56400 0.24504 
0.17378 1.56400 0.24504 
0.29439 1.57600 0.24692 
0.31575 1.58000 0.24755 
0.33963 1.57600 0.24692 
0.37664 1.57600 0.24692 
0.52470 1.57600 0.24692 
0.53293 1.57600 0.24692 
0.54526 1.57600 0.24692 
0.59200 1.58000 0.24755 
0.62911 1.58000 0.24755 
0.63484 1.58400 0.24818 
0.74868 1.58000 0.24755 
0.78579 1.58000 0.24755 
0.79605 1.58400 0.24818 
0.99697 1.58800 0.24880 
1.00526 1.58800 0.24880 
1.03012 1.58800 0.24880 
1.19016 1.59700 0.25021 
1.20869 1.60500 0.25147 
1.28308 1.60900 0.25209 
-1.13076 1.49200 0.22987 
-1.12341 1.50300 0.23156 
-1.06067 1.49200 0.22987 
-1.05006 1.48800 0.22925 
-0.95083 1.50300 0.23156 
-0.90104 1.49200 0.22987 
-0.88335 1.49500 0.23033 
-0.81538 1.49200 0.22987 
-0.74141 1.49200 0.22987 
-0.64407 1.49200 0.22987 
-0.62849 1.49200 0.22987 
-0.58640 1.48400 0.22864 
-0.52052 1.49500 0.23033 
-0.47888 1.49900 0.23095 
-0.30015 1.52500 0.23495 
-0.16905 1.56400 0.24096 
-0.15273 1.56400 0.24096 
-0.12352 1.55600 0.23973 
-0.06261 1.55600 0.23973 
0.04307 1.56000 0.24035 
0.05108 1.55600 0.23973 
0.15377 1.56800 0.24158 
0.17014 1.56800 0.24158 
0.26834 1.56800 0.24158 
0.27243 1.56800 0.24158 
0.27653 1.56800 0.24158 
0.31987 1.58000 0.24343 
0.33637 1.58000 0.24343 
0.56314 1.58000 0.24343 
0.58376 1.58000 0.24343 
0.64887 1.58800 0.24466 
0.71518 1.58800 0.24466 
0.74231 1.58400 0.24404 
0.76518 1.58000 0.24343 
0.85608 1.58800 0.24466 
0.86219 1.58400 0.24404 
0.98348 1.59300 0.24543 
1.11693 1.57600 0.24281 
1.12641 1.57200 0.24219 
1.17931 1.58800 0.24466 
1.23653 1.61400 0.24867 
1.26180 1.61400 0.24867 
1.27989 1.60500 0.24728 
1.34691 1.60500 0.24728 
-1.12773 1.48800 0.22537 
-1.12433 1.49900 0.22704 
-1.04618 1.48800 0.22537 
-1.03842 1.48800 0.22537 
-1.01512 1.48800 0.22537 
-0.98220 1.50300 0.22764 
-0.95475 1.50300 0.22764 
-0.92969 1.48800 0.22537 
-0.77048 1.48800 0.22537 
-0.76087 1.49200 0.22598 
-0.52442 1.49500 0.22643 
-0.50101 1.49500 0.22643 
-0.45030 1.49500 0.22643 
-0.44160 1.49200 0.22598 
-0.41050 1.52100 0.23037 
-0.32004 1.52500 0.23097 
-0.18538 1.56400 0.23688 
-0.13977 1.55600 0.23567 
-0.13570 1.55600 0.23567 
-0.06245 1.55200 0.23506 
-0.01389 1.55600 0.23567 
0.12513 1.56800 0.23749 
0.15786 1.56800 0.23749 
0.17378 1.56400 0.23688 
0.19419 1.56400 0.23688 
0.26425 1.56800 0.23749 
0.31084 1.57600 0.23870 
0.40234 1.58000 0.23930 
0.43532 1.58000 0.23930 
0.45478 1.57600 0.23870 
0.51106 1.57200 0.23809 
0.63070 1.58400 0.23991 
0.63897 1.58400 0.23991 
0.76930 1.58000 0.23930 
0.85392 1.58400 0.23991 
0.93010 1.58000 0.23930 
0.99845 1.59700 0.24188 
1.00262 1.59700 0.24188 
1.02090 1.59300 0.24127 
1.09915 1.58000 0.23930 
-1.09694 1.49900 0.22312 
-1.06671 1.49500 0.22253 
-1.04618 1.48800 0.22149 
-1.03453 1.48800 0.22149 
-0.76660 1.48800 0.22149 
-0.76087 1.49200 0.22208 
-0.72969 1.48400 0.22089 
-0.65575 1.49200 0.22208 
-0.60351 1.48800 0.22149 
-0.52052 1.49500 0.22253 
-0.47106 1.49900 0.22312 
-0.44249 1.49500 0.22253 
-0.42610 1.50600 0.22417 
-0.40256 1.52100 0.22640 
-0.39754 1.51700 0.22580 
-0.36322 1.50600 0.22417 
-0.34842 1.51000 0.22476 
-0.27898 1.54000 0.22923 
-0.18538 1.56400 0.23280 
-0.14419 1.56000 0.23220 
-0.13570 1.55600 0.23161 
-0.13164 1.55600 0.23161 
-0.07460 1.55200 0.23101 
-0.07055 1.55200 0.23101 
0.05935 1.56000 0.23220 
0.17057 1.57200 0.23399 
0.19060 1.56800 0.23339 
0.29364 1.57200 0.23399 
0.34874 1.58000 0.23518 
0.41471 1.58000 0.23518 
0.46594 1.57200 0.23399 
0.52059 1.57600 0.23459 
0.53978 1.57200 0.23399 
0.68031 1.58400 0.23578 
0.77342 1.58000 0.23518 
0.83798 1.59300 0.23712 
0.85193 1.58800 0.23637 
0.87045 1.58400 0.23578 
1.03753 1.59300 0.23712 
1.05831 1.59300 0.23712 
1.07571 1.58800 0.23637 
1.15627 1.56800 0.23339 
1.23959 1.61800 0.24084 
1.25648 1.61800 0.24084 
1.26733 1.60500 0.23890 
1.27252 1.60100 0.23831 
-1.01626 1.48400 0.21702 
-1.01239 1.48400 0.21702 
-0.99690 1.48400 0.21702 
-0.99303 1.48400 0.21702 
-0.97959 1.49900 0.21921 
-0.97436 1.50300 0.21980 
-0.87533 1.48800 0.21760 
-0.84264 1.49200 0.21819 
-0.78003 1.48400 0.21702 
-0.56230 1.49200 0.21819 
-0.54393 1.49500 0.21863 
-0.53365 1.49900 0.21921 
-0.44249 1.49500 0.21863 
-0.43976 1.49900 0.21921 
-0.37994 1.51000 0.22082 
-0.34934 1.51400 0.22141 
-0.25553 1.54400 0.22579 
-0.17314 1.56400 0.22872 
-0.11946 1.55600 0.22755 
-0.07865 1.55200 0.22696 
-0.06261 1.55600 0.22755 
0.01864 1.56000 0.22813 
0.10006 1.56000 0.22813 
0.12104 1.56800 0.22930 
0.20644 1.56400 0.22872 
0.24441 1.57200 0.22989 
0.27313 1.57200 0.22989 
0.35286 1.58000 0.23106 
0.46884 1.56800 0.22930 
0.47293 1.56800 0.22930 
0.62499 1.58000 0.23106 
0.69684 1.58400 0.23164 
0.76518 1.58000 0.23106 
0.91309 1.57200 0.22989 
1.01436 1.60900 0.23530 
1.02275 1.60900 0.23530 
1.04168 1.59300 0.23296 
1.11659 1.56400 0.22872 
1.15037 1.56000 0.22813 
-1.11908 1.49200 0.21429 
-1.09303 1.49900 0.21530 
-1.07061 1.49500 0.21473 
-1.03175 1.48400 0.21315 
-0.94967 1.49500 0.21473 
-0.93608 1.49200 0.21429 
-0.90783 1.48400 0.21315 
-0.77616 1.48400 0.21315 
-0.75698 1.49200 0.21429 
-0.44639 1.49500 0.21473 
-0.41446 1.52100 0.21846 
-0.41158 1.52500 0.21903 
-0.26024 1.54800 0.22234 
-0.20119 1.56000 0.22406 
-0.09485 1.55200 0.22291 
-0.00577 1.55600 0.22349 
0.04318 1.56400 0.22464 
0.05951 1.56400 0.22464 
0.11256 1.56400 0.22464 
0.12073 1.56400 0.22464 
0.17101 1.57600 0.22636 
0.23621 1.57200 0.22579 
0.30595 1.57200 0.22579 
0.32400 1.58000 0.22693 
0.36842 1.57600 0.22636 
0.38076 1.57600 0.22636 
0.56870 1.58400 0.22751 
0.75281 1.58000 0.22693 
0.76105 1.58000 0.22693 
0.87872 1.58400 0.22751 
0.95726 1.58400 0.22751 
1.00176 1.60900 0.23110 
1.02172 1.61400 0.23182 
1.02593 1.61400 0.23182 
1.12017 1.55200 0.22291 
1.14336 1.55600 0.22349 
1.25684 1.59700 0.22938 
1.27448 1.59300 0.22880 
-1.12384 1.48800 0.20984 
-0.98670 1.49200 0.21040 
-0.92581 1.48800 0.20984 
-0.87144 1.48800 0.20984 
-0.86368 1.48800 0.20984 
-0.85591 1.48800 0.20984 
-0.84814 1.48800 0.20984 
-0.83874 1.49200 0.21040 
-0.76660 1.48800 0.20984 
-0.75107 1.48800 0.20984 
-0.72048 1.48100 0.20885 
-0.65964 1.49200 0.21040 
-0.59027 1.48400 0.20927 
-0.56856 1.48800 0.20984 
-0.46200 1.49500 0.21082 
-0.32172 1.53300 0.21618 
-0.30712 1.54000 0.21717 
-0.28043 1.54800 0.21830 
-0.16455 1.56000 0.21999 
-0.15641 1.56000 0.21999 
-0.14419 1.56000 0.21999 
-0.05043 1.55600 0.21943 
0.03502 1.56400 0.22055 
0.08399 1.56400 0.22055 
0.15455 1.57600 0.22225 
0.18746 1.57600 0.22225 
0.20339 1.57200 0.22168 
0.27313 1.57200 0.22168 
0.28954 1.57200 0.22168 
0.29774 1.57200 0.22168 
0.39721 1.57600 0.22225 
0.46301 1.57600 0.22225 
0.54388 1.57200 0.22168 
0.71982 1.58000 0.22281 
0.72807 1.58000 0.22281 
0.79192 1.58400 0.22338 
0.85392 1.58400 0.22338 
0.89299 1.58000 0.22281 
1.01330 1.61400 0.22761 
1.07157 1.58800 0.22394 
1.22125 1.60500 0.22634 
1.22850 1.60900 0.22690 
1.24529 1.60900 0.22690 
1.24746 1.60100 0.22577 
1.32178 1.60500 0.22634 
1.32769 1.59700 0.22521 
-1.13631 1.48400 0.20540 
-1.13244 1.48400 0.20540 
-1.08890 1.48800 0.20595 
-1.08231 1.49500 0.20692 
-1.07451 1.49500 0.20692 
-1.01532 1.47700 0.20443 
-0.85203 1.48800 0.20595 
-0.83653 1.49500 0.20692 
-0.83263 1.49500 0.20692 
-0.77048 1.48800 0.20595 
-0.69096 1.48400 0.20540 
-0.64407 1.49200 0.20651 
-0.63458 1.48800 0.20595 
-0.61516 1.48800 0.20595 
-0.59027 1.48400 0.20540 
-0.58021 1.48800 0.20595 
-0.53115 1.50300 0.20803 
-0.50779 1.49200 0.20651 
-0.46590 1.49500 0.20692 
-0.41733 1.51700 0.20997 
-0.40546 1.51700 0.20997 
-0.35493 1.52100 0.21052 
-0.34392 1.52500 0.21108 
-0.18083 1.56000 0.21592 
-0.14012 1.56000 0.21592 
-0.12758 1.55600 0.21537 
-0.08270 1.55200 0.21481 
-0.06650 1.55200 0.21481 
0.03910 1.56400 0.21647 
0.05542 1.56400 0.21647 
0.06767 1.56400 0.21647 
0.07583 1.56400 0.21647 
0.17144 1.58000 0.21869 
0.22447 1.57600 0.21813 
0.23329 1.58000 0.21869 
0.26082 1.57200 0.21758 
0.26903 1.57200 0.21758 
0.46301 1.57600 0.21813 
0.53978 1.57200 0.21758 
0.56726 1.58000 0.21869 
0.63323 1.58000 0.21869 
0.68336 1.57200 0.21758 
0.91076 1.56800 0.21703 
0.99089 1.60500 0.22215 
1.03535 1.60900 0.22270 
1.11251 1.56400 0.21647 
1.19589 1.58800 0.21980 
1.31013 1.60100 0.22159 
1.31848 1.60100 0.22159 
-1.11608 1.48800 0.20207 
-1.08014 1.49200 0.20261 
-1.02303 1.47700 0.20058 
-0.82532 1.50300 0.20411 
-0.69343 1.48100 0.20112 
-0.54400 1.50600 0.20452 
-0.53614 1.50600 0.20452 
-0.47497 1.49900 0.20356 
-0.38782 1.51000 0.20506 
-0.31917 1.54000 0.20913 
-0.29180 1.54400 0.20968 
-0.27711 1.55200 0.21076 
-0.23196 1.54800 0.21022 
-0.10322 1.55600 0.21131 
0.07175 1.56400 0.21239 
0.15455 1.57600 0.21402 
0.16689 1.57600 0.21402 
0.21625 1.57600 0.21402 
0.23741 1.58000 0.21456 
0.24915 1.57600 0.21402 
0.26903 1.57200 0.21348 
0.29364 1.57200 0.21348 
0.32400 1.58000 0.21456 
0.36111 1.58000 0.21456 
0.40543 1.57600 0.21402 
0.42600 1.57600 0.21402 
0.62911 1.58000 0.21456 
0.75310 1.57200 0.21348 
0.89668 1.57200 0.21348 
0.90844 1.56400 0.21239 
0.91252 1.56400 0.21239 
1.03270 1.61800 0.21973 
1.05263 1.59700 0.21687 
1.05415 1.59300 0.21633 
1.07571 1.58800 0.21565 
1.11282 1.57600 0.21402 
1.20003 1.58800 0.21565 
1.21517 1.59700 0.21687 
1.32352 1.59700 0.21687 
-1.13076 1.49200 0.19872 
-1.09150 1.48100 0.19726 
-0.94910 1.48800 0.19819 
-0.92719 1.48400 0.19766 
-0.91372 1.48100 0.19726 
-0.89621 1.48400 0.19766 
-0.84653 1.49200 0.19872 
-0.84043 1.49500 0.19912 
-0.60513 1.49200 0.19872 
-0.59574 1.48800 0.19819 
-0.57788 1.49200 0.19872 
-0.54007 1.50600 0.20059 
-0.49844 1.49900 0.19965 
-0.49321 1.49500 0.19912 
-0.43117 1.51000 0.20112 
-0.41337 1.51700 0.20205 
-0.38782 1.51000 0.20112 
-0.23196 1.54800 0.20618 
-0.16455 1.56000 0.20778 
-0.15601 1.55600 0.20725 
-0.09104 1.55600 0.20725 
0.00643 1.56000 0.20778 
0.01050 1.56000 0.20778 
0.06359 1.56400 0.20831 
0.23388 1.58400 0.21097 
0.26492 1.57200 0.20938 
0.32400 1.58000 0.21044 
0.42295 1.58000 0.21044 
0.42708 1.58000 0.21044 
0.45067 1.57600 0.20991 
0.47124 1.57600 0.20991 
0.50286 1.57200 0.20938 
0.66695 1.57200 0.20938 
0.67105 1.57200 0.20938 
0.70745 1.58000 0.21044 
0.77969 1.57600 0.20991 
0.78992 1.58000 0.21044 
0.91660 1.56400 0.20831 
0.92713 1.56800 0.20884 
1.05263 1.59700 0.21271 
1.13002 1.56000 0.20778 
1.13118 1.55600 0.20725 
1.14336 1.55600 0.20725 
1.20417 1.58800 0.21151 
1.26315 1.58400 0.21097 
1.27555 1.58400 0.21097 
-1.13076 1.49200 0.19483 
-1.11219 1.48800 0.19431 
-1.09537 1.48100 0.19339 
-1.06273 1.48400 0.19378 
-1.05672 1.48100 0.19339 
-1.00667 1.47000 0.19195 
-0.97366 1.48400 0.19378 
-0.96075 1.48800 0.19431 
-0.93881 1.48400 0.19378 
-0.87379 1.49200 0.19483 
-0.86989 1.49200 0.19483 
-0.84433 1.49500 0.19522 
-0.83486 1.49900 0.19574 
-0.82532 1.50300 0.19626 
-0.80356 1.49900 0.19574 
-0.79202 1.49200 0.19483 
-0.76067 1.48400 0.19378 
-0.64407 1.49200 0.19483 
-0.63069 1.48800 0.19431 
-0.57124 1.49500 0.19522 
-0.54544 1.51000 0.19718 
-0.51938 1.50300 0.19626 
-0.48671 1.49900 0.19574 
-0.20526 1.56000 0.20371 
-0.07480 1.55600 0.20318 
-0.05043 1.55600 0.20318 
0.05542 1.56400 0.20423 
0.09145 1.55200 0.20266 
0.09955 1.55200 0.20266 
0.17923 1.57600 0.20580 
0.19980 1.57600 0.20580 
0.28954 1.57200 0.20527 
0.29289 1.56800 0.20475 
0.45478 1.57600 0.20580 
0.47535 1.57600 0.20580 
0.48769 1.57600 0.20580 
0.49591 1.57600 0.20580 
0.52204 1.56800 0.20475 
0.52613 1.56800 0.20475 
0.64397 1.57600 0.20580 
0.70977 1.57600 0.20580 
0.75310 1.57200 0.20527 
0.75720 1.57200 0.20527 
0.82498 1.58400 0.20684 
0.89485 1.57600 0.20580 
0.92304 1.56800 0.20475 
1.06247 1.59300 0.20802 
1.10871 1.57600 0.20580 
1.13292 1.56400 0.20423 
1.28381 1.58400 0.20684 
1.30774 1.59300 0.20802 
1.33268 1.59300 0.20802 
-1.11908 1.49200 0.19093 
-1.07604 1.48100 0.18953 
-0.99018 1.47400 0.18863 
-0.97169 1.48100 0.18953 
-0.96204 1.48400 0.18991 
-0.85821 1.49200 0.19093 
-0.85042 1.49200 0.19093 
-0.74718 1.48800 0.19042 
-0.69729 1.48100 0.18953 
-0.65787 1.48800 0.19042 
-0.63628 1.49200 0.19093 
-0.61681 1.49200 0.19093 
-0.59345 1.49200 0.19093 
-0.58566 1.49200 0.19093 
-0.55186 1.50600 0.19273 
-0.52435 1.50600 0.19273 
-0.52042 1.50600 0.19273 
-0.51154 1.50300 0.19234 
-0.42441 1.51400 0.19375 
-0.41256 1.51400 0.19375 
-0.34015 1.54400 0.19759 
-0.30791 1.54400 0.19759 
-0.22446 1.55200 0.19861 
-0.20526 1.56000 0.19964 
-0.16007 1.55600 0.19912 
-0.00171 1.55600 0.19912 
0.05935 1.56000 0.19964 
0.08335 1.55200 0.19861 
0.21734 1.58400 0.20271 
0.24566 1.58000 0.20220 
0.26492 1.57200 0.20117 
0.30108 1.56800 0.20066 
0.31906 1.57600 0.20168 
0.44245 1.57600 0.20168 
0.46831 1.58000 0.20220 
0.50286 1.57200 0.20117 
0.51106 1.57200 0.20117 
0.51385 1.56800 0.20066 
0.55068 1.56800 0.20066 
0.73669 1.57200 0.20117 
0.83115 1.58000 0.20220 
0.85372 1.57600 0.20168 
0.87679 1.58800 0.20322 
0.89849 1.56800 0.20066 
0.90436 1.56400 0.20015 
0.90844 1.56400 0.20015 
0.98842 1.60100 0.20488 
1.17563 1.57200 0.20117 
1.23291 1.59300 0.20386 
1.26201 1.59300 0.20386 
1.26634 1.58800 0.20322 
1.28381 1.58400 0.20271 
1.32852 1.59300 0.20386 
-1.07991 1.48100 0.18566 
-0.86600 1.49200 0.18704 
-0.81921 1.49900 0.18792 
-0.78191 1.49500 0.18742 
-0.74919 1.49200 0.18704 
-0.73362 1.49200 0.18704 
-0.67341 1.48800 0.18654 
-0.50604 1.51000 0.18930 
-0.45663 1.50300 0.18842 
-0.42046 1.51400 0.18980 
-0.40861 1.51400 0.18980 
-0.23196 1.54800 0.19406 
-0.12824 1.56400 0.19607 
-0.06650 1.55200 0.19456 
-0.01795 1.55600 0.19506 
0.01457 1.56000 0.19556 
0.10360 1.55200 0.19456 
0.15416 1.57200 0.19707 
0.24915 1.57600 0.19757 
0.36935 1.58000 0.19807 
0.39409 1.58000 0.19807 
0.44656 1.57600 0.19757 
0.48357 1.57600 0.19757 
0.49591 1.57600 0.19757 
0.56994 1.57600 0.19757 
0.71389 1.57600 0.19757 
0.72438 1.57200 0.19707 
0.75936 1.56800 0.19657 
0.77361 1.57200 0.19707 
0.77771 1.57200 0.19707 
0.88508 1.58800 0.19908 
0.89112 1.58400 0.19857 
0.91252 1.56400 0.19607 
0.94659 1.58000 0.19807 
1.00262 1.59700 0.20020 
1.03596 1.59700 0.20020 
1.04847 1.59700 0.20020 
1.05263 1.59700 0.20020 
1.07713 1.58400 0.19857 
1.16037 1.56800 0.19657 
1.26617 1.59300 0.19970 
-1.07314 1.47700 0.18131 
-0.96010 1.48100 0.18180 
-0.94980 1.47700 0.18131 
-0.94209 1.47700 0.18131 
-0.91372 1.48100 0.18180 
-0.88697 1.48800 0.18266 
-0.83649 1.48800 0.18266 
-0.75698 1.49200 0.18315 
-0.68690 1.49200 0.18315 
-0.66952 1.48800 0.18266 
-0.58294 1.49500 0.18352 
-0.45481 1.51000 0.18536 
-0.44299 1.51000 0.18536 
-0.35132 1.54000 0.18904 
-0.30310 1.54000 0.18904 
-0.22041 1.55200 0.19051 
-0.10756 1.56000 0.19149 
0.08335 1.55200 0.19051 
0.19519 1.57200 0.19297 
0.28471 1.56800 0.19248 
0.30926 1.56800 0.19248 
0.33140 1.57600 0.19346 
0.38682 1.58400 0.19444 
0.46301 1.57600 0.19346 
0.51106 1.57200 0.19297 
0.63484 1.58400 0.19444 
0.67034 1.58000 0.19395 
0.68857 1.58400 0.19444 
0.69271 1.58400 0.19444 
0.74079 1.57200 0.19297 
0.75310 1.57200 0.19297 
0.82904 1.57600 0.19346 
0.88923 1.58800 0.19493 
1.00011 1.59300 0.19554 
1.04430 1.59700 0.19604 
1.19508 1.57600 0.19346 
1.19919 1.57600 0.19346 
1.23318 1.58800 0.19493 
1.29942 1.59300 0.19554 
-1.08085 1.47700 0.17745 
-1.06928 1.47700 0.17745 
-0.98063 1.47700 0.17745 
-0.96136 1.47700 0.17745 
-0.92479 1.47400 0.17709 
-0.87379 1.49200 0.17925 
-0.85203 1.48800 0.17877 
-0.77021 1.49500 0.17961 
-0.75698 1.49200 0.17925 
-0.70636 1.49200 0.17925 
-0.70247 1.49200 0.17925 
-0.62753 1.49900 0.18009 
-0.54292 1.50300 0.18057 
-0.49651 1.51700 0.18226 
-0.49255 1.51700 0.18226 
-0.37700 1.51400 0.18190 
-0.36173 1.53300 0.18418 
-0.24683 1.54000 0.18502 
-0.17631 1.55600 0.18694 
0.05528 1.56000 0.18742 
0.06750 1.56000 0.18742 
0.28062 1.56800 0.18838 
0.29289 1.56800 0.18838 
0.37348 1.58000 0.18983 
0.44953 1.57200 0.18886 
0.45363 1.57200 0.18886 
0.58080 1.57200 0.18886 
0.59873 1.57600 0.18935 
0.68031 1.58400 0.19031 
0.87679 1.58800 0.19079 
0.90718 1.57600 0.18935 
0.92539 1.57200 0.18886 
1.03427 1.58800 0.19079 
1.08266 1.58000 0.18983 
1.09915 1.58000 0.18983 
1.12674 1.58400 0.19031 
1.14863 1.58000 0.18983 
1.20025 1.57200 0.18886 
1.24538 1.59300 0.19139 
1.24954 1.59300 0.19139 
1.31189 1.59300 0.19139 
1.32021 1.59300 0.19139 
-1.14389 1.49900 0.17618 
-1.09150 1.48100 0.17407 
-1.07699 1.47700 0.17360 
-1.07314 1.47700 0.17360 
-1.06928 1.47700 0.17360 
-0.95171 1.47400 0.17324 
-0.92360 1.46600 0.17230 
-0.83037 1.48400 0.17442 
-0.71169 1.49500 0.17571 
-0.70778 1.49500 0.17571 
-0.48988 1.52100 0.17877 
-0.40942 1.51700 0.17830 
-0.40466 1.51400 0.17795 
-0.39571 1.51000 0.17748 
-0.17225 1.55600 0.18288 
-0.15601 1.55600 0.18288 
-0.12791 1.56000 0.18335 
-0.08698 1.55600 0.18288 
0.00235 1.55600 0.18288 
0.08335 1.55200 0.18241 
0.09550 1.55200 0.18241 
0.09981 1.55600 0.18288 
0.10387 1.55600 0.18288 
0.24915 1.57600 0.18523 
0.39095 1.58400 0.18617 
0.47004 1.57200 0.18476 
0.56152 1.56400 0.18382 
0.61830 1.58400 0.18617 
0.91952 1.57600 0.18523 
1.03012 1.58800 0.18664 
1.14740 1.58400 0.18617 
1.16629 1.57600 0.18523 
1.19204 1.57200 0.18476 
-1.11518 1.49200 0.17147 
-0.91372 1.48100 0.17020 
-0.82483 1.48100 0.17020 
-0.69218 1.49500 0.17181 
-0.67729 1.48800 0.17101 
-0.64709 1.49900 0.17227 
-0.58841 1.49900 0.17227 
-0.55691 1.48800 0.17101 
-0.54783 1.49500 0.17181 
-0.52422 1.51700 0.17434 
-0.52026 1.51700 0.17434 
-0.48591 1.52100 0.17480 
-0.45602 1.51400 0.17399 
-0.45207 1.51400 0.17399 
-0.40466 1.51400 0.17399 
-0.39280 1.51400 0.17399 
-0.36684 1.52100 0.17480 
-0.36078 1.52900 0.17572 
-0.27699 1.52900 0.17572 
-0.20772 1.54800 0.17790 
-0.06229 1.54800 0.17790 
0.10006 1.56000 0.17928 
0.13263 1.56000 0.17928 
0.17423 1.56800 0.18020 
0.19060 1.56800 0.18020 
0.33963 1.57600 0.18112 
0.48645 1.57200 0.18066 
0.55336 1.56400 0.17974 
0.59050 1.57600 0.18112 
0.64058 1.58800 0.18250 
0.79391 1.58800 0.18250 
0.80635 1.58800 0.18250 
0.84961 1.57600 0.18112 
0.89751 1.58800 0.18250 
1.05084 1.58800 0.18250 
1.05792 1.58000 0.18158 
1.22697 1.58000 0.18158 
1.36288 1.61400 0.18549 
-1.13215 1.49900 0.16836 
-1.01034 1.48100 0.16634 
-1.00261 1.48100 0.16634 
-0.98329 1.48100 0.16634 
-0.92552 1.46300 0.16432 
-0.91977 1.46600 0.16465 
-0.88309 1.48800 0.16712 
-0.79981 1.49200 0.16757 
-0.79751 1.49500 0.16791 
-0.76240 1.49500 0.16791 
-0.69218 1.49500 0.16791 
-0.60567 1.50300 0.16881 
-0.58450 1.49900 0.16836 
-0.54673 1.49200 0.16757 
-0.50443 1.52900 0.17173 
-0.44416 1.51400 0.17004 
-0.33123 1.54000 0.17296 
-0.28821 1.52500 0.17128 
-0.24971 1.53300 0.17218 
-0.23016 1.53600 0.17251 
-0.22615 1.53600 0.17251 
-0.09104 1.55600 0.17476 
-0.04625 1.55200 0.17431 
-0.03005 1.55200 0.17431 
-0.01385 1.55200 0.17431 
0.15746 1.56400 0.17566 
0.20696 1.56800 0.17611 
0.26016 1.56800 0.17611 
0.26834 1.56800 0.17611 
0.27723 1.57200 0.17656 
0.30517 1.56800 0.17611 
0.31744 1.56800 0.17611 
0.33877 1.57200 0.17656 
0.40646 1.58000 0.17746 
0.52470 1.57600 0.17701 
0.59050 1.57600 0.17701 
0.78365 1.58400 0.17791 
0.79641 1.59300 0.17892 
0.82912 1.58400 0.17791 
0.88285 1.58400 0.17791 
0.99766 1.57600 0.17701 
1.00844 1.58000 0.17746 
1.16925 1.58000 0.17746 
1.18274 1.57600 0.17701 
1.19204 1.57200 0.17656 
1.24954 1.59300 0.17892 
1.25684 1.59700 0.17937 
1.26518 1.59700 0.17937 
1.28088 1.60100 0.17981 
-1.11352 1.49500 0.16401 
-1.03459 1.47700 0.16203 
-1.01239 1.48400 0.16280 
-1.00077 1.48400 0.16280 
-0.92680 1.45900 0.16006 
-0.91125 1.47700 0.16203 
-0.87533 1.48800 0.16324 
-0.87144 1.48800 0.16324 
-0.84974 1.48400 0.16280 
-0.81875 1.47700 0.16203 
-0.79574 1.49900 0.16445 
-0.79002 1.50300 0.16489 
-0.54915 1.48800 0.16324 
-0.54147 1.49900 0.16445 
-0.43317 1.51700 0.16642 
-0.38095 1.51400 0.16609 
-0.36078 1.52900 0.16774 
-0.31772 1.53300 0.16818 
-0.31372 1.53300 0.16818 
-0.07055 1.55200 0.17026 
-0.02195 1.55200 0.17026 
0.00235 1.55200 0.17026 
0.06750 1.56000 0.17114 
0.07157 1.56000 0.17114 
0.07971 1.56000 0.17114 
0.12073 1.56400 0.17158 
0.18651 1.56800 0.17202 
0.26834 1.56800 0.17202 
0.31335 1.56800 0.17202 
0.43229 1.58400 0.17377 
0.45657 1.56800 0.17202 
0.46884 1.56800 0.17202 
0.56295 1.56800 0.17202 
0.67586 1.59300 0.17476 
0.71982 1.58000 0.17333 
0.74679 1.57600 0.17289 
0.79641 1.59300 0.17476 
0.80888 1.59300 0.17476 
0.83527 1.58000 0.17333 
0.86606 1.57600 0.17289 
0.89112 1.58400 0.17377 
0.95072 1.58000 0.17333 
0.97462 1.57200 0.17246 
0.99355 1.57600 0.17289 
1.06204 1.58000 0.17333 
1.07854 1.58000 0.17333 
1.14740 1.58400 0.17377 
1.15981 1.58400 0.17377 
1.17749 1.58000 0.17333 
1.25369 1.59300 0.17476 
1.26518 1.59700 0.17520 
1.31759 1.60500 0.17608 
-1.10740 1.49200 0.15979 
-0.89826 1.48100 0.15861 
-0.89440 1.48100 0.15861 
-0.89234 1.48400 0.15893 
-0.79939 1.48400 0.15893 
-0.79766 1.48800 0.15936 
-0.73315 1.49900 0.16054 
-0.67267 1.49500 0.16011 
-0.65274 1.50300 0.16096 
-0.56468 1.48800 0.15936 
-0.53756 1.49900 0.16054 
-0.53507 1.50300 0.16096 
-0.52163 1.52100 0.16289 
-0.50443 1.52900 0.16375 
-0.49645 1.52900 0.16375 
-0.34173 1.53300 0.16418 
-0.26364 1.52100 0.16289 
-0.22571 1.53300 0.16418 
-0.14272 1.54400 0.16535 
-0.00171 1.55600 0.16664 
0.21460 1.56400 0.16750 
0.30517 1.56800 0.16792 
0.31663 1.56400 0.16750 
0.32972 1.56800 0.16792 
0.38898 1.57600 0.16878 
0.42402 1.58400 0.16964 
0.68002 1.59300 0.17060 
0.72578 1.58400 0.16964 
0.82707 1.58800 0.17007 
0.89939 1.58400 0.16964 
1.02184 1.58800 0.17007 
1.09091 1.58000 0.16921 
1.11434 1.58400 0.16964 
1.14740 1.58400 0.16964 
1.19811 1.58000 0.16921 
1.21975 1.57600 0.16878 
1.31247 1.60900 0.17232 
-1.13303 1.49500 0.15621 
-1.10740 1.49200 0.15589 
-1.05672 1.48100 0.15474 
-0.98528 1.48400 0.15506 
-0.89969 1.47700 0.15432 
-0.88072 1.48400 0.15506 
-0.81708 1.47400 0.15401 
-0.78217 1.50300 0.15704 
-0.65666 1.50300 0.15704 
-0.63439 1.50600 0.15735 
-0.60688 1.50600 0.15735 
-0.58059 1.49900 0.15662 
-0.55303 1.48800 0.15547 
-0.53756 1.49900 0.15662 
-0.50842 1.52900 0.15976 
-0.40753 1.51000 0.15777 
-0.37477 1.52100 0.15892 
-0.24507 1.52900 0.15976 
-0.20171 1.53300 0.16018 
-0.13833 1.54000 0.16091 
-0.01795 1.55600 0.16258 
0.03078 1.55600 0.16258 
0.04714 1.56000 0.16300 
0.08785 1.56000 0.16300 
0.16195 1.56800 0.16383 
0.32072 1.56400 0.16342 
0.40543 1.57600 0.16467 
0.44056 1.58400 0.16550 
0.44656 1.57600 0.16467 
0.53150 1.58400 0.16550 
0.72347 1.58800 0.16592 
0.72578 1.58400 0.16550 
0.72991 1.58400 0.16550 
0.81508 1.59700 0.16686 
0.84961 1.57600 0.16467 
0.94486 1.58400 0.16550 
1.20330 1.57600 0.16467 
-1.06928 1.47700 0.15047 
-1.06058 1.48100 0.15088 
-1.01209 1.49500 0.15230 
-0.98141 1.48400 0.15118 
-0.96521 1.47700 0.15047 
-0.89584 1.47700 0.15047 
-0.89198 1.47700 0.15047 
-0.87297 1.48400 0.15118 
-0.85979 1.48800 0.15159 
-0.84974 1.48400 0.15118 
-0.82483 1.48100 0.15088 
-0.77618 1.49900 0.15271 
-0.76240 1.49500 0.15230 
-0.74680 1.49500 0.15230 
-0.70373 1.50300 0.15312 
-0.68048 1.49500 0.15230 
-0.63214 1.51000 0.15383 
-0.60688 1.50600 0.15342 
-0.56620 1.49200 0.15200 
-0.48067 1.51700 0.15455 
-0.36876 1.52900 0.15577 
-0.32487 1.52900 0.15577 
-0.31290 1.52900 0.15577 
-0.26364 1.52100 0.15495 
-0.23310 1.52900 0.15577 
-0.22571 1.53300 0.15618 
-0.11134 1.55600 0.15852 
0.04307 1.56000 0.15893 
0.13297 1.56400 0.15933 
0.20184 1.56000 0.15893 
0.20998 1.56000 0.15893 
0.27723 1.57200 0.16015 
0.33381 1.56800 0.15974 
0.39721 1.57600 0.16056 
0.44469 1.58400 0.16137 
0.48235 1.57200 0.16015 
0.53428 1.58000 0.16096 
0.61986 1.58800 0.16178 
0.63845 1.59300 0.16229 
0.72991 1.58400 0.16137 
0.75090 1.57600 0.16056 
0.84764 1.58000 0.16096 
1.09780 1.58400 0.16137 
1.14740 1.58400 0.16137 
1.16273 1.58800 0.16178 
1.18760 1.58800 0.16178 
1.20635 1.58000 0.16096 
1.25369 1.59300 0.16229 
1.27570 1.60500 0.16351 
1.29870 1.61800 0.16483 
-1.12913 1.49500 0.14840 
-1.06928 1.47700 0.14662 
-0.96136 1.47700 0.14662 
-0.94913 1.47000 0.14592 
-0.90354 1.47700 0.14662 
-0.87144 1.48800 0.14771 
-0.85979 1.48800 0.14771 
-0.74290 1.49500 0.14840 
-0.63439 1.50600 0.14949 
-0.56343 1.49500 0.14840 
-0.55452 1.49200 0.14811 
-0.54915 1.48800 0.14771 
-0.53612 1.49500 0.14840 
-0.43309 1.50300 0.14920 
-0.33285 1.52900 0.15178 
-0.24906 1.52900 0.15178 
-0.22971 1.53300 0.15218 
-0.17003 1.53600 0.15247 
-0.14198 1.53600 0.15247 
-0.11885 1.54800 0.15366 
-0.09941 1.56000 0.15486 
-0.07906 1.56000 0.15486 
-0.03825 1.55600 0.15446 
-0.00983 1.55600 0.15446 
0.01045 1.55200 0.15406 
0.03900 1.56000 0.15486 
0.06732 1.55600 0.15446 
0.11228 1.56000 0.15486 
0.14522 1.56400 0.15525 
0.42510 1.58800 0.15763 
0.44469 1.58400 0.15724 
0.49717 1.58000 0.15684 
0.50542 1.58000 0.15684 
0.55477 1.56800 0.15565 
0.59462 1.57600 0.15644 
0.62401 1.58800 0.15763 
0.64473 1.58800 0.15763 
0.67586 1.59300 0.15813 
0.69860 1.58800 0.15763 
0.71518 1.58800 0.15763 
0.74456 1.58000 0.15684 
0.74868 1.58000 0.15684 
0.82342 1.59700 0.15853 
0.92761 1.59700 0.15853 
1.07441 1.58000 0.15684 
1.27570 1.60500 0.15932 
1.28308 1.60900 0.15972 
-1.14244 1.49200 0.14421 
-1.13693 1.49500 0.14450 
-1.13303 1.49500 0.14450 
-1.12297 1.49200 0.14421 
-1.04510 1.49200 0.14421 
-1.03550 1.49500 0.14450 
-0.97169 1.48100 0.14315 
-0.86756 1.48800 0.14382 
-0.81710 1.48100 0.14315 
-0.79592 1.49200 0.14421 
-0.78400 1.49900 0.14489 
-0.78009 1.49900 0.14489 
-0.73165 1.48800 0.14382 
-0.61081 1.50600 0.14556 
-0.60295 1.50600 0.14556 
-0.56494 1.49900 0.14489 
-0.54673 1.49200 0.14421 
-0.54393 1.49500 0.14450 
-0.53612 1.49500 0.14450 
-0.45361 1.50600 0.14556 
-0.21714 1.52900 0.14779 
-0.15370 1.53300 0.14817 
0.10387 1.55600 0.15040 
0.17057 1.57200 0.15194 
0.25005 1.55600 0.15040 
0.35018 1.56800 0.15156 
0.38701 1.56800 0.15156 
0.45182 1.58000 0.15272 
0.46183 1.57200 0.15194 
0.68417 1.59300 0.15397 
0.77951 1.58400 0.15310 
0.84364 1.58800 0.15349 
0.97214 1.56800 0.15156 
0.98442 1.56800 0.15156 
1.06617 1.58000 0.15272 
1.08266 1.58000 0.15272 
1.20003 1.58800 0.15349 
1.33248 1.61800 0.15639 
1.34937 1.61800 0.15639 
-1.13854 1.49200 0.14032 
-1.12913 1.49500 0.14060 
-1.05942 1.47400 0.13863 
-0.99448 1.49200 0.14032 
-0.95751 1.47700 0.13891 
-0.93305 1.48100 0.13928 
-0.92531 1.48100 0.13928 
-0.90599 1.48100 0.13928 
-0.88667 1.48100 0.13928 
-0.84043 1.49500 0.14060 
-0.71612 1.48800 0.13994 
-0.69794 1.49900 0.14098 
-0.68621 1.49900 0.14098 
-0.67267 1.49500 0.14060 
-0.66665 1.49900 0.14098 
-0.63046 1.50600 0.14163 
-0.57037 1.50300 0.14135 
-0.53612 1.49500 0.14060 
-0.49553 1.51400 0.14239 
-0.47326 1.50600 0.14163 
-0.42803 1.49900 0.14098 
-0.39859 1.50600 0.14163 
-0.37373 1.53300 0.14417 
-0.29372 1.53300 0.14417 
-0.14999 1.53600 0.14446 
-0.09534 1.56000 0.14671 
-0.07092 1.56000 0.14671 
0.20184 1.56000 0.14671 
0.26358 1.56400 0.14709 
0.31990 1.56000 0.14671 
0.36748 1.57200 0.14784 
0.37158 1.57200 0.14784 
0.41471 1.58000 0.14859 
0.48357 1.57600 0.14822 
0.55209 1.57200 0.14784 
0.57670 1.57200 0.14784 
0.64973 1.58000 0.14859 
0.67788 1.58800 0.14935 
0.73631 1.58000 0.14859 
0.77342 1.58000 0.14859 
0.84364 1.58800 0.14935 
0.87650 1.58000 0.14859 
0.89112 1.58400 0.14897 
0.96805 1.56800 0.14747 
1.11977 1.58000 0.14859 
1.13626 1.58000 0.14859 
1.14038 1.58000 0.14859 
1.17887 1.59300 0.14982 
1.18718 1.59300 0.14982 
-1.12686 1.49200 0.13642 
-1.06711 1.47400 0.13478 
-1.05772 1.47700 0.13505 
-1.01599 1.49500 0.13670 
-0.89440 1.48100 0.13542 
-0.88280 1.48100 0.13542 
-0.85821 1.49200 0.13642 
-0.79361 1.49500 0.13670 
-0.67447 1.49900 0.13706 
-0.66058 1.50300 0.13743 
-0.49028 1.51000 0.13807 
-0.47719 1.50600 0.13770 
-0.39571 1.51000 0.13807 
-0.37373 1.53300 0.14017 
-0.34173 1.53300 0.14017 
-0.32487 1.52900 0.13981 
-0.29372 1.53300 0.14017 
-0.23709 1.52900 0.13981 
-0.16244 1.54000 0.14081 
-0.15038 1.54000 0.14081 
-0.05056 1.56000 0.14264 
-0.01389 1.55600 0.14228 
0.11170 1.55200 0.14191 
0.13263 1.56000 0.14264 
0.18651 1.56800 0.14337 
0.21350 1.55600 0.14228 
0.22915 1.55200 0.14191 
0.30517 1.56800 0.14337 
0.35836 1.56800 0.14337 
0.43643 1.58400 0.14484 
0.47535 1.57600 0.14411 
0.48357 1.57600 0.14411 
0.62244 1.58400 0.14484 
0.62911 1.58000 0.14447 
0.64148 1.58000 0.14447 
0.64560 1.58000 0.14447 
0.64808 1.57600 0.14411 
0.72347 1.58800 0.14520 
0.86001 1.58000 0.14447 
0.89751 1.58800 0.14520 
0.90865 1.59300 0.14566 
0.92993 1.60100 0.14639 
0.95312 1.58400 0.14484 
0.95484 1.58000 0.14447 
0.97214 1.56800 0.14337 
1.02906 1.58000 0.14447 
1.05380 1.58000 0.14447 
1.06204 1.58000 0.14447 
1.09780 1.58400 0.14484 
1.11434 1.58400 0.14484 
1.12389 1.58000 0.14447 
1.15154 1.58400 0.14484 
1.16273 1.58800 0.14520 
1.18302 1.59300 0.14566 
1.18718 1.59300 0.14566 
1.28707 1.61400 0.14758 
1.33670 1.61800 0.14795 
-1.04330 1.49500 0.13280 
-1.03550 1.49500 0.13280 
-0.83096 1.49200 0.13253 
-0.80931 1.48800 0.13218 
-0.79981 1.49200 0.13253 
-0.70645 1.48400 0.13182 
-0.65491 1.49900 0.13315 
-0.62136 1.50300 0.13351 
-0.61744 1.50300 0.13351 
-0.50210 1.51000 0.13413 
-0.47624 1.50300 0.13351 
-0.45271 1.50300 0.13351 
-0.44486 1.50300 0.13351 
-0.39280 1.51400 0.13449 
-0.17495 1.54400 0.13715 
-0.08334 1.56400 0.13893 
-0.00985 1.56000 0.13857 
0.03117 1.57600 0.13999 
0.12856 1.56000 0.13857 
0.23380 1.55600 0.13822 
0.25883 1.56000 0.13857 
0.39210 1.57200 0.13964 
0.50129 1.58000 0.14035 
0.53016 1.58000 0.14035 
0.64397 1.57600 0.13999 
0.67204 1.58400 0.14070 
0.70924 1.58400 0.14070 
0.84779 1.58800 0.14106 
0.86413 1.58000 0.14035 
0.95821 1.57200 0.13964 
1.11434 1.58400 0.14070 
-1.06038 1.47000 0.12674 
-1.04121 1.49200 0.12864 
-1.02563 1.49200 0.12864 
-0.92051 1.49200 0.12864 
-0.90395 1.48400 0.12795 
-0.77980 1.50600 0.12984 
-0.75662 1.49900 0.12924 
-0.72048 1.48100 0.12769 
-0.62136 1.50300 0.12959 
-0.59116 1.50600 0.12984 
-0.58723 1.50600 0.12984 
-0.42021 1.49900 0.12924 
-0.36244 1.53600 0.13243 
-0.26831 1.52500 0.13148 
-0.26433 1.52500 0.13148 
-0.24906 1.52900 0.13183 
-0.16732 1.54800 0.13347 
-0.16371 1.55200 0.13381 
-0.15924 1.54800 0.13347 
-0.12660 1.54400 0.13312 
-0.09534 1.56000 0.13450 
-0.09127 1.56000 0.13450 
-0.00172 1.56400 0.13485 
0.04362 1.58000 0.13622 
0.14113 1.56400 0.13485 
0.25476 1.56000 0.13450 
0.26766 1.56400 0.13485 
0.41366 1.57600 0.13588 
0.48892 1.58000 0.13622 
0.51083 1.58400 0.13657 
0.55619 1.57200 0.13553 
0.59050 1.57600 0.13588 
0.66042 1.57600 0.13588 
0.76540 1.57200 0.13553 
0.86001 1.58000 0.13622 
0.87017 1.57600 0.13588 
0.96642 1.57200 0.13553 
1.02385 1.57200 0.13553 
1.04436 1.57200 0.13553 
1.12674 1.58400 0.13657 
1.23291 1.59300 0.13735 
1.29870 1.61800 0.13950 
1.33767 1.60900 0.13873 
1.34606 1.60900 0.13873 
1.35446 1.61400 0.13916 
-1.07956 1.47000 0.12290 
-0.98063 1.47700 0.12349 
-0.96136 1.47700 0.12349 
-0.85432 1.49200 0.12474 
-0.83485 1.49200 0.12474 
-0.71083 1.47700 0.12349 
-0.69858 1.49200 0.12474 
-0.64318 1.49900 0.12533 
-0.56758 1.50600 0.12591 
-0.55972 1.50600 0.12591 
-0.42525 1.50300 0.12566 
-0.39675 1.51400 0.12658 
-0.28572 1.53300 0.12817 
-0.22911 1.52900 0.12784 
-0.22512 1.52900 0.12784 
-0.20171 1.53300 0.12817 
-0.04649 1.56000 0.13043 
0.03960 1.58400 0.13244 
0.14150 1.56800 0.13110 
0.33381 1.56800 0.13110 
0.35018 1.56800 0.13110 
0.38291 1.56800 0.13110 
0.47776 1.58400 0.13244 
0.49843 1.58400 0.13244 
0.52736 1.58400 0.13244 
0.56439 1.57200 0.13143 
0.71982 1.58000 0.13210 
0.73891 1.56800 0.13110 
0.83383 1.59300 0.13319 
0.93178 1.59700 0.13352 
0.94011 1.59700 0.13352 
0.98533 1.57600 0.13177 
1.04846 1.57200 0.13143 
1.05936 1.57600 0.13177 
1.17055 1.59300 0.13319 
1.24434 1.59700 0.13352 
1.35026 1.60900 0.13453 
-1.04899 1.49200 0.12085 
-0.96448 1.47000 0.11907 
-0.90395 1.48400 0.12020 
-0.88813 1.47700 0.11964 
-0.84264 1.49200 0.12085 
-0.66877 1.49500 0.12109 
-0.56909 1.51000 0.12231 
-0.53614 1.50600 0.12198 
-0.43309 1.50300 0.12174 
-0.38271 1.52100 0.12320 
-0.36876 1.52900 0.12385 
-0.36477 1.52900 0.12385 
-0.35280 1.52900 0.12385 
-0.32232 1.51700 0.12288 
-0.28972 1.53300 0.12417 
-0.27229 1.52500 0.12352 
-0.17586 1.55200 0.12571 
-0.06278 1.56000 0.12636 
-0.01804 1.56400 0.12668 
0.05200 1.58400 0.12830 
0.06011 1.58000 0.12798 
0.07971 1.56000 0.12636 
0.17832 1.56800 0.12701 
0.18241 1.56800 0.12701 
0.22626 1.56000 0.12636 
0.36338 1.57200 0.12733 
0.62087 1.58000 0.12798 
0.84979 1.58400 0.12830 
0.88062 1.58000 0.12798 
0.95484 1.58000 0.12798 
0.96888 1.57600 0.12765 
1.02795 1.57200 0.12733 
1.08266 1.58000 0.12798 
1.12260 1.58400 0.12830 
1.17055 1.59300 0.12903 
1.18718 1.59300 0.12903 
1.19965 1.59300 0.12903 
1.21212 1.59300 0.12903 
1.33434 1.60500 0.13000 
-1.01147 1.47700 0.11578 
-0.96064 1.47000 0.11523 
-0.95556 1.47400 0.11555 
-0.94387 1.49200 0.11696 
-0.88813 1.47700 0.11578 
-0.85203 1.48800 0.11664 
-0.83096 1.49200 0.11696 
-0.80922 1.49500 0.11719 
-0.77194 1.50600 0.11805 
-0.56909 1.51000 0.11837 
-0.53756 1.51000 0.11837 
-0.48151 1.49500 0.11719 
-0.47888 1.49900 0.11751 
-0.44182 1.50600 0.11805 
-0.39754 1.51700 0.11892 
-0.30093 1.52900 0.11986 
-0.17181 1.55200 0.12166 
-0.13941 1.55200 0.12166 
-0.06278 1.56000 0.12229 
-0.01804 1.56400 0.12260 
0.19929 1.57200 0.12323 
0.34200 1.56800 0.12291 
0.35518 1.57200 0.12323 
0.47897 1.58800 0.12448 
0.49140 1.58800 0.12448 
0.51083 1.58400 0.12417 
0.60437 1.58000 0.12386 
0.60850 1.58000 0.12386 
0.63163 1.57600 0.12354 
0.68684 1.58000 0.12386 
0.69096 1.58000 0.12386 
0.72028 1.57200 0.12323 
0.76363 1.56000 0.12229 
0.93481 1.58800 0.12448 
0.94486 1.58400 0.12417 
0.99446 1.58400 0.12417 
1.02795 1.57200 0.12323 
1.11977 1.58000 0.12386 
1.12674 1.58400 0.12417 
1.17471 1.59300 0.12487 
1.31430 1.60100 0.12550 
-1.06387 1.45900 0.11056 
-1.01147 1.47700 0.11193 
-0.98366 1.47000 0.11140 
-0.95680 1.47000 0.11140 
-0.94387 1.49200 0.11306 
-0.91416 1.48800 0.11276 
-0.88813 1.47700 0.11193 
-0.84653 1.49200 0.11306 
-0.80532 1.49500 0.11329 
-0.74880 1.49900 0.11359 
-0.67447 1.49900 0.11359 
-0.60175 1.50300 0.11390 
-0.42836 1.51400 0.11473 
-0.27157 1.52100 0.11526 
-0.24108 1.52900 0.11587 
-0.16048 1.56000 0.11822 
-0.13164 1.55600 0.11791 
-0.10701 1.55200 0.11761 
-0.03410 1.55200 0.11761 
0.03950 1.58000 0.11973 
0.04373 1.58400 0.12004 
0.06027 1.58400 0.12004 
0.06819 1.57600 0.11943 
0.09599 1.56000 0.11822 
0.19060 1.56800 0.11882 
0.29289 1.56800 0.11882 
0.30108 1.56800 0.11882 
0.53036 1.59300 0.12072 
0.56185 1.58800 0.12034 
0.57014 1.58800 0.12034 
0.63003 1.57200 0.11913 
0.66285 1.57200 0.11913 
0.68098 1.57600 0.11943 
0.77177 1.56000 0.11822 
0.80845 1.58400 0.12004 
0.86796 1.57200 0.11913 
0.95484 1.58000 0.11973 
1.08678 1.58000 0.11973 
1.11564 1.58000 0.11973 
1.11977 1.58000 0.11973 
1.19850 1.59700 0.12102 
1.30177 1.60100 0.12132 
1.31848 1.60100 0.12132 
-0.94387 1.49200 0.10917 
-0.89440 1.48100 0.10837 
-0.82263 1.48400 0.10858 
-0.81708 1.48800 0.10888 
-0.80532 1.49500 0.10939 
-0.80356 1.49900 0.10968 
-0.65491 1.49900 0.10968 
-0.53221 1.50600 0.11019 
-0.48833 1.49200 0.10917 
-0.46933 1.50600 0.11019 
-0.44109 1.51700 0.11100 
-0.41843 1.52100 0.11129 
-0.41446 1.52100 0.11129 
-0.38271 1.52100 0.11129 
-0.36684 1.52100 0.11129 
-0.34212 1.51700 0.11100 
-0.24507 1.52900 0.11188 
-0.10322 1.55600 0.11385 
-0.00993 1.57200 0.11502 
-0.00172 1.57200 0.11502 
0.01058 1.57200 0.11502 
0.04362 1.58000 0.11561 
0.13331 1.56800 0.11473 
0.37569 1.57200 0.11502 
0.41156 1.56800 0.11473 
0.41671 1.57200 0.11502 
0.46536 1.58400 0.11590 
0.48311 1.58800 0.11619 
0.57014 1.58800 0.11619 
0.60850 1.58000 0.11561 
0.94659 1.58000 0.11561 
0.96721 1.58000 0.11561 
0.99697 1.58800 0.11619 
1.31013 1.60100 0.11715 
-1.13169 1.46300 0.10323 
-0.98481 1.46600 0.10344 
-0.89440 1.48100 0.10450 
-0.80532 1.49500 0.10549 
-0.61744 1.50300 0.10605 
-0.55479 1.51400 0.10683 
-0.40362 1.52500 0.10760 
-0.37080 1.52100 0.10732 
-0.22171 1.53300 0.10817 
-0.12320 1.55200 0.10951 
-0.05855 1.55600 0.10979 
-0.04613 1.54800 0.10923 
0.02692 1.56800 0.11064 
0.03930 1.57200 0.11092 
0.08421 1.56800 0.11064 
0.10032 1.56400 0.11036 
0.11694 1.56800 0.11064 
0.29364 1.57200 0.11092 
0.30108 1.56800 0.11064 
0.39620 1.57200 0.11092 
0.42902 1.57200 0.11092 
0.48311 1.58800 0.11205 
0.49843 1.58400 0.11177 
0.75372 1.54800 0.10923 
0.77585 1.56000 0.11007 
0.88251 1.57600 0.11120 
0.98868 1.58800 0.11205 
1.06887 1.58400 0.11177 
1.09637 1.57600 0.11120 
1.20797 1.59300 0.11240 
1.21517 1.59700 0.11269 
1.22767 1.59700 0.11269 
-0.93608 1.49200 0.10138 
-0.89826 1.48100 0.10064 
-0.85042 1.49200 0.10138 
-0.84653 1.49200 0.10138 
-0.81876 1.48400 0.10084 
-0.79965 1.49900 0.10186 
-0.79574 1.49900 0.10186 
-0.78791 1.49900 0.10186 
-0.72389 1.48800 0.10111 
-0.69403 1.49900 0.10186 
-0.62921 1.50300 0.10213 
-0.44739 1.52500 0.10363 
-0.42351 1.52500 0.10363 
-0.29936 1.52100 0.10335 
-0.29142 1.52100 0.10335 
-0.28745 1.52100 0.10335 
-0.26433 1.52500 0.10363 
-0.25704 1.52900 0.10390 
-0.07518 1.56400 0.10628 
0.01461 1.56400 0.10628 
0.02277 1.56400 0.10628 
0.04762 1.57600 0.10709 
0.05585 1.57600 0.10709 
0.10876 1.56800 0.10655 
0.17014 1.56800 0.10655 
0.20287 1.56800 0.10655 
0.33056 1.57200 0.10682 
0.44769 1.58000 0.10736 
0.57014 1.58800 0.10791 
0.58856 1.59300 0.10825 
0.59500 1.58800 0.10791 
0.59914 1.58800 0.10791 
0.60696 1.57600 0.10709 
0.62182 1.57200 0.10682 
0.73106 1.56000 0.10600 
0.73731 1.55600 0.10573 
0.73947 1.55200 0.10546 
0.82284 1.57200 0.10682 
0.85946 1.56400 0.10628 
0.96553 1.58400 0.10763 
0.98868 1.58800 0.10791 
1.02494 1.58000 0.10736 
1.03318 1.58000 0.10736 
1.24746 1.60100 0.10879 
-1.12943 1.47000 0.09605 
-0.97134 1.46300 0.09559 
-0.91170 1.48400 0.09697 
-0.85821 1.49200 0.09749 
-0.78791 1.49900 0.09795 
-0.78009 1.49900 0.09795 
-0.72389 1.48800 0.09723 
-0.68019 1.50300 0.09821 
-0.63535 1.49900 0.09795 
-0.59391 1.50300 0.09821 
-0.56381 1.51700 0.09912 
-0.52828 1.50600 0.09840 
-0.41158 1.52500 0.09965 
-0.34608 1.51700 0.09912 
-0.32959 1.51400 0.09893 
-0.31773 1.51400 0.09893 
-0.24219 1.53600 0.10036 
-0.21771 1.53300 0.10017 
-0.17495 1.54400 0.10089 
-0.15521 1.54800 0.10115 
-0.11946 1.55600 0.10167 
-0.01396 1.56400 0.10219 
0.05585 1.57600 0.10298 
0.06391 1.57200 0.10272 
0.12104 1.56800 0.10246 
0.32236 1.57200 0.10272 
0.45182 1.58000 0.10324 
0.52870 1.58800 0.10376 
0.67105 1.57200 0.10272 
0.68336 1.57200 0.10272 
0.73731 1.55600 0.10167 
0.74137 1.55600 0.10167 
0.75372 1.54800 0.10115 
0.76980 1.55600 0.10167 
0.82664 1.55600 0.10167 
0.88251 1.57600 0.10298 
0.90949 1.58000 0.10324 
1.00526 1.58800 0.10376 
1.12801 1.58000 0.10324 
1.16640 1.59300 0.10409 
1.19134 1.59300 0.10409 
1.26835 1.60100 0.10461 
1.27351 1.59700 0.10435 
1.27864 1.59300 0.10409 
1.29111 1.59300 0.10409 
1.29942 1.59300 0.10409 
-0.95171 1.47400 0.09247 
-0.94134 1.48800 0.09335 
-0.90251 1.48800 0.09335 
-0.88309 1.48800 0.09335 
-0.86989 1.49200 0.09360 
-0.86384 1.49500 0.09378 
-0.79981 1.49200 0.09360 
-0.78581 1.49500 0.09378 
-0.65491 1.49900 0.09404 
-0.56664 1.51400 0.09498 
-0.46729 1.52500 0.09567 
-0.44661 1.53600 0.09636 
-0.42063 1.52900 0.09592 
-0.39065 1.52100 0.09542 
-0.38171 1.51700 0.09516 
-0.23818 1.53600 0.09636 
-0.21371 1.53300 0.09617 
-0.02594 1.54800 0.09711 
0.03502 1.56400 0.09811 
0.05161 1.57200 0.09861 
0.08853 1.57200 0.09861 
0.16605 1.56800 0.09836 
0.19469 1.56800 0.09836 
0.23848 1.56000 0.09786 
0.31825 1.57200 0.09861 
0.38602 1.56400 0.09811 
0.40337 1.56800 0.09836 
0.48189 1.58400 0.09937 
0.49305 1.58000 0.09912 
0.50129 1.58000 0.09912 
0.62843 1.56800 0.09836 
0.66525 1.56800 0.09836 
0.70845 1.56400 0.09811 
0.71253 1.56400 0.09811 
0.72699 1.56000 0.09786 
0.82857 1.55200 0.09736 
0.85946 1.56400 0.09811 
0.88662 1.57600 0.09887 
0.94072 1.58400 0.09937 
0.95312 1.58400 0.09937 
0.95726 1.58400 0.09937 
1.07571 1.58800 0.09962 
