ply
format ascii 1.0
comment pointcloud saved from Realsense Viewer
element vertex 1805
property float32 x
property float32 y
property float32 z
end_header
-1.01702 2.48200 -1.09566 
-1.00666 2.48200 -1.09566 
-0.99229 2.49800 -1.10272 
-0.91504 2.51500 -1.11023 
-0.89972 2.53100 -1.11729 
-0.70591 2.63600 -1.16364 
-0.69965 2.65400 -1.17159 
-0.68234 2.67300 -1.17998 
-0.63545 2.71100 -1.19675 
-0.55621 2.71100 -1.19675 
-0.53357 2.71100 -1.19675 
-0.30306 2.33100 -1.02900 
-0.18893 2.04400 -0.90231 
-0.11092 2.02200 -0.89260 
-0.07213 2.12300 -0.93718 
-0.00149 2.60000 -1.14775 
0.06878 2.81000 -1.24045 
0.11744 2.85200 -1.25899 
0.12935 2.85200 -1.25899 
0.15435 2.87400 -1.26871 
0.23835 2.87400 -1.26871 
0.27435 2.87400 -1.26871 
0.28415 2.85200 -1.25899 
0.30797 2.85200 -1.25899 
0.55804 2.85200 -1.25899 
0.64140 2.85200 -1.25899 
0.76635 2.87400 -1.26871 
0.78430 2.85200 -1.25899 
0.92037 2.83100 -1.24972 
0.96765 2.83100 -1.24972 
1.02246 2.85200 -1.25899 
1.04627 2.85200 -1.25899 
1.05039 2.83100 -1.24972 
1.06221 2.83100 -1.24972 
1.15167 2.79000 -1.23162 
1.31044 2.83100 -1.24972 
1.37112 2.81000 -1.24045 
1.40795 2.79000 -1.23162 
1.48214 2.69200 -1.18836 
1.51792 2.61800 -1.15570 
1.55334 2.46600 -1.08860 
1.71952 2.49800 -1.10272 
1.72923 2.48200 -1.09566 
1.83401 2.38900 -1.05461 
1.84399 2.38900 -1.05461 
1.98364 2.38900 -1.05461 
2.19930 2.49800 -1.10272 
2.30878 2.51500 -1.11023 
2.97985 2.96300 -1.30799 
-1.87022 2.04400 -0.91084 
-1.86168 2.04400 -0.91084 
-1.64972 2.08900 -0.93090 
-1.58793 2.12300 -0.94605 
-1.57899 2.14700 -0.95674 
-1.56077 2.15900 -0.96209 
-1.56110 2.17200 -0.96788 
-1.51390 2.20900 -0.98437 
-1.51306 2.23500 -0.99596 
-1.48152 2.30200 -1.02581 
-1.47191 2.30200 -1.02581 
-1.39170 2.34500 -1.04497 
-1.35254 2.34500 -1.04497 
-1.34274 2.34500 -1.04497 
-1.32121 2.35900 -1.05121 
-1.30809 2.38900 -1.06458 
-1.28619 2.40400 -1.07126 
-1.26391 2.41900 -1.07795 
-1.21640 2.46600 -1.09889 
-1.12667 2.45000 -1.09176 
-1.09598 2.45000 -1.09176 
-0.99630 2.48200 -1.10602 
-0.97143 2.49800 -1.11315 
-0.83129 2.54800 -1.13543 
-0.75614 2.58200 -1.15058 
-0.70591 2.63600 -1.17465 
-0.43875 2.61800 -1.16663 
-0.27715 2.35900 -1.05121 
-0.18331 2.07700 -0.92555 
-0.15563 2.05500 -0.91574 
-0.13128 2.07700 -0.92555 
-0.11646 2.12300 -0.94605 
-0.04205 2.43400 -1.08463 
0.28206 2.83100 -1.26154 
0.30570 2.83100 -1.26154 
0.47119 2.83100 -1.26154 
0.57329 2.81000 -1.25219 
0.64369 2.81000 -1.25219 
0.65542 2.81000 -1.25219 
0.69062 2.81000 -1.25219 
0.71942 2.83100 -1.26154 
0.76101 2.81000 -1.25219 
0.80795 2.81000 -1.25219 
0.82549 2.79000 -1.24327 
0.90704 2.79000 -1.24327 
0.91869 2.79000 -1.24327 
1.03087 2.81000 -1.25219 
1.05433 2.81000 -1.25219 
1.06607 2.81000 -1.25219 
1.07780 2.81000 -1.25219 
1.08953 2.81000 -1.25219 
1.14342 2.77000 -1.23436 
1.15498 2.77000 -1.23436 
1.20124 2.77000 -1.23436 
1.22438 2.77000 -1.23436 
1.24487 2.79000 -1.24327 
1.40047 2.73000 -1.21654 
1.44842 2.69200 -1.19960 
1.53304 2.45000 -1.09176 
1.57395 2.45000 -1.09176 
1.59441 2.45000 -1.09176 
1.62542 2.46600 -1.09889 
1.64601 2.46600 -1.09889 
1.72628 2.43400 -1.08463 
1.73644 2.43400 -1.08463 
1.80654 2.41900 -1.07795 
1.80538 2.40400 -1.07126 
1.81406 2.38900 -1.06458 
1.82404 2.38900 -1.06458 
1.85224 2.37400 -1.05790 
1.88197 2.37400 -1.05790 
1.97118 2.37400 -1.05790 
2.03885 2.41900 -1.07795 
2.06165 2.43400 -1.08463 
2.09566 2.45000 -1.09176 
2.15413 2.48200 -1.10602 
2.24320 2.46600 -1.09889 
2.95672 2.94000 -1.31012 
2.94678 2.91800 -1.30031 
-1.84596 2.05500 -0.92433 
-1.75298 2.07700 -0.93422 
-1.69333 2.08900 -0.93962 
-1.62355 2.08900 -0.93962 
-1.62333 2.10000 -0.94457 
-1.41128 2.34500 -1.05476 
-1.31806 2.38900 -1.07456 
-1.22669 2.46600 -1.10919 
-1.17521 2.46600 -1.10919 
-1.16491 2.46600 -1.10919 
-1.01047 2.46600 -1.10919 
-0.92554 2.51500 -1.13123 
-0.89972 2.53100 -1.13843 
-0.82065 2.54800 -1.14607 
-0.75614 2.58200 -1.16137 
-0.74536 2.58200 -1.16137 
-0.66641 2.65400 -1.19375 
-0.64223 2.69200 -1.21084 
-0.62413 2.71100 -1.21939 
-0.54489 2.71100 -1.21939 
-0.43991 2.69200 -1.21084 
-0.42867 2.69200 -1.21084 
-0.41448 2.67300 -1.20230 
-0.36223 2.61800 -1.17756 
-0.34889 2.60000 -1.16946 
-0.33569 2.58200 -1.16137 
-0.20308 2.19700 -0.98820 
-0.16876 2.11200 -0.94996 
-0.14386 2.13500 -0.96031 
-0.11393 2.24800 -1.01113 
-0.10580 2.27500 -1.02328 
-0.08894 2.33100 -1.04847 
-0.08015 2.35900 -1.06106 
-0.01270 2.67300 -1.20230 
0.05583 2.75000 -1.23693 
0.13819 2.79000 -1.25492 
0.17438 2.81000 -1.26392 
0.18611 2.81000 -1.26392 
0.19784 2.81000 -1.26392 
0.20957 2.81000 -1.26392 
0.31293 2.79000 -1.25492 
0.34787 2.79000 -1.25492 
0.38282 2.79000 -1.25492 
0.46437 2.79000 -1.25492 
0.51096 2.79000 -1.25492 
0.53043 2.77000 -1.24593 
0.57669 2.77000 -1.24593 
0.64609 2.77000 -1.24593 
0.69235 2.77000 -1.24593 
0.76175 2.77000 -1.24593 
0.79644 2.77000 -1.24593 
1.00023 2.79000 -1.25492 
1.09715 2.77000 -1.24593 
1.11220 2.75000 -1.23693 
1.27064 2.77000 -1.24593 
1.30534 2.77000 -1.24593 
1.34184 2.75000 -1.23693 
1.37768 2.73000 -1.22793 
1.37941 2.71100 -1.21939 
1.39073 2.71100 -1.21939 
1.48512 2.61800 -1.17756 
1.51989 2.54800 -1.14607 
1.55404 2.41900 -1.08805 
1.60433 2.43400 -1.09480 
1.70694 2.45000 -1.10199 
1.83549 2.40400 -1.08130 
1.90628 2.33100 -1.04847 
1.94888 2.35900 -1.06106 
1.99361 2.38900 -1.07456 
2.11965 2.46600 -1.10919 
2.23059 2.49800 -1.12358 
2.30360 2.49800 -1.12358 
2.38163 2.54800 -1.14607 
2.62785 2.75000 -1.23693 
-1.89744 2.05500 -0.93291 
-1.83859 2.06600 -0.93790 
-1.74431 2.07700 -0.94289 
-1.70962 2.07700 -0.94289 
-1.62355 2.08900 -0.94834 
-1.61457 2.10000 -0.95333 
-1.57899 2.14700 -0.97467 
-1.51306 2.23500 -1.01462 
-1.49113 2.30200 -1.04504 
-1.47119 2.31600 -1.05139 
-1.44179 2.33100 -1.05820 
-1.32961 2.37400 -1.07772 
-1.31806 2.38900 -1.08453 
-1.29811 2.38900 -1.08453 
-1.27401 2.41900 -1.09815 
-1.24126 2.43400 -1.10496 
-1.23699 2.46600 -1.11949 
-1.22669 2.46600 -1.11949 
-1.15462 2.46600 -1.11949 
-1.05506 2.45000 -1.11222 
-1.02076 2.46600 -1.11949 
-1.00017 2.46600 -1.11949 
-0.97143 2.49800 -1.13401 
-0.89972 2.53100 -1.14899 
-0.88915 2.53100 -1.14899 
-0.87858 2.53100 -1.14899 
-0.83631 2.53100 -1.14899 
-0.71799 2.60000 -1.18032 
-0.70713 2.60000 -1.18032 
-0.69627 2.60000 -1.18032 
-0.65533 2.65400 -1.20483 
-0.64886 2.67300 -1.21346 
-0.60851 2.69200 -1.22208 
-0.54107 2.69200 -1.22208 
-0.50735 2.69200 -1.22208 
-0.43680 2.67300 -1.21346 
-0.37829 2.65400 -1.20483 
-0.25390 2.41900 -1.09815 
-0.14803 2.19700 -0.99737 
-0.12704 2.31600 -1.05139 
-0.07495 2.51500 -1.14173 
0.07879 2.75000 -1.24841 
0.10176 2.75000 -1.24841 
0.25285 2.77000 -1.25749 
0.38882 2.75000 -1.24841 
0.42326 2.75000 -1.24841 
0.49216 2.75000 -1.24841 
0.50364 2.75000 -1.24841 
0.69375 2.73000 -1.23933 
0.80774 2.73000 -1.23933 
0.86473 2.73000 -1.23933 
0.96293 2.75000 -1.24841 
1.28649 2.73000 -1.23933 
1.30928 2.73000 -1.23933 
1.32281 2.71100 -1.23071 
1.34545 2.71100 -1.23071 
1.37123 2.67300 -1.21346 
1.41689 2.65400 -1.20483 
1.50782 2.58200 -1.17215 
1.52245 2.46600 -1.11949 
1.55404 2.41900 -1.09815 
1.57451 2.40400 -1.09134 
1.66530 2.43400 -1.10496 
1.69544 2.41900 -1.09815 
1.73584 2.41900 -1.09815 
1.77709 2.43400 -1.10496 
1.86023 2.35900 -1.07091 
1.93731 2.34500 -1.06456 
2.34460 2.53100 -1.14899 
2.83894 2.89500 -1.31424 
2.87520 2.89500 -1.31424 
-1.95244 2.07700 -0.95157 
-1.94377 2.07700 -0.95157 
-1.88028 2.05500 -0.94149 
-1.84721 2.06600 -0.94653 
-1.73564 2.07700 -0.95157 
-1.68360 2.07700 -0.95157 
-1.66716 2.08900 -0.95706 
-1.65844 2.08900 -0.95706 
-1.59734 2.11200 -0.96760 
-1.57880 2.15900 -0.98913 
-1.56978 2.15900 -0.98913 
-1.52281 2.22200 -1.01800 
-1.51306 2.23500 -1.02395 
-1.48152 2.30200 -1.05465 
-1.46125 2.33100 -1.06793 
-1.43206 2.33100 -1.06793 
-1.41128 2.34500 -1.07435 
-1.40149 2.34500 -1.07435 
-1.39170 2.34500 -1.07435 
-1.34091 2.35900 -1.08076 
-1.32804 2.38900 -1.09451 
-1.25381 2.41900 -1.10825 
-1.24371 2.41900 -1.10825 
-1.24126 2.43400 -1.11512 
-1.21640 2.46600 -1.12978 
-1.18551 2.46600 -1.12978 
-1.17521 2.46600 -1.12978 
-1.05506 2.45000 -1.12245 
-1.02076 2.46600 -1.12978 
-0.92971 2.49800 -1.14444 
-0.79404 2.53100 -1.15956 
-0.76187 2.56500 -1.17514 
-0.74045 2.56500 -1.17514 
-0.70224 2.58200 -1.18293 
-0.63317 2.65400 -1.21591 
-0.42262 2.65400 -1.21591 
-0.40875 2.63600 -1.20767 
-0.27447 2.51500 -1.15223 
-0.22519 2.33100 -1.06793 
-0.18574 2.20900 -1.01204 
-0.00154 2.67300 -1.22462 
0.11242 2.73000 -1.25073 
0.13522 2.73000 -1.25073 
0.14661 2.73000 -1.25073 
0.22640 2.73000 -1.25073 
0.35179 2.73000 -1.25073 
0.40879 2.73000 -1.25073 
0.58998 2.67300 -1.22462 
0.62346 2.67300 -1.22462 
0.66162 2.69200 -1.23332 
0.67286 2.69200 -1.23332 
0.83022 2.69200 -1.23332 
0.88135 2.71100 -1.24203 
0.89267 2.71100 -1.24203 
0.92663 2.71100 -1.24203 
0.94452 2.73000 -1.25073 
1.00152 2.73000 -1.25073 
1.11122 2.69200 -1.23332 
1.17866 2.69200 -1.23332 
1.43047 2.61800 -1.19942 
1.44140 2.61800 -1.19942 
1.46326 2.61800 -1.19942 
1.48512 2.61800 -1.19942 
1.49704 2.58200 -1.18293 
1.52120 2.51500 -1.15223 
1.52135 2.49800 -1.14444 
1.52197 2.48200 -1.13711 
1.55444 2.40400 -1.10138 
1.62470 2.40400 -1.10138 
1.86560 2.40400 -1.10138 
1.86215 2.37400 -1.08763 
1.87206 2.37400 -1.08763 
1.93731 2.34500 -1.07435 
2.22477 2.51500 -1.15223 
2.27728 2.51500 -1.15223 
2.37099 2.54800 -1.16735 
2.67009 2.77000 -1.26906 
2.78486 2.85200 -1.30663 
2.83249 2.85200 -1.30663 
2.85631 2.85200 -1.30663 
-1.97245 2.08900 -0.96579 
-1.94377 2.07700 -0.96024 
-1.91622 2.06600 -0.95515 
-1.85584 2.06600 -0.95515 
-1.77820 2.06600 -0.95515 
-1.66716 2.08900 -0.96579 
-1.64972 2.08900 -0.96579 
-1.60566 2.12300 -0.98150 
-1.54236 2.18400 -1.00970 
-1.50300 2.26200 -1.04577 
-1.42232 2.33100 -1.07767 
-1.39170 2.34500 -1.08414 
-1.34944 2.37400 -1.09755 
-1.30809 2.38900 -1.10448 
-1.27615 2.40400 -1.11142 
-1.26611 2.40400 -1.11142 
-1.20610 2.46600 -1.14008 
-1.12667 2.45000 -1.13268 
-1.11644 2.45000 -1.13268 
-1.03106 2.46600 -1.14008 
-0.97143 2.49800 -1.15487 
-0.96100 2.49800 -1.15487 
-0.94014 2.49800 -1.15487 
-0.82541 2.49800 -1.15487 
-0.81002 2.51500 -1.16273 
-0.75682 2.54800 -1.17799 
-0.68067 2.58200 -1.19371 
-0.65285 2.60000 -1.20203 
-0.63551 2.61800 -1.21035 
-0.62887 2.63600 -1.21867 
-0.58485 2.63600 -1.21867 
-0.54451 2.65400 -1.22699 
-0.48579 2.63600 -1.21867 
-0.41689 2.61800 -1.21035 
-0.35974 2.60000 -1.20203 
-0.32491 2.58200 -1.19371 
-0.31413 2.58200 -1.19371 
-0.14102 2.38900 -1.10448 
0.11085 2.69200 -1.24456 
0.16705 2.69200 -1.24456 
0.23449 2.69200 -1.24456 
0.24573 2.69200 -1.24456 
0.26821 2.69200 -1.24456 
0.29069 2.69200 -1.24456 
0.35813 2.69200 -1.24456 
0.47497 2.65400 -1.22699 
0.61483 2.63600 -1.21867 
0.62584 2.63600 -1.21867 
0.70768 2.65400 -1.22699 
0.76309 2.65400 -1.22699 
0.77417 2.65400 -1.22699 
0.79634 2.65400 -1.22699 
0.81850 2.65400 -1.22699 
0.93138 2.69200 -1.24456 
0.95386 2.69200 -1.24456 
1.09221 2.67300 -1.23578 
1.14802 2.67300 -1.23578 
1.20114 2.69200 -1.24456 
1.29500 2.65400 -1.22699 
1.33209 2.61800 -1.21035 
1.35550 2.60000 -1.20203 
1.38806 2.60000 -1.20203 
1.40978 2.60000 -1.20203 
1.45320 2.60000 -1.20203 
1.50782 2.58200 -1.19371 
1.50861 2.56500 -1.18585 
1.50974 2.53100 -1.17013 
1.53436 2.40400 -1.11142 
1.55487 2.37400 -1.09755 
1.66485 2.40400 -1.11142 
1.84323 2.48200 -1.14748 
1.85359 2.48200 -1.14748 
1.86038 2.45000 -1.13268 
1.87724 2.41900 -1.11835 
1.99101 2.37400 -1.09755 
2.16801 2.49800 -1.15487 
2.20377 2.51500 -1.16273 
2.41341 2.58200 -1.19371 
2.44109 2.60000 -1.20203 
2.67009 2.77000 -1.28062 
2.77618 2.83100 -1.30883 
2.79982 2.83100 -1.30883 
2.82598 2.81000 -1.29912 
-1.90760 2.06600 -0.96378 
-1.89897 2.06600 -0.96378 
-1.83103 2.07700 -0.96891 
-1.76958 2.06600 -0.96378 
-1.72645 2.06600 -0.96378 
-1.69194 2.06600 -0.96378 
-1.58795 2.14700 -1.00156 
-1.57880 2.15900 -1.00716 
-1.54237 2.19700 -1.02489 
-1.43206 2.33100 -1.08740 
-1.41259 2.33100 -1.08740 
-1.30809 2.38900 -1.11446 
-1.29811 2.38900 -1.11446 
-1.28814 2.38900 -1.11446 
-1.23110 2.43400 -1.13545 
-1.21873 2.45000 -1.14291 
-1.15736 2.45000 -1.14291 
-1.10621 2.45000 -1.14291 
-1.09598 2.45000 -1.14291 
-1.06529 2.45000 -1.14291 
-1.04483 2.45000 -1.14291 
-1.03460 2.45000 -1.14291 
-0.95485 2.48200 -1.15784 
-0.88230 2.48200 -1.15784 
-0.83049 2.48200 -1.15784 
-0.74618 2.54800 -1.18863 
-0.73554 2.54800 -1.18863 
-0.69761 2.56500 -1.19656 
-0.66989 2.58200 -1.20449 
-0.62028 2.60000 -1.21289 
-0.59178 2.61800 -1.22128 
-0.55899 2.61800 -1.22128 
-0.52982 2.63600 -1.22968 
-0.48247 2.61800 -1.22128 
-0.44659 2.60000 -1.21289 
-0.30999 2.54800 -1.18863 
-0.27087 2.48200 -1.15784 
-0.18683 2.22200 -1.03655 
-0.15423 2.28900 -1.06781 
-0.05616 2.61800 -1.22128 
-0.02353 2.63600 -1.22968 
0.22010 2.65400 -1.23808 
0.41672 2.63600 -1.22968 
0.74181 2.61800 -1.22128 
0.76367 2.61800 -1.22128 
0.78553 2.61800 -1.22128 
0.79646 2.61800 -1.22128 
0.80739 2.61800 -1.22128 
0.81833 2.61800 -1.22128 
1.12878 2.65400 -1.23808 
1.26175 2.65400 -1.23808 
1.27284 2.65400 -1.23808 
1.30122 2.60000 -1.21289 
1.34611 2.58200 -1.20449 
1.36767 2.58200 -1.20449 
1.49790 2.56500 -1.19656 
1.50861 2.56500 -1.19656 
1.51070 2.51500 -1.17323 
1.51216 2.46600 -1.15038 
1.52281 2.45000 -1.14291 
1.53319 2.43400 -1.13545 
1.60414 2.35900 -1.10046 
1.63416 2.37400 -1.10746 
1.68439 2.38900 -1.11446 
1.77855 2.45000 -1.14291 
1.88084 2.45000 -1.14291 
1.88682 2.33100 -1.08740 
1.94710 2.34500 -1.09393 
2.16801 2.49800 -1.16530 
2.35468 2.56500 -1.19656 
2.46892 2.61800 -1.22128 
2.65082 2.75000 -1.28286 
2.78257 2.79000 -1.30152 
-1.89897 2.06600 -0.97240 
-1.83859 2.06600 -0.97240 
-1.79634 2.07700 -0.97758 
-1.76958 2.06600 -0.97240 
-1.68331 2.06600 -0.97240 
-1.64100 2.08900 -0.98323 
-1.62355 2.08900 -0.98323 
-1.58795 2.14700 -1.01053 
-1.56110 2.17200 -1.02229 
-1.55154 2.19700 -1.03406 
-1.53172 2.23500 -1.05195 
-1.50214 2.27500 -1.07077 
-1.30809 2.38900 -1.12443 
-1.15996 2.43400 -1.14561 
-1.12947 2.43400 -1.14561 
-1.08882 2.43400 -1.14561 
-1.08575 2.45000 -1.15314 
-1.07552 2.45000 -1.15314 
-1.03460 2.45000 -1.15314 
-1.02437 2.45000 -1.15314 
-0.99368 2.45000 -1.15314 
-0.89721 2.46600 -1.16067 
-0.87661 2.46600 -1.16067 
-0.84572 2.46600 -1.16067 
-0.81484 2.46600 -1.16067 
-0.79412 2.49800 -1.17573 
-0.78369 2.49800 -1.17573 
-0.70950 2.53100 -1.19127 
-0.66107 2.54800 -1.19927 
-0.65477 2.56500 -1.20727 
-0.63335 2.56500 -1.20727 
-0.60521 2.58200 -1.21527 
-0.58771 2.60000 -1.22374 
-0.57686 2.60000 -1.22374 
-0.41916 2.56500 -1.20727 
-0.31232 2.48200 -1.16820 
-0.25390 2.41900 -1.13855 
-0.19726 2.23500 -1.05195 
-0.17651 2.20900 -1.03971 
-0.14733 2.33100 -1.09713 
-0.14102 2.38900 -1.12443 
-0.13439 2.45000 -1.15314 
-0.11849 2.54800 -1.19927 
-0.04492 2.60000 -1.22374 
0.00930 2.58200 -1.21527 
0.02008 2.58200 -1.21527 
0.11874 2.61800 -1.23221 
0.12967 2.61800 -1.23221 
0.15153 2.61800 -1.23221 
0.23898 2.61800 -1.23221 
0.24991 2.61800 -1.23221 
0.31333 2.60000 -1.22374 
0.32418 2.60000 -1.22374 
0.33504 2.60000 -1.22374 
0.46209 2.58200 -1.21527 
0.48047 2.56500 -1.20727 
0.57685 2.56500 -1.20727 
0.60898 2.56500 -1.20727 
0.65182 2.56500 -1.20727 
0.81270 2.60000 -1.22374 
0.84527 2.60000 -1.22374 
1.02602 2.61800 -1.23221 
1.06974 2.61800 -1.23221 
1.11347 2.61800 -1.23221 
1.15414 2.63600 -1.24069 
1.25779 2.60000 -1.22374 
1.41222 2.56500 -1.20727 
1.44435 2.56500 -1.20727 
1.55487 2.37400 -1.11737 
1.59429 2.35900 -1.11031 
1.70500 2.40400 -1.13149 
1.76832 2.45000 -1.15314 
1.88734 2.41900 -1.13855 
1.89188 2.37400 -1.11737 
1.89655 2.33100 -1.09713 
1.91601 2.33100 -1.09713 
2.30560 2.58200 -1.21527 
2.31638 2.58200 -1.21527 
2.53195 2.67300 -1.25810 
2.66230 2.75000 -1.29434 
2.75105 2.77000 -1.30376 
2.77419 2.77000 -1.30376 
2.77712 2.75000 -1.29434 
-1.94377 2.07700 -0.98625 
-1.90760 2.06600 -0.98103 
-1.85584 2.06600 -0.98103 
-1.84721 2.06600 -0.98103 
-1.84838 2.07700 -0.98625 
-1.80502 2.07700 -0.98625 
-1.69194 2.06600 -0.98103 
-1.68331 2.06600 -0.98103 
-1.63228 2.08900 -0.99195 
-1.63210 2.10000 -0.99718 
-1.60582 2.13500 -1.01379 
-1.57016 2.17200 -1.03136 
-1.54157 2.20900 -1.04893 
-1.54137 2.22200 -1.05511 
-1.48271 2.28900 -1.08692 
-1.45185 2.31600 -1.09974 
-1.33953 2.37400 -1.12728 
-1.19045 2.43400 -1.15577 
-1.10915 2.43400 -1.15577 
-1.06529 2.45000 -1.16337 
-1.00752 2.43400 -1.15577 
-0.93839 2.46600 -1.17097 
-0.88116 2.45000 -1.16337 
-0.86070 2.45000 -1.16337 
-0.85047 2.45000 -1.16337 
-0.84024 2.45000 -1.16337 
-0.83001 2.45000 -1.16337 
-0.81978 2.45000 -1.16337 
-0.81484 2.46600 -1.17097 
-0.80454 2.46600 -1.17097 
-0.75752 2.51500 -1.19424 
-0.67780 2.53100 -1.20183 
-0.59724 2.54800 -1.20991 
-0.31853 2.45000 -1.16337 
-0.18473 2.19700 -1.04323 
-0.17555 2.19700 -1.04323 
-0.07543 2.53100 -1.20183 
-0.01195 2.51500 -1.19424 
0.00911 2.53100 -1.20183 
0.08365 2.54800 -1.20991 
0.09428 2.54800 -1.20991 
0.10562 2.56500 -1.21798 
0.19257 2.58200 -1.22605 
0.20335 2.58200 -1.22605 
0.26627 2.56500 -1.21798 
0.30911 2.56500 -1.21798 
0.38408 2.56500 -1.21798 
0.40550 2.56500 -1.21798 
0.42692 2.56500 -1.21798 
0.43763 2.56500 -1.21798 
0.50580 2.53100 -1.20183 
0.69006 2.54800 -1.20991 
0.72197 2.54800 -1.20991 
0.87673 2.56500 -1.21798 
0.88744 2.56500 -1.21798 
0.94099 2.56500 -1.21798 
1.17095 2.60000 -1.23460 
1.29839 2.53100 -1.20183 
1.31952 2.53100 -1.20183 
1.33009 2.53100 -1.20183 
1.37094 2.54800 -1.20991 
1.48861 2.53100 -1.20183 
1.50124 2.48200 -1.17857 
1.50186 2.46600 -1.17097 
1.52281 2.45000 -1.16337 
1.55472 2.38900 -1.13441 
1.56478 2.37400 -1.12728 
1.63369 2.35900 -1.12016 
1.82105 2.46600 -1.17097 
1.83135 2.46600 -1.17097 
1.86224 2.46600 -1.17097 
1.87872 2.43400 -1.15577 
1.93269 2.31600 -1.09974 
1.94236 2.31600 -1.09974 
2.31638 2.58200 -1.22605 
2.53195 2.67300 -1.26926 
2.71971 2.75000 -1.30582 
-1.96372 2.08900 -1.00067 
-1.83970 2.07700 -0.99493 
-1.79634 2.07700 -0.99493 
-1.70057 2.06600 -0.98966 
-1.67493 2.07700 -0.99493 
-1.64087 2.10000 -1.00594 
-1.61473 2.13500 -1.02271 
-1.58781 2.15900 -1.03421 
-1.58830 2.17200 -1.04043 
-1.56072 2.19700 -1.05241 
-1.55038 2.23500 -1.07061 
-1.52189 2.26200 -1.08354 
-1.45185 2.31600 -1.10941 
-1.41259 2.33100 -1.11660 
-1.36061 2.35900 -1.13001 
-1.23826 2.38900 -1.14438 
-0.97703 2.43400 -1.16594 
-0.96687 2.43400 -1.16594 
-0.93231 2.45000 -1.17360 
-0.92207 2.45000 -1.17360 
-0.83475 2.43400 -1.16594 
-0.66301 2.51500 -1.20474 
-0.51213 2.54800 -1.22054 
-0.46957 2.54800 -1.22054 
-0.45587 2.53100 -1.21240 
-0.31255 2.40400 -1.15157 
-0.30251 2.40400 -1.15157 
-0.20539 2.22200 -1.06438 
-0.17356 2.17200 -1.04043 
-0.15721 2.19700 -1.05241 
-0.04288 2.48200 -1.18893 
-0.02201 2.46600 -1.18126 
0.00888 2.46600 -1.18126 
0.16876 2.54800 -1.22054 
0.38153 2.54800 -1.22054 
0.44239 2.53100 -1.21240 
0.63912 2.51500 -1.20474 
0.66012 2.51500 -1.20474 
0.73829 2.53100 -1.21240 
0.88624 2.53100 -1.21240 
0.89681 2.53100 -1.21240 
0.91795 2.53100 -1.21240 
1.01306 2.53100 -1.21240 
1.07306 2.54800 -1.22054 
1.14447 2.56500 -1.22869 
1.17362 2.58200 -1.23683 
1.23015 2.56500 -1.22869 
1.24328 2.54800 -1.22054 
1.25612 2.53100 -1.21240 
1.35319 2.51500 -1.20474 
1.37419 2.51500 -1.20474 
1.38469 2.51500 -1.20474 
1.42520 2.53100 -1.21240 
1.47920 2.51500 -1.20474 
1.50124 2.48200 -1.18893 
1.51258 2.45000 -1.17360 
1.52302 2.43400 -1.16594 
1.53319 2.43400 -1.16594 
1.54440 2.40400 -1.15157 
1.56469 2.38900 -1.14438 
1.62425 2.37400 -1.13719 
1.66390 2.37400 -1.13719 
1.73584 2.41900 -1.15875 
1.87872 2.43400 -1.16594 
1.89572 2.40400 -1.15157 
2.37595 2.60000 -1.24545 
2.46388 2.63600 -1.26270 
2.47489 2.63600 -1.26270 
2.50287 2.65400 -1.27132 
2.53195 2.67300 -1.28042 
2.67713 2.73000 -1.30773 
2.66982 2.71100 -1.29862 
2.72273 2.73000 -1.30773 
-1.96372 2.08900 -1.00940 
-1.92643 2.07700 -1.00360 
-1.80502 2.07700 -1.00360 
-1.78767 2.07700 -1.00360 
-1.64972 2.08900 -1.00940 
-1.63210 2.10000 -1.01471 
-1.62338 2.12300 -1.02583 
-1.60588 2.14700 -1.03742 
-1.58830 2.17200 -1.04950 
-1.41259 2.33100 -1.12633 
-1.27014 2.37400 -1.14711 
-1.21593 2.40400 -1.16160 
-1.18311 2.41900 -1.16885 
-1.16291 2.41900 -1.16885 
-1.15281 2.41900 -1.16885 
-1.12251 2.41900 -1.16885 
-1.04817 2.43400 -1.17610 
-0.89573 2.43400 -1.17610 
-0.84981 2.41900 -1.16885 
-0.76335 2.46600 -1.19156 
-0.60250 2.48200 -1.19929 
-0.34266 2.40400 -1.16160 
-0.31856 2.37400 -1.14711 
-0.23878 2.27500 -1.09927 
-0.22656 2.24800 -1.08622 
-0.13429 2.27500 -1.09927 
-0.03169 2.41900 -1.16885 
0.13507 2.51500 -1.21524 
0.23846 2.49800 -1.20702 
0.28208 2.51500 -1.21524 
0.41859 2.51500 -1.21524 
0.43663 2.49800 -1.20702 
0.55136 2.49800 -1.20702 
0.57222 2.49800 -1.20702 
0.71824 2.49800 -1.20702 
0.97899 2.49800 -1.20702 
0.99985 2.49800 -1.20702 
1.05916 2.51500 -1.21524 
1.09760 2.53100 -1.22297 
1.23768 2.51500 -1.21524 
1.33361 2.49800 -1.20702 
1.37533 2.49800 -1.20702 
1.39619 2.49800 -1.20702 
1.40662 2.49800 -1.20702 
1.59462 2.38900 -1.15436 
1.68439 2.38900 -1.15436 
1.70500 2.40400 -1.16160 
1.83807 2.43400 -1.17610 
1.94023 2.30200 -1.11232 
2.06344 2.38900 -1.15436 
2.47489 2.63600 -1.27370 
2.65850 2.71100 -1.30994 
2.71510 2.71100 -1.30994 
-1.82236 2.07700 -1.01227 
-1.76958 2.06600 -1.00691 
-1.68360 2.07700 -1.01227 
-1.66626 2.07700 -1.01227 
-1.61484 2.14700 -1.04639 
-1.59737 2.17200 -1.05857 
-1.58830 2.17200 -1.05857 
-1.48271 2.28900 -1.11559 
-1.45269 2.30200 -1.12193 
-1.42284 2.31600 -1.12875 
-1.29988 2.37400 -1.15702 
-1.27014 2.37400 -1.15702 
-1.26023 2.37400 -1.15702 
-1.03801 2.43400 -1.18626 
-1.02784 2.43400 -1.18626 
-1.01768 2.43400 -1.18626 
-0.99121 2.41900 -1.17895 
-0.98111 2.41900 -1.17895 
-0.96091 2.41900 -1.17895 
-0.94071 2.41900 -1.17895 
-0.85457 2.40400 -1.17164 
-0.78921 2.41900 -1.17895 
-0.77377 2.43400 -1.18626 
-0.76361 2.43400 -1.18626 
-0.66039 2.46600 -1.20186 
-0.62542 2.45000 -1.19406 
-0.61519 2.45000 -1.19406 
-0.60496 2.45000 -1.19406 
-0.37510 2.41900 -1.17895 
-0.32639 2.35900 -1.14971 
-0.24533 2.24800 -1.09561 
-0.22142 2.19700 -1.07075 
-0.10840 2.33100 -1.13606 
-0.07075 2.37400 -1.15702 
-0.04127 2.38900 -1.16433 
0.03853 2.38900 -1.16433 
0.26802 2.48200 -1.20966 
0.29911 2.48200 -1.20966 
0.33020 2.48200 -1.20966 
0.36129 2.48200 -1.20966 
0.49601 2.48200 -1.20966 
0.51674 2.48200 -1.20966 
0.57891 2.48200 -1.20966 
0.70327 2.48200 -1.20966 
0.81727 2.48200 -1.20966 
0.88981 2.48200 -1.20966 
0.92526 2.46600 -1.20186 
0.96645 2.46600 -1.20186 
1.00381 2.48200 -1.20966 
1.04157 2.49800 -1.21745 
1.11166 2.51500 -1.22574 
1.13266 2.51500 -1.22574 
1.18759 2.49800 -1.21745 
1.20845 2.49800 -1.21745 
1.26289 2.48200 -1.20966 
1.30623 2.46600 -1.20186 
1.37688 2.48200 -1.20966 
1.50235 2.45000 -1.19406 
1.56469 2.38900 -1.16433 
1.57467 2.38900 -1.16433 
1.58464 2.38900 -1.16433 
1.62454 2.38900 -1.16433 
1.74594 2.41900 -1.17895 
1.83684 2.41900 -1.17895 
1.86714 2.41900 -1.17895 
1.88568 2.40400 -1.17164 
1.90384 2.38900 -1.16433 
1.91933 2.35900 -1.14971 
2.05048 2.37400 -1.15702 
2.19930 2.49800 -1.21745 
2.33326 2.56500 -1.25011 
2.35950 2.58200 -1.25839 
2.62124 2.67300 -1.30274 
-1.89897 2.06600 -1.01554 
-1.81369 2.07700 -1.02094 
-1.74370 2.06600 -1.01554 
-1.67493 2.07700 -1.02094 
-1.62365 2.13500 -1.04945 
-1.56924 2.20900 -1.08583 
-1.56920 2.22200 -1.09222 
-1.50214 2.27500 -1.11827 
-1.44307 2.30200 -1.13154 
-1.43346 2.30200 -1.13154 
-1.42385 2.30200 -1.13154 
-1.42284 2.31600 -1.13842 
-1.39312 2.33100 -1.14580 
-1.39170 2.34500 -1.15268 
-1.10551 2.40400 -1.18168 
-1.08544 2.40400 -1.18168 
-1.03161 2.41900 -1.18905 
-1.01141 2.41900 -1.18905 
-0.91041 2.41900 -1.18905 
-0.81932 2.38900 -1.17430 
-0.80934 2.38900 -1.17430 
-0.68679 2.45000 -1.20429 
-0.67656 2.45000 -1.20429 
-0.65611 2.45000 -1.20429 
-0.49886 2.48200 -1.22002 
-0.43387 2.46600 -1.21215 
-0.18640 2.11200 -1.03815 
-0.17657 2.10000 -1.03225 
-0.13728 2.17200 -1.06764 
-0.12969 2.19700 -1.07993 
-0.12189 2.22200 -1.09222 
-0.10645 2.28900 -1.12515 
0.02803 2.34500 -1.15268 
0.18392 2.46600 -1.21215 
0.20451 2.46600 -1.21215 
0.36925 2.46600 -1.21215 
0.56489 2.46600 -1.21215 
0.58548 2.46600 -1.21215 
0.61637 2.46600 -1.21215 
0.67815 2.46600 -1.21215 
0.68844 2.46600 -1.21215 
0.69874 2.46600 -1.21215 
0.81200 2.46600 -1.21215 
0.87378 2.46600 -1.21215 
0.91926 2.45000 -1.20429 
0.92949 2.45000 -1.20429 
1.03852 2.46600 -1.21215 
1.14889 2.48200 -1.22002 
1.20071 2.48200 -1.22002 
1.38860 2.46600 -1.21215 
1.41949 2.46600 -1.21215 
1.55404 2.41900 -1.18905 
1.60459 2.38900 -1.17430 
1.62454 2.38900 -1.17430 
1.65446 2.38900 -1.17430 
1.68439 2.38900 -1.17430 
1.76614 2.41900 -1.18905 
1.86560 2.40400 -1.18168 
1.90948 2.35900 -1.15956 
1.91748 2.27500 -1.11827 
2.31184 2.56500 -1.26082 
2.31780 2.54800 -1.25246 
2.34397 2.56500 -1.26082 
2.43023 2.60000 -1.27802 
2.45799 2.61800 -1.28687 
2.58044 2.65400 -1.30456 
2.60696 2.63600 -1.29572 
2.65801 2.65400 -1.30456 
-1.91775 2.07700 -1.02961 
-1.79634 2.07700 -1.02961 
-1.73507 2.06600 -1.02416 
-1.68360 2.07700 -1.02961 
-1.66716 2.08900 -1.03556 
-1.62365 2.13500 -1.05837 
-1.61473 2.13500 -1.05837 
-1.59708 2.18400 -1.08266 
-1.54964 2.27500 -1.12777 
-1.51245 2.26200 -1.12132 
-1.48314 2.27500 -1.12777 
-1.46414 2.27500 -1.12777 
-1.43346 2.30200 -1.14115 
-1.25226 2.35900 -1.16941 
-1.21287 2.35900 -1.16941 
-1.16844 2.38900 -1.18428 
-1.05533 2.40400 -1.19172 
-1.04529 2.40400 -1.19172 
-0.92484 2.40400 -1.19172 
-0.83927 2.38900 -1.18428 
-0.77942 2.38900 -1.18428 
-0.73870 2.41900 -1.19915 
-0.67215 2.43400 -1.20659 
-0.62760 2.41900 -1.19915 
-0.59730 2.41900 -1.19915 
-0.51970 2.43400 -1.20659 
-0.49243 2.45000 -1.21452 
-0.47197 2.45000 -1.21452 
-0.45151 2.45000 -1.21452 
-0.31671 2.28900 -1.13471 
-0.25811 2.19700 -1.08910 
-0.22535 2.14700 -1.06432 
-0.17464 2.07700 -1.02961 
-0.15027 2.10000 -1.04102 
-0.09515 2.24800 -1.11438 
0.00834 2.31600 -1.14809 
0.17137 2.43400 -1.20659 
0.21202 2.43400 -1.20659 
0.30548 2.45000 -1.21452 
0.40014 2.46600 -1.22245 
0.41044 2.46600 -1.22245 
0.42074 2.46600 -1.22245 
0.45893 2.45000 -1.21452 
0.49984 2.45000 -1.21452 
0.51007 2.45000 -1.21452 
0.56122 2.45000 -1.21452 
0.68398 2.45000 -1.21452 
0.70444 2.45000 -1.21452 
0.71466 2.45000 -1.21452 
0.74535 2.45000 -1.21452 
0.78627 2.45000 -1.21452 
0.87260 2.43400 -1.20659 
0.88277 2.43400 -1.20659 
1.21814 2.43400 -1.20659 
1.26895 2.43400 -1.20659 
1.30960 2.43400 -1.20659 
1.41028 2.45000 -1.21452 
1.42051 2.45000 -1.21452 
1.47166 2.45000 -1.21452 
1.57424 2.41900 -1.19915 
1.64449 2.38900 -1.18428 
1.66444 2.38900 -1.18428 
1.76523 2.40400 -1.19172 
1.84399 2.38900 -1.18428 
1.88389 2.38900 -1.18428 
2.07341 2.38900 -1.18428 
2.19558 2.48200 -1.23038 
2.26006 2.53100 -1.25467 
2.47366 2.60000 -1.28888 
2.55637 2.61800 -1.29780 
-2.02479 2.13500 -1.06728 
-1.89897 2.06600 -1.03279 
-1.86572 2.07700 -1.03829 
-1.83970 2.07700 -1.03829 
-1.72645 2.06600 -1.03279 
-1.65844 2.08900 -1.04429 
-1.65841 2.10000 -1.04978 
-1.61485 2.15900 -1.07928 
-1.57884 2.18400 -1.09178 
-1.55940 2.24800 -1.12377 
-1.53134 2.26200 -1.13077 
-1.47364 2.27500 -1.13727 
-1.38339 2.33100 -1.16526 
-1.36233 2.34500 -1.17226 
-1.34091 2.35900 -1.17926 
-1.30151 2.35900 -1.17926 
-1.26441 2.34500 -1.17226 
-1.23256 2.35900 -1.17926 
-1.17102 2.37400 -1.18676 
-1.15119 2.37400 -1.18676 
-1.12854 2.38900 -1.19425 
-1.10859 2.38900 -1.19425 
-1.06869 2.38900 -1.19425 
-0.97892 2.38900 -1.19425 
-0.92904 2.38900 -1.19425 
-0.91907 2.38900 -1.19425 
-0.89912 2.38900 -1.19425 
-0.80426 2.37400 -1.18676 
-0.72954 2.38900 -1.19425 
-0.69397 2.40400 -1.20175 
-0.62371 2.40400 -1.20175 
-0.59987 2.38900 -1.19425 
-0.55345 2.40400 -1.20175 
-0.51650 2.41900 -1.20925 
-0.50954 2.43400 -1.21675 
-0.27646 2.19700 -1.09827 
-0.24328 2.14700 -1.07328 
-0.19198 2.07700 -1.03829 
-0.14862 2.07700 -1.03829 
-0.09300 2.19700 -1.09827 
-0.04822 2.24800 -1.12377 
0.01780 2.28900 -1.14427 
0.08785 2.37400 -1.18676 
0.14001 2.41900 -1.20925 
0.17031 2.41900 -1.20925 
0.24101 2.41900 -1.20925 
0.29332 2.43400 -1.21675 
0.38732 2.45000 -1.22475 
0.39755 2.45000 -1.22475 
0.42824 2.45000 -1.22475 
0.57788 2.43400 -1.21675 
0.64902 2.43400 -1.21675 
0.76081 2.43400 -1.21675 
0.84703 2.41900 -1.20925 
0.86185 2.40400 -1.20175 
0.90200 2.40400 -1.20175 
0.92207 2.40400 -1.20175 
0.98230 2.40400 -1.20175 
1.01873 2.41900 -1.20925 
1.02883 2.41900 -1.20925 
1.10635 2.43400 -1.21675 
1.17749 2.43400 -1.21675 
1.25103 2.41900 -1.20925 
1.28133 2.41900 -1.20925 
1.30960 2.43400 -1.21675 
1.37058 2.43400 -1.21675 
1.56448 2.40400 -1.20175 
1.72429 2.38900 -1.19425 
1.90384 2.38900 -1.19425 
1.91381 2.38900 -1.19425 
1.91140 2.30200 -1.15076 
1.92928 2.28900 -1.14427 
2.15704 2.45000 -1.22475 
2.30878 2.51500 -1.25724 
2.53200 2.58200 -1.29073 
-1.78767 2.07700 -1.04696 
-1.70919 2.06600 -1.04141 
-1.66716 2.08900 -1.05301 
-1.62365 2.13500 -1.07620 
-1.59737 2.17200 -1.09485 
-1.58796 2.18400 -1.10089 
-1.57847 2.20900 -1.11350 
-1.51245 2.26200 -1.14021 
-1.47364 2.27500 -1.14677 
-1.45404 2.28900 -1.15382 
-1.43346 2.30200 -1.16038 
-1.31337 2.34500 -1.18205 
-1.30358 2.34500 -1.18205 
-1.26441 2.34500 -1.18205 
-1.24483 2.34500 -1.18205 
-1.19317 2.35900 -1.18911 
-1.18332 2.35900 -1.18911 
-1.17347 2.35900 -1.18911 
-1.14392 2.35900 -1.18911 
-1.02879 2.38900 -1.20423 
-0.94899 2.38900 -1.20423 
-0.93902 2.38900 -1.20423 
-0.85922 2.38900 -1.20423 
-0.84391 2.37400 -1.19667 
-0.75470 2.37400 -1.19667 
-0.72496 2.37400 -1.19667 
-0.56637 2.37400 -1.19667 
-0.55000 2.38900 -1.20423 
-0.44580 2.41900 -1.21935 
-0.37118 2.33100 -1.17499 
-0.35913 2.31600 -1.16743 
-0.19959 2.06600 -1.04141 
-0.18040 2.04400 -1.03032 
-0.14705 2.05500 -1.03587 
-0.12331 2.08900 -1.05301 
-0.10759 2.12300 -1.07015 
0.00814 2.26200 -1.14021 
0.13914 2.40400 -1.21179 
0.14918 2.40400 -1.21179 
0.24956 2.40400 -1.21179 
0.27131 2.41900 -1.21935 
0.33397 2.43400 -1.22691 
0.37462 2.43400 -1.22691 
0.42544 2.43400 -1.22691 
0.45593 2.43400 -1.22691 
0.46609 2.43400 -1.22691 
0.56772 2.43400 -1.22691 
0.57788 2.43400 -1.22691 
0.74602 2.41900 -1.21935 
0.79652 2.41900 -1.21935 
0.80663 2.41900 -1.21935 
0.84650 2.38900 -1.20423 
0.87642 2.38900 -1.20423 
0.88640 2.38900 -1.20423 
0.92629 2.38900 -1.20423 
0.97617 2.38900 -1.20423 
1.06260 2.40400 -1.21179 
1.21316 2.40400 -1.21179 
1.26335 2.40400 -1.21179 
1.29143 2.41900 -1.21935 
1.37224 2.41900 -1.21935 
1.41123 2.43400 -1.22691 
1.42140 2.43400 -1.22691 
1.48418 2.40400 -1.21179 
1.51429 2.40400 -1.21179 
1.51482 2.38900 -1.20423 
1.52479 2.38900 -1.20423 
1.53477 2.38900 -1.20423 
1.67441 2.38900 -1.20423 
1.76419 2.38900 -1.20423 
1.81406 2.38900 -1.20423 
1.82250 2.37400 -1.19667 
1.86215 2.37400 -1.19667 
1.89188 2.37400 -1.19667 
1.89815 2.34500 -1.18205 
1.91335 2.31600 -1.16743 
1.91016 2.28900 -1.15382 
1.98414 2.33100 -1.17499 
1.99388 2.33100 -1.17499 
2.07341 2.38900 -1.20423 
2.36128 2.51500 -1.26774 
-1.90760 2.06600 -1.05004 
-1.89897 2.06600 -1.05004 
-1.87309 2.06600 -1.05004 
-1.84838 2.07700 -1.05563 
-1.76165 2.07700 -1.05563 
-1.67589 2.08900 -1.06173 
-1.65025 2.11200 -1.07342 
-1.64147 2.13500 -1.08511 
-1.59683 2.15900 -1.09731 
-1.57906 2.19700 -1.11662 
-1.55002 2.24800 -1.14254 
-1.52186 2.24800 -1.14254 
-1.47364 2.27500 -1.15626 
-1.42284 2.31600 -1.17710 
-1.41317 2.31600 -1.17710 
-1.35515 2.31600 -1.17710 
-1.34446 2.33100 -1.18473 
-1.33473 2.33100 -1.18473 
-1.16650 2.34500 -1.19184 
-1.13407 2.35900 -1.19896 
-1.09172 2.37400 -1.20658 
-0.91907 2.38900 -1.21420 
-0.89912 2.38900 -1.21420 
-0.81888 2.35900 -1.19896 
-0.80903 2.35900 -1.19896 
-0.74548 2.34500 -1.19184 
-0.72038 2.35900 -1.19896 
-0.68531 2.37400 -1.20658 
-0.48318 2.40400 -1.22183 
-0.47315 2.40400 -1.22183 
-0.24813 2.11200 -1.07342 
-0.17094 2.03300 -1.03327 
-0.15479 2.04400 -1.03886 
-0.14626 2.04400 -1.03886 
-0.11393 2.07700 -1.05563 
-0.10587 2.08900 -1.06173 
0.05669 2.31600 -1.17710 
0.17818 2.38900 -1.21420 
0.19812 2.38900 -1.21420 
0.21807 2.38900 -1.21420 
0.26963 2.40400 -1.22183 
0.46609 2.43400 -1.23708 
0.49352 2.41900 -1.22945 
0.51372 2.41900 -1.22945 
0.53392 2.41900 -1.22945 
0.55412 2.41900 -1.22945 
0.78155 2.40400 -1.22183 
0.90481 2.35900 -1.19896 
1.19562 2.38900 -1.21420 
1.29346 2.40400 -1.22183 
1.40254 2.41900 -1.22945 
1.48489 2.38900 -1.21420 
1.52479 2.38900 -1.21420 
1.59462 2.38900 -1.21420 
1.79411 2.38900 -1.21420 
1.83241 2.37400 -1.20658 
1.91335 2.31600 -1.17710 
2.03066 2.37400 -1.20658 
2.23703 2.48200 -1.26147 
2.24740 2.48200 -1.26147 
2.29921 2.48200 -1.26147 
2.43479 2.51500 -1.27824 
-1.90760 2.06600 -1.05867 
-1.87170 2.05500 -1.05303 
-1.86447 2.06600 -1.05867 
-1.85584 2.06600 -1.05867 
-1.76165 2.07700 -1.06430 
-1.71782 2.06600 -1.05867 
-1.65907 2.11200 -1.08224 
-1.59737 2.17200 -1.11298 
-1.55992 2.22200 -1.13860 
-1.51306 2.23500 -1.14527 
-1.40463 2.30200 -1.17960 
-1.13713 2.34500 -1.20163 
-1.12734 2.34500 -1.20163 
-1.09172 2.37400 -1.21649 
-0.96286 2.37400 -1.21649 
-0.77485 2.34500 -1.20163 
-0.76506 2.34500 -1.20163 
-0.71611 2.34500 -1.20163 
-0.62189 2.35900 -1.20881 
-0.61204 2.35900 -1.20881 
-0.55294 2.35900 -1.20881 
-0.52672 2.37400 -1.21649 
-0.43751 2.37400 -1.21649 
-0.33920 2.24800 -1.15193 
-0.25695 2.11200 -1.08224 
-0.12919 2.04400 -1.04739 
0.08729 2.35900 -1.20881 
0.10767 2.37400 -1.21649 
0.14825 2.38900 -1.22418 
0.40262 2.41900 -1.23955 
0.44302 2.41900 -1.23955 
0.53061 2.40400 -1.23187 
0.58080 2.40400 -1.23187 
0.73677 2.38900 -1.22418 
0.84571 2.35900 -1.20881 
0.85557 2.35900 -1.20881 
0.89496 2.35900 -1.20881 
0.90481 2.35900 -1.20881 
0.97995 2.37400 -1.21649 
1.04599 2.38900 -1.22418 
1.05597 2.38900 -1.22418 
1.12579 2.38900 -1.22418 
1.20559 2.38900 -1.22418 
1.24549 2.38900 -1.22418 
1.35369 2.40400 -1.23187 
1.36373 2.40400 -1.23187 
1.41391 2.40400 -1.23187 
1.54495 2.37400 -1.21649 
1.55487 2.37400 -1.21649 
1.62454 2.38900 -1.22418 
1.66444 2.38900 -1.22418 
1.67441 2.38900 -1.22418 
1.75421 2.38900 -1.22418 
1.80409 2.38900 -1.22418 
1.85224 2.37400 -1.21649 
1.87993 2.35900 -1.20881 
1.89963 2.35900 -1.20881 
1.94236 2.31600 -1.18677 
2.21232 2.46600 -1.26364 
2.22261 2.46600 -1.26364 
2.31994 2.48200 -1.27183 
2.38704 2.49800 -1.28003 
2.47048 2.49800 -1.28003 
-1.90760 2.06600 -1.06729 
-1.85454 2.05500 -1.06161 
-1.75298 2.07700 -1.07298 
-1.70057 2.06600 -1.06729 
-1.67589 2.08900 -1.07917 
-1.66716 2.08900 -1.07917 
-1.65841 2.10000 -1.08486 
-1.65907 2.11200 -1.09106 
-1.63277 2.14700 -1.10914 
-1.57016 2.17200 -1.12205 
-1.56002 2.20900 -1.14117 
-1.54137 2.22200 -1.14788 
-1.50372 2.23500 -1.15460 
-1.46414 2.27500 -1.17526 
-1.43493 2.28900 -1.18249 
-1.43346 2.30200 -1.18921 
-1.37758 2.28900 -1.18249 
-1.32773 2.30200 -1.18921 
-1.29713 2.31600 -1.19644 
-1.24878 2.31600 -1.19644 
-1.23911 2.31600 -1.19644 
-1.22944 2.31600 -1.19644 
-1.19076 2.31600 -1.19644 
-1.11755 2.34500 -1.21142 
-1.11437 2.35900 -1.21866 
-1.04216 2.37400 -1.22641 
-1.02233 2.37400 -1.22641 
-0.99260 2.37400 -1.22641 
-0.94303 2.37400 -1.22641 
-0.82381 2.34500 -1.21142 
-0.77023 2.33100 -1.20419 
-0.70210 2.33100 -1.20419 
-0.50369 2.35900 -1.21866 
-0.34858 2.24800 -1.16131 
-0.28810 2.14700 -1.10914 
-0.19534 2.02200 -1.04456 
-0.12919 2.04400 -1.05593 
-0.10470 2.06600 -1.06729 
-0.08012 2.10000 -1.08486 
-0.04606 2.14700 -1.10914 
0.14732 2.37400 -1.22641 
0.44750 2.38900 -1.23415 
0.47742 2.38900 -1.23415 
0.52730 2.38900 -1.23415 
0.58715 2.38900 -1.23415 
0.79162 2.37400 -1.22641 
0.84070 2.34500 -1.21142 
0.87007 2.34500 -1.21142 
0.88965 2.34500 -1.21142 
0.92882 2.34500 -1.21142 
1.20794 2.37400 -1.22641 
1.21785 2.37400 -1.22641 
1.27542 2.38900 -1.23415 
1.57469 2.37400 -1.22641 
1.59452 2.37400 -1.22641 
1.68439 2.38900 -1.23415 
1.75421 2.38900 -1.23415 
1.78414 2.38900 -1.23415 
1.85038 2.35900 -1.21866 
1.87008 2.35900 -1.21866 
1.88682 2.33100 -1.20419 
2.01083 2.37400 -1.22641 
2.05632 2.40400 -1.24190 
2.21842 2.45000 -1.26567 
2.29469 2.46600 -1.27393 
2.31528 2.46600 -1.27393 
2.36139 2.48200 -1.28220 
-1.91622 2.06600 -1.07592 
-1.90760 2.06600 -1.07592 
-1.87022 2.04400 -1.06446 
-1.84596 2.05500 -1.07019 
-1.83859 2.06600 -1.07592 
-1.78767 2.07700 -1.08165 
-1.77033 2.07700 -1.08165 
-1.70919 2.06600 -1.07592 
-1.67589 2.08900 -1.08790 
-1.61484 2.14700 -1.11810 
-1.60588 2.14700 -1.11810 
-1.59691 2.14700 -1.11810 
-1.51353 2.22200 -1.15716 
-1.39670 2.28900 -1.19205 
-1.33935 2.28900 -1.19205 
-1.31812 2.30200 -1.19882 
-1.28929 2.30200 -1.19882 
-1.24123 2.30200 -1.19882 
-1.17395 2.30200 -1.19882 
-1.11755 2.34500 -1.22122 
-1.09796 2.34500 -1.22122 
-1.05207 2.37400 -1.23632 
-0.88783 2.35900 -1.22851 
-0.77494 2.31600 -1.20611 
-0.76527 2.31600 -1.20611 
-0.63778 2.34500 -1.22122 
-0.62799 2.34500 -1.22122 
-0.58882 2.34500 -1.22122 
-0.54966 2.34500 -1.22122 
-0.46851 2.33100 -1.21392 
-0.45878 2.33100 -1.21392 
-0.42958 2.33100 -1.21392 
-0.40501 2.30200 -1.19882 
-0.39317 2.28900 -1.19205 
-0.36964 2.26200 -1.17799 
-0.35590 2.23500 -1.16393 
-0.18598 2.01200 -1.04780 
-0.16157 2.02200 -1.05301 
-0.05441 2.12300 -1.10560 
-0.04580 2.13500 -1.11185 
-0.01044 2.19700 -1.14414 
0.01759 2.26200 -1.17799 
0.06679 2.33100 -1.21392 
0.07698 2.34500 -1.22122 
0.19564 2.35900 -1.22851 
0.20549 2.35900 -1.22851 
0.26627 2.37400 -1.23632 
0.29600 2.37400 -1.23632 
0.41757 2.38900 -1.24413 
0.46745 2.38900 -1.24413 
0.57355 2.37400 -1.23632 
0.64294 2.37400 -1.23632 
0.65285 2.37400 -1.23632 
0.67827 2.35900 -1.22851 
0.77677 2.35900 -1.22851 
0.84541 2.33100 -1.21392 
0.85514 2.33100 -1.21392 
0.86487 2.33100 -1.21392 
0.99736 2.34500 -1.22122 
1.01316 2.35900 -1.22851 
1.08211 2.35900 -1.22851 
1.11166 2.35900 -1.22851 
1.19045 2.35900 -1.22851 
1.27732 2.37400 -1.23632 
1.30706 2.37400 -1.23632 
1.31697 2.37400 -1.23632 
1.34671 2.37400 -1.23632 
1.35662 2.37400 -1.23632 
1.41507 2.38900 -1.24413 
1.54504 2.35900 -1.22851 
1.65399 2.37400 -1.23632 
1.68373 2.37400 -1.23632 
1.70355 2.37400 -1.23632 
1.76419 2.38900 -1.24413 
1.82250 2.37400 -1.23632 
1.89655 2.33100 -1.21392 
2.05632 2.40400 -1.25194 
2.06636 2.40400 -1.25194 
2.17344 2.43400 -1.26756 
2.25934 2.45000 -1.27590 
2.26957 2.45000 -1.27590 
2.27980 2.45000 -1.27590 
2.32072 2.45000 -1.27590 
2.44347 2.45000 -1.27590 
2.46393 2.45000 -1.27590 
2.47416 2.45000 -1.27590 
-1.90602 2.05500 -1.07877 
-1.87875 2.04400 -1.07300 
-1.85454 2.05500 -1.07877 
-1.84596 2.05500 -1.07877 
-1.80502 2.07700 -1.09032 
-1.75298 2.07700 -1.09032 
-1.73507 2.06600 -1.08455 
-1.70057 2.06600 -1.08455 
-1.66716 2.08900 -1.09662 
-1.57899 2.14700 -1.12707 
-1.52313 2.20900 -1.15961 
-1.48506 2.23500 -1.17326 
-1.43689 2.26200 -1.18744 
-1.33116 2.27500 -1.19426 
-1.25333 2.28900 -1.20161 
-1.06859 2.34500 -1.23101 
-1.03557 2.35900 -1.23836 
-1.02572 2.35900 -1.23836 
-0.98632 2.35900 -1.23836 
-0.93151 2.34500 -1.23101 
-0.92172 2.34500 -1.23101 
-0.68791 2.31600 -1.21578 
-0.66857 2.31600 -1.21578 
-0.58882 2.34500 -1.23101 
-0.52691 2.33100 -1.22366 
-0.50744 2.33100 -1.22366 
-0.47517 2.31600 -1.21578 
-0.38853 2.26200 -1.18744 
-0.37674 2.24800 -1.18009 
-0.36523 2.23500 -1.17326 
-0.34067 2.19700 -1.15331 
-0.27302 2.10000 -1.10239 
-0.22187 2.03300 -1.06722 
-0.20378 2.02200 -1.06145 
-0.16077 2.01200 -1.05620 
-0.13624 2.02200 -1.06145 
-0.10359 2.04400 -1.07300 
0.03691 2.28900 -1.20161 
0.14639 2.35900 -1.23836 
0.27281 2.34500 -1.23101 
0.29413 2.35900 -1.23836 
0.33565 2.37400 -1.24623 
0.42486 2.37400 -1.24623 
0.45460 2.37400 -1.24623 
0.49113 2.35900 -1.23836 
0.60932 2.35900 -1.23836 
0.73299 2.34500 -1.23101 
0.77216 2.34500 -1.23101 
0.80129 2.31600 -1.21578 
0.81096 2.31600 -1.21578 
0.83997 2.31600 -1.21578 
0.85931 2.31600 -1.21578 
0.87865 2.31600 -1.21578 
0.88832 2.31600 -1.21578 
0.91354 2.33100 -1.22366 
0.94840 2.34500 -1.23101 
0.95819 2.34500 -1.23101 
1.00715 2.34500 -1.23101 
1.01694 2.34500 -1.23101 
1.02673 2.34500 -1.23101 
1.07569 2.34500 -1.23101 
1.15402 2.34500 -1.23101 
1.21015 2.35900 -1.23836 
1.32835 2.35900 -1.23836 
1.39730 2.35900 -1.23836 
1.47609 2.35900 -1.23836 
1.50650 2.34500 -1.23101 
1.53519 2.35900 -1.23836 
1.61434 2.37400 -1.24623 
1.64408 2.37400 -1.24623 
1.68373 2.37400 -1.24623 
1.74320 2.37400 -1.24623 
1.81259 2.37400 -1.24623 
1.87993 2.35900 -1.23836 
1.88682 2.33100 -1.22366 
2.06636 2.40400 -1.26198 
2.13662 2.40400 -1.26198 
2.17015 2.41900 -1.26985 
2.18025 2.41900 -1.26985 
2.20393 2.43400 -1.27773 
2.23442 2.43400 -1.27773 
2.29540 2.43400 -1.27773 
2.35637 2.43400 -1.27773 
2.42751 2.43400 -1.27773 
-1.87875 2.04400 -1.08153 
-1.84596 2.05500 -1.08735 
-1.76165 2.07700 -1.09899 
-1.71782 2.06600 -1.09317 
-1.67493 2.07700 -1.09899 
-1.66718 2.10000 -1.11116 
-1.60588 2.14700 -1.13603 
-1.49498 2.22200 -1.17572 
-1.34244 2.26200 -1.19688 
-1.31411 2.26200 -1.19688 
-1.24567 2.27500 -1.20376 
-1.08817 2.34500 -1.24080 
-1.06859 2.34500 -1.24080 
-1.03922 2.34500 -1.24080 
-1.02572 2.35900 -1.24821 
-1.00984 2.34500 -1.24080 
-0.86298 2.34500 -1.24080 
-0.79428 2.31600 -1.22545 
-0.75103 2.30200 -1.21805 
-0.62989 2.31600 -1.22545 
-0.59504 2.33100 -1.23339 
-0.52997 2.30200 -1.21805 
-0.52035 2.30200 -1.21805 
-0.51074 2.30200 -1.21805 
-0.47919 2.28900 -1.21117 
-0.28179 2.10000 -1.11116 
-0.17757 2.01200 -1.06460 
-0.13624 2.02200 -1.06989 
-0.07882 2.06600 -1.09317 
-0.02781 2.12300 -1.12333 
0.03648 2.26200 -1.19688 
0.07652 2.33100 -1.23339 
0.08625 2.33100 -1.23339 
0.16510 2.34500 -1.24080 
0.26301 2.34500 -1.24080 
0.33353 2.35900 -1.24821 
0.39263 2.35900 -1.24821 
0.44905 2.34500 -1.24080 
0.45884 2.34500 -1.24080 
0.56654 2.34500 -1.24080 
0.65466 2.34500 -1.24080 
0.74808 2.33100 -1.23339 
1.03652 2.34500 -1.24080 
1.07569 2.34500 -1.24080 
1.08548 2.34500 -1.24080 
1.11485 2.34500 -1.24080 
1.12464 2.34500 -1.24080 
1.19318 2.34500 -1.24080 
1.25193 2.34500 -1.24080 
1.38900 2.34500 -1.24080 
1.40859 2.34500 -1.24080 
1.50650 2.34500 -1.24080 
1.61434 2.37400 -1.25614 
1.73329 2.37400 -1.25614 
1.78285 2.37400 -1.25614 
1.84053 2.35900 -1.24821 
1.85038 2.35900 -1.24821 
1.86023 2.35900 -1.24821 
2.15669 2.40400 -1.27202 
2.21055 2.41900 -1.27995 
2.39235 2.41900 -1.27995 
2.44286 2.41900 -1.27995 
-1.92318 2.05500 -1.09593 
-1.89582 2.04400 -1.09007 
-1.85315 2.04400 -1.09007 
-1.82996 2.06600 -1.10180 
-1.73507 2.06600 -1.10180 
-1.65907 2.11200 -1.12633 
-1.65930 2.13500 -1.13860 
-1.65039 2.13500 -1.13860 
-1.52482 2.17200 -1.15833 
-1.52413 2.18400 -1.16473 
-1.48623 2.20900 -1.17806 
-1.45707 2.23500 -1.19193 
-1.34352 2.24800 -1.19886 
-1.33413 2.24800 -1.19886 
-1.25744 2.26200 -1.20633 
-1.24800 2.26200 -1.20633 
-1.22911 2.26200 -1.20633 
-1.21966 2.26200 -1.20633 
-1.21022 2.26200 -1.20633 
-1.20077 2.26200 -1.20633 
-1.18868 2.27500 -1.21326 
-1.12909 2.28900 -1.22072 
-1.11628 2.30200 -1.22766 
-1.09705 2.30200 -1.22766 
-1.08168 2.33100 -1.24312 
-1.02943 2.34500 -1.25059 
-0.87729 2.33100 -1.24312 
-0.67414 2.30200 -1.22766 
-0.42122 2.23500 -1.19193 
-0.32215 2.13500 -1.13860 
-0.24143 2.05500 -1.09593 
-0.23161 2.04400 -1.09007 
-0.20378 2.02200 -1.07833 
-0.16917 2.01200 -1.07300 
-0.13624 2.02200 -1.07833 
-0.12780 2.02200 -1.07833 
0.11615 2.34500 -1.25059 
0.21141 2.31600 -1.23512 
0.23075 2.31600 -1.23512 
0.24042 2.31600 -1.23512 
0.25009 2.31600 -1.23512 
0.36093 2.34500 -1.25059 
0.41967 2.34500 -1.25059 
0.60571 2.34500 -1.25059 
0.64102 2.33100 -1.24312 
0.67022 2.33100 -1.24312 
0.67995 2.33100 -1.24312 
0.69942 2.33100 -1.24312 
0.70915 2.33100 -1.24312 
0.77228 2.31600 -1.23512 
0.85885 2.28900 -1.22072 
0.92700 2.31600 -1.23512 
1.04007 2.33100 -1.24312 
1.15908 2.31600 -1.23512 
1.17632 2.33100 -1.24312 
1.27365 2.33100 -1.24312 
1.29312 2.33100 -1.24312 
1.34178 2.33100 -1.24312 
1.35151 2.33100 -1.24312 
1.36125 2.33100 -1.24312 
1.38900 2.34500 -1.25059 
1.41964 2.33100 -1.24312 
1.46831 2.33100 -1.24312 
1.51629 2.34500 -1.25059 
1.63369 2.35900 -1.25806 
1.64354 2.35900 -1.25806 
1.68294 2.35900 -1.25806 
1.69279 2.35900 -1.25806 
1.74204 2.35900 -1.25806 
1.79276 2.37400 -1.26605 
1.89963 2.35900 -1.25806 
1.90628 2.33100 -1.24312 
1.92752 2.34500 -1.25059 
1.93731 2.34500 -1.25059 
2.07341 2.38900 -1.27405 
2.09336 2.38900 -1.27405 
2.10334 2.38900 -1.27405 
2.11331 2.38900 -1.27405 
2.23699 2.40400 -1.28205 
2.31729 2.40400 -1.28205 
2.32733 2.40400 -1.28205 
-1.88728 2.04400 -1.09860 
-1.86015 2.03300 -1.09269 
-1.84596 2.05500 -1.10451 
-1.83738 2.05500 -1.10451 
-1.82996 2.06600 -1.11042 
-1.77033 2.07700 -1.11634 
-1.68360 2.07700 -1.11634 
-1.58799 2.13500 -1.14751 
-1.57907 2.13500 -1.14751 
-1.54313 2.14700 -1.15396 
-1.53416 2.14700 -1.15396 
-1.53372 2.15900 -1.16041 
-1.52482 2.17200 -1.16740 
-1.48623 2.20900 -1.18728 
-1.47701 2.20900 -1.18728 
-1.41974 2.23500 -1.20126 
-1.41041 2.23500 -1.20126 
-1.35441 2.23500 -1.20126 
-1.32642 2.23500 -1.20126 
-1.15355 2.26200 -1.21577 
-1.09086 2.28900 -1.23028 
-1.01355 2.33100 -1.25286 
-0.93568 2.33100 -1.25286 
-0.87164 2.31600 -1.24479 
-0.79909 2.30200 -1.23727 
-0.64166 2.28900 -1.23028 
-0.63210 2.28900 -1.23028 
-0.60343 2.28900 -1.23028 
-0.57476 2.28900 -1.23028 
-0.30104 2.11200 -1.13515 
-0.29056 2.10000 -1.12870 
-0.28031 2.08900 -1.12279 
-0.25998 2.06600 -1.11042 
-0.17846 2.02200 -1.08678 
-0.17001 2.02200 -1.08678 
-0.14469 2.02200 -1.08678 
-0.12850 2.03300 -1.09269 
-0.11212 2.04400 -1.09860 
-0.08699 2.05500 -1.10451 
-0.07882 2.06600 -1.11042 
-0.03588 2.07700 -1.11634 
-0.01003 2.11200 -1.13515 
0.00773 2.14700 -1.15396 
0.01689 2.17200 -1.16740 
0.09537 2.31600 -1.24479 
0.10504 2.31600 -1.24479 
0.11545 2.33100 -1.25286 
0.24858 2.30200 -1.23727 
0.33931 2.33100 -1.25286 
0.39770 2.33100 -1.25286 
0.41717 2.33100 -1.25286 
0.42690 2.33100 -1.25286 
0.44349 2.31600 -1.24479 
0.65624 2.31600 -1.24479 
0.73877 2.30200 -1.23727 
0.79660 2.27500 -1.22276 
0.86309 2.27500 -1.22276 
0.99469 2.31600 -1.24479 
1.11073 2.31600 -1.24479 
1.13007 2.31600 -1.24479 
1.21710 2.31600 -1.24479 
1.22677 2.31600 -1.24479 
1.39117 2.31600 -1.24479 
1.42018 2.31600 -1.24479 
1.60414 2.35900 -1.26790 
1.62399 2.34500 -1.26038 
1.67295 2.34500 -1.26038 
1.72191 2.34500 -1.26038 
1.74149 2.34500 -1.26038 
1.77158 2.35900 -1.26790 
1.82083 2.35900 -1.26790 
1.84053 2.35900 -1.26790 
2.07031 2.37400 -1.27597 
2.14324 2.38900 -1.28403 
2.23301 2.38900 -1.28403 
2.26294 2.38900 -1.28403 
-1.91289 2.04400 -1.10713 
-1.83608 2.04400 -1.10713 
-1.82996 2.06600 -1.11905 
-1.78767 2.07700 -1.12501 
-1.72645 2.06600 -1.11905 
-1.70057 2.06600 -1.11905 
-1.68360 2.07700 -1.12501 
-1.65884 2.12300 -1.14992 
-1.64147 2.13500 -1.15642 
-1.64174 2.14700 -1.16292 
-1.62365 2.13500 -1.15642 
-1.46898 2.19700 -1.19001 
-1.44934 2.20900 -1.19651 
-1.43931 2.22200 -1.20355 
-1.34654 2.22200 -1.20355 
-1.21444 2.23500 -1.21059 
-1.20510 2.23500 -1.21059 
-1.17711 2.23500 -1.21059 
-1.12764 2.24800 -1.21763 
-1.11577 2.26200 -1.22521 
-1.07174 2.28900 -1.23984 
-1.02637 2.31600 -1.25446 
-0.99735 2.31600 -1.25446 
-0.98769 2.31600 -1.25446 
-0.94900 2.31600 -1.25446 
-0.91999 2.31600 -1.25446 
-0.83754 2.30200 -1.24688 
-0.78502 2.28900 -1.23984 
-0.61874 2.27500 -1.23226 
-0.55854 2.26200 -1.22521 
-0.50227 2.22200 -1.20355 
-0.37774 2.14700 -1.16292 
-0.28031 2.08900 -1.13151 
-0.11212 2.04400 -1.10713 
-0.10415 2.05500 -1.11309 
-0.01865 2.08900 -1.13151 
0.01660 2.13500 -1.15642 
0.17169 2.30200 -1.24688 
0.35646 2.31600 -1.25446 
0.46965 2.30200 -1.24688 
0.58499 2.30200 -1.24688 
0.74911 2.27500 -1.23226 
0.82039 2.26200 -1.22521 
0.83927 2.26200 -1.22521 
0.90664 2.28900 -1.23984 
0.91619 2.28900 -1.23984 
0.92575 2.28900 -1.23984 
1.02713 2.30200 -1.24688 
1.04635 2.30200 -1.24688 
1.16469 2.28900 -1.23984 
1.20975 2.30200 -1.24688 
1.29625 2.30200 -1.24688 
1.33315 2.31600 -1.25446 
1.38150 2.31600 -1.25446 
1.49754 2.31600 -1.25446 
1.52670 2.33100 -1.26259 
1.55545 2.34500 -1.27017 
1.56525 2.34500 -1.27017 
1.77086 2.34500 -1.27017 
1.82083 2.35900 -1.27775 
1.86023 2.35900 -1.27775 
1.88682 2.33100 -1.26259 
