ply
format ascii 1.0
comment pointcloud saved from Realsense Viewer
element vertex 1784
property float32 x
property float32 y
property float32 z
end_header
2.14619 -0.233333 -8.309 
2.27984 -0.24392 -8.686 
2.36997 -0.249592 -8.888 
2.46449 -0.255545 -9.1 
2.62761 -0.268323 -9.555 
2.73591 -0.275203 -9.8 
2.84993 -0.282448 -10.058 
2.97013 -0.290086 -10.33 
3.09698 -0.298146 -10.617 
3.14131 -0.298146 -10.617 
3.27656 -0.306655 -10.92 
3.32215 -0.306655 -10.92 
3.46674 -0.315669 -11.241 
3.51368 -0.315669 -11.241 
3.56061 -0.315669 -11.241 
3.60755 -0.315669 -11.241 
3.65448 -0.315669 -11.241 
3.49595 -0.298146 -10.617 
3.54028 -0.298146 -10.617 
3.48771 -0.290086 -10.33 
3.43787 -0.282448 -10.058 
3.47986 -0.282448 -10.058 
3.43152 -0.275203 -9.8 
3.38563 -0.268323 -9.555 
3.34199 -0.26178 -9.322 
3.3004 -0.255545 -9.1 
3.18652 -0.24392 -8.686 
3.15117 -0.2385 -8.493 
3.18664 -0.2385 -8.493 
3.29532 -0.24392 -8.686 
3.40906 -0.249592 -8.888 
3.61445 -0.26178 -9.322 
3.74469 -0.268323 -9.555 
3.98381 -0.282448 -10.058 
4.37083 -0.306655 -10.92 
4.83057 -0.33541 -11.944 
5.20569 -0.357764 -12.74 
5.4401 -0.370092 -13.179 
5.69152 -0.383318 -13.65 
5.9616 -0.397528 -14.156 
6.25208 -0.412804 -14.7 
6.31346 -0.412804 -14.7 
6.37484 -0.412804 -14.7 
6.43621 -0.412804 -14.7 
6.25714 -0.397528 -14.156 
6.31624 -0.397528 -14.156 
6.14746 -0.383318 -13.65 
5.99037 -0.370092 -13.179 
6.26145 -0.383318 -13.65 
6.10042 -0.370092 -13.179 
5.95041 -0.357764 -12.74 
5.80992 -0.346222 -12.329 
6.0568 -0.357764 -12.74 
6.54642 -0.383318 -13.65 
6.8482 -0.397528 -14.156 
6.90731 -0.397528 -14.156 
6.96641 -0.397528 -14.156 
7.02552 -0.397528 -14.156 
7.35688 -0.412804 -14.7 
7.41826 -0.412804 -14.7 
7.47964 -0.412804 -14.7 
7.54101 -0.412804 -14.7 
7.32105 -0.397528 -14.156 
7.11636 -0.383318 -13.65 
7.17335 -0.383318 -13.65 
7.23034 -0.383318 -13.65 
6.80152 -0.357764 -12.74 
6.63357 -0.346222 -12.329 
6.47629 -0.33541 -11.944 
5.96665 -0.306655 -10.92 
5.68741 -0.290086 -10.33 
5.30061 -0.268323 -9.555 
4.96771 -0.249592 -8.888 
4.57912 -0.228362 -8.132 
4.33624 -0.214658 -7.644 
4.12072 -0.202499 -7.211 
3.92864 -0.191659 -6.825 
3.82088 -0.18506 -6.59 
3.71992 -0.178882 -6.37 
3.62595 -0.173125 -6.165 
3.53737 -0.167705 -5.972 
3.50743 -0.165122 -5.88 
3.47852 -0.162622 -5.791 
3.5027 -0.162622 -5.791 
3.4745 -0.160207 -5.705 
3.44681 -0.157848 -5.621 
3.41966 -0.155546 -5.539 
3.39368 -0.153327 -5.46 
3.41648 -0.153327 -5.46 
3.43928 -0.153327 -5.46 
3.51217 -0.155546 -5.539 
3.53529 -0.155546 -5.539 
3.55842 -0.155546 -5.539 
3.58155 -0.155546 -5.539 
3.60468 -0.155546 -5.539 
3.6278 -0.155546 -5.539 
3.65093 -0.155546 -5.539 
3.67406 -0.155546 -5.539 
3.69718 -0.155546 -5.539 
3.66725 -0.153327 -5.46 
3.69005 -0.153327 -5.46 
3.66049 -0.151165 -5.383 
3.68296 -0.151165 -5.383 
3.65381 -0.149059 -5.308 
3.62611 -0.147037 -5.236 
3.59851 -0.145043 -5.165 
3.57171 -0.143105 -5.096 
3.54575 -0.141224 -5.029 
3.52065 -0.139399 -4.964 
3.54137 -0.139399 -4.964 
3.5621 -0.139399 -4.964 
3.53663 -0.137601 -4.9 
3.51208 -0.13586 -4.838 
3.4454 -0.132519 -4.719 
3.3814 -0.129317 -4.605 
3.36001 -0.127773 -4.55 
3.26241 -0.123364 -4.393 
3.28075 -0.123364 -4.393 
3.22475 -0.120584 -4.294 
3.20719 -0.119264 -4.247 
3.18923 -0.117944 -4.2 
3.17164 -0.116652 -4.154 
3.15521 -0.115417 -4.11 
3.17237 -0.115417 -4.11 
3.15539 -0.114181 -4.066 
3.13881 -0.112974 -4.023 
3.12267 -0.111794 -3.981 
3.10696 -0.110643 -3.94 
3.0917 -0.109519 -3.9 
3.0769 -0.108424 -3.861 
3.06178 -0.107329 -3.822 
3.07774 -0.107329 -3.822 
3.06294 -0.106262 -3.784 
3.04863 -0.105223 -3.747 
3.06428 -0.105223 -3.747 
3.05033 -0.104212 -3.711 
3.03609 -0.103201 -3.675 
3.02237 -0.102218 -3.64 
3.03757 -0.102218 -3.64 
2.99574 -0.100309 -3.572 
2.98284 -0.0993819 -3.539 
2.99761 -0.0993819 -3.539 
2.9843 -0.0984552 -3.506 
2.97242 -0.0975847 -3.475 
2.95943 -0.096686 -3.443 
2.9738 -0.096686 -3.443 
2.96214 -0.0958436 -3.413 
2.97639 -0.0958436 -3.413 
2.96348 -0.0949731 -3.382 
2.95207 -0.0941587 -3.353 
2.96607 -0.0941587 -3.353 
2.95429 -0.0933443 -3.324 
2.96817 -0.0933443 -3.324 
2.98205 -0.0933443 -3.324 
2.99593 -0.0933443 -3.324 
2.98355 -0.0925299 -3.295 
2.99731 -0.0925299 -3.295 
2.98548 -0.0917436 -3.267 
2.97341 -0.0909573 -3.239 
2.96204 -0.0901991 -3.212 
2.97545 -0.0901991 -3.212 
2.98886 -0.0901991 -3.212 
2.97704 -0.0894409 -3.185 
2.96592 -0.0887108 -3.159 
2.97911 -0.0887108 -3.159 
2.9923 -0.0887108 -3.159 
3.00549 -0.0887108 -3.159 
3.01868 -0.0887108 -3.159 
3.03187 -0.0887108 -3.159 
3.04506 -0.0887108 -3.159 
3.03308 -0.0879807 -3.133 
3.04616 -0.0879807 -3.133 
3.05925 -0.0879807 -3.133 
3.04683 -0.0872505 -3.107 
3.0598 -0.0872505 -3.107 
3.07278 -0.0872505 -3.107 
3.08575 -0.0872505 -3.107 
3.09872 -0.0872505 -3.107 
3.11169 -0.0872505 -3.107 
3.12467 -0.0872505 -3.107 
-1.49082 -0.0513858 -1.593 
-1.48417 -0.0513858 -1.593 
-1.47751 -0.0513858 -1.593 
-1.47086 -0.0513858 -1.593 
-1.46421 -0.0513858 -1.593 
-1.45756 -0.0513858 -1.593 
-1.45091 -0.0513858 -1.593 
-1.44426 -0.0513858 -1.593 
-1.44302 -0.0515794 -1.599 
-1.44263 -0.0518052 -1.606 
-1.44219 -0.052031 -1.613 
-1.43545 -0.052031 -1.613 
-1.43492 -0.0522568 -1.62 
-1.43344 -0.0524503 -1.626 
-1.43279 -0.0526761 -1.633 
-1.43209 -0.0529019 -1.64 
-1.43132 -0.0531277 -1.647 
-1.43137 -0.0533858 -1.655 
-1.43048 -0.0536116 -1.662 
-1.42954 -0.0538374 -1.669 
-1.42854 -0.0540632 -1.676 
-1.42154 -0.0540632 -1.676 
-1.42129 -0.0543213 -1.684 
-1.42014 -0.0545471 -1.691 
-1.41976 -0.0548051 -1.699 
-1.41267 -0.0548051 -1.699 
-1.41137 -0.0550309 -1.706 
-1.40424 -0.0550309 -1.706 
-1.40367 -0.055289 -1.714 
-1.40303 -0.055547 -1.722 
-1.39584 -0.055547 -1.722 
-1.3943 -0.0557728 -1.729 
-1.3935 -0.0560309 -1.737 
-1.39263 -0.0562889 -1.745 
-1.38534 -0.0562889 -1.745 
-1.38437 -0.056547 -1.753 
-1.38334 -0.0568051 -1.761 
-1.38224 -0.0570631 -1.769 
-1.37485 -0.0570631 -1.769 
-1.37442 -0.0573534 -1.778 
-1.37315 -0.0576115 -1.786 
-1.37181 -0.0578695 -1.794 
-1.37116 -0.0581599 -1.803 
-1.36969 -0.0584179 -1.811 
-1.36889 -0.0587082 -1.82 
-1.36803 -0.0589986 -1.829 
-1.36708 -0.0592889 -1.838 
-1.36533 -0.0595469 -1.846 
-1.36424 -0.0598372 -1.855 
-1.35649 -0.0598372 -1.855 
-1.35529 -0.0601276 -1.864 
-1.35474 -0.0604501 -1.874 
-1.35985 -0.0610308 -1.892 
-1.3591 -0.0613533 -1.902 
-1.35115 -0.0613533 -1.902 
-1.34957 -0.0616437 -1.911 
-1.34861 -0.0619662 -1.921 
-1.34687 -0.0622565 -1.93 
-1.34575 -0.0625791 -1.94 
-1.34454 -0.0629017 -1.95 
-1.34325 -0.0632243 -1.96 
-1.34188 -0.0635468 -1.97 
-1.34043 -0.0638694 -1.98 
-1.33956 -0.0642242 -1.991 
-1.33125 -0.0642242 -1.991 
-1.32958 -0.0645468 -2.001 
-1.32849 -0.0649016 -2.012 
-1.32009 -0.0649016 -2.012 
-1.3182 -0.0652242 -2.022 
-1.30976 -0.0652242 -2.022 
-1.3084 -0.065579 -2.033 
-1.30694 -0.0659339 -2.044 
-1.29841 -0.0659339 -2.044 
-1.28987 -0.0659339 -2.044 
-1.28134 -0.0659339 -2.044 
-1.27966 -0.0662887 -2.055 
-1.27107 -0.0662887 -2.055 
-1.26925 -0.0666435 -2.066 
-1.26063 -0.0666435 -2.066 
-1.252 -0.0666435 -2.066 
-1.24999 -0.0669984 -2.077 
-1.24132 -0.0669984 -2.077 
-1.23977 -0.0673854 -2.089 
-1.23753 -0.0677403 -2.1 
-1.22876 -0.0677403 -2.1 
-1.22697 -0.0681274 -2.112 
-1.22449 -0.0684822 -2.123 
-1.22937 -0.0692564 -2.147 
-1.22723 -0.0696435 -2.159 
-1.23232 -0.0704499 -2.184 
-1.2372 -0.0712563 -2.209 
-1.24243 -0.072095 -2.235 
-1.248 -0.072966 -2.262 
-1.25333 -0.0738369 -2.289 
-1.25845 -0.0747079 -2.316 
-1.25687 -0.0751917 -2.331 
-1.25462 -0.0756433 -2.345 
-1.25226 -0.0760949 -2.359 
-1.25031 -0.0765788 -2.374 
-1.24824 -0.0770626 -2.389 
-1.24604 -0.0775465 -2.404 
-1.24371 -0.0780303 -2.419 
-1.23361 -0.0780303 -2.419 
-1.2311 -0.0785142 -2.434 
-1.22896 -0.0790303 -2.45 
-1.21873 -0.0790303 -2.45 
-1.2164 -0.0795464 -2.466 
-1.2061 -0.0795464 -2.466 
-1.20356 -0.0800626 -2.482 
-1.20089 -0.0805787 -2.498 
-1.19856 -0.081127 -2.515 
-1.19562 -0.0816432 -2.531 
-1.20097 -0.0827399 -2.565 
-1.19815 -0.0832883 -2.582 
-1.20392 -0.0844495 -2.618 
-1.2012 -0.0850302 -2.636 
-1.19832 -0.0856108 -2.654 
-1.19573 -0.0862237 -2.673 
-1.19299 -0.0868366 -2.692 
-1.1901 -0.0874495 -2.711 
-1.18704 -0.0880624 -2.73 
-1.18425 -0.0887075 -2.75 
-1.1813 -0.0893527 -2.77 
-1.17818 -0.0899978 -2.79 
-1.17489 -0.0906429 -2.81 
-1.17185 -0.0913203 -2.831 
-1.16864 -0.0919978 -2.852 
-1.15673 -0.0919978 -2.852 
-1.15365 -0.0927074 -2.874 
-1.14165 -0.0927074 -2.874 
-1.1379 -0.0933848 -2.895 
-1.12582 -0.0933848 -2.895 
-1.12258 -0.0941267 -2.918 
-1.11039 -0.0941267 -2.918 
-1.10649 -0.0948364 -2.94 
-1.09421 -0.0948364 -2.94 
-1.08194 -0.0948364 -2.94 
-1.07803 -0.0955783 -2.963 
-1.07393 -0.0963202 -2.986 
-1.06146 -0.0963202 -2.986 
-1.05708 -0.0970621 -3.009 
-1.04451 -0.0970621 -3.009 
-1.04018 -0.0978363 -3.033 
-1.03599 -0.0986427 -3.058 
-1.03125 -0.0994169 -3.082 
-1.02664 -0.100223 -3.107 
-1.02215 -0.101062 -3.133 
-1.01744 -0.101901 -3.159 
-1.00425 -0.101901 -3.159 
-0.99922 -0.102739 -3.185 
-0.985921 -0.102739 -3.185 
-0.972623 -0.102739 -3.185 
-0.959324 -0.102739 -3.185 
-0.946026 -0.102739 -3.185 
-0.932727 -0.102739 -3.185 
-0.911923 -0.101901 -3.159 
-0.898733 -0.101901 -3.159 
-0.885543 -0.101901 -3.159 
-0.872353 -0.101901 -3.159 
-0.852092 -0.101062 -3.133 
-0.839011 -0.101062 -3.133 
-0.819075 -0.100223 -3.107 
-0.806102 -0.100223 -3.107 
-0.793129 -0.100223 -3.107 
-0.780157 -0.100223 -3.107 
-0.767184 -0.100223 -3.107 
-0.748142 -0.0994169 -3.082 
-0.735274 -0.0994169 -3.082 
-0.722405 -0.0994169 -3.082 
-0.715292 -0.100223 -3.107 
-0.702319 -0.100223 -3.107 
-0.689347 -0.100223 -3.107 
-0.676374 -0.100223 -3.107 
-0.663401 -0.100223 -3.107 
-0.650428 -0.100223 -3.107 
-0.637455 -0.100223 -3.107 
-0.629708 -0.101062 -3.133 
-0.621744 -0.101901 -3.159 
-0.608554 -0.101901 -3.159 
-0.600264 -0.102739 -3.185 
-0.586966 -0.102739 -3.185 
-0.573667 -0.102739 -3.185 
-0.560369 -0.102739 -3.185 
-0.54707 -0.102739 -3.185 
-0.529414 -0.101901 -3.159 
-0.516224 -0.101901 -3.159 
-0.494754 -0.100223 -3.107 
-0.477905 -0.0994169 -3.082 
-0.457643 -0.0978363 -3.033 
-0.441458 -0.0970621 -3.009 
-0.422337 -0.0955783 -2.963 
-0.406783 -0.0948364 -2.94 
-0.38847 -0.0933848 -2.895 
-0.376382 -0.0933848 -2.895 
-0.361652 -0.0927074 -2.874 
-0.349652 -0.0927074 -2.874 
-0.340119 -0.0933848 -2.895 
-0.330637 -0.0941267 -2.918 
-0.320855 -0.0948364 -2.94 
-0.313407 -0.0963202 -2.986 
-0.30094 -0.0963202 -2.986 
-0.290694 -0.0970621 -3.009 
-0.27813 -0.0970621 -3.009 
-0.267685 -0.0978363 -3.033 
-0.255021 -0.0978363 -3.033 
-0.242357 -0.0978363 -3.033 
-0.227876 -0.0970621 -3.009 
-0.215312 -0.0970621 -3.009 
-0.202748 -0.0970621 -3.009 
-0.190185 -0.0970621 -3.009 
-0.177621 -0.0970621 -3.009 
-0.165057 -0.0970621 -3.009 
-0.152494 -0.0970621 -3.009 
-0.13993 -0.0970621 -3.009 
-0.127366 -0.0970621 -3.009 
-0.114803 -0.0970621 -3.009 
-0.103055 -0.0978363 -3.033 
-0.0903908 -0.0978363 -3.033 
-0.0777269 -0.0978363 -3.033 
-0.0650631 -0.0978363 -3.033 
-0.0523992 -0.0978363 -3.033 
-0.0400629 -0.0986427 -3.058 
-0.0272946 -0.0986427 -3.058 
-0.0145264 -0.0986427 -3.058 
-0.00175813 -0.0986427 -3.058 
0.0109201 -0.0978363 -3.033 
0.023584 -0.0978363 -3.033 
0.035961 -0.0970621 -3.009 
0.0485247 -0.0970621 -3.009 
0.0610883 -0.0970621 -3.009 
0.073089 -0.0963202 -2.986 
0.0855566 -0.0963202 -2.986 
0.0980242 -0.0963202 -2.986 
0.110492 -0.0963202 -2.986 
0.122959 -0.0963202 -2.986 
0.135427 -0.0963202 -2.986 
0.147895 -0.0963202 -2.986 
0.159127 -0.0955783 -2.963 
0.171499 -0.0955783 -2.963 
0.18387 -0.0955783 -2.963 
0.196242 -0.0955783 -2.963 
0.208613 -0.0955783 -2.963 
0.220985 -0.0955783 -2.963 
0.233357 -0.0955783 -2.963 
0.245728 -0.0955783 -2.963 
0.2581 -0.0955783 -2.963 
0.270471 -0.0955783 -2.963 
0.282843 -0.0955783 -2.963 
0.297506 -0.0963202 -2.986 
0.309974 -0.0963202 -2.986 
0.322441 -0.0963202 -2.986 
0.334909 -0.0963202 -2.986 
0.347377 -0.0963202 -2.986 
0.359844 -0.0963202 -2.986 
0.37518 -0.0970621 -3.009 
0.384779 -0.0963202 -2.986 
0.400307 -0.0970621 -3.009 
0.409715 -0.0963202 -2.986 
0.422182 -0.0963202 -2.986 
0.43465 -0.0963202 -2.986 
0.447118 -0.0963202 -2.986 
0.456045 -0.0955783 -2.963 
0.468417 -0.0955783 -2.963 
0.480788 -0.0955783 -2.963 
0.49316 -0.0955783 -2.963 
0.505531 -0.0955783 -2.963 
0.521923 -0.0963202 -2.986 
0.542802 -0.0978363 -3.033 
0.56444 -0.0994169 -3.082 
0.591732 -0.101901 -3.159 
0.630965 -0.106288 -3.295 
0.679942 -0.112094 -3.475 
0.73442 -0.118545 -3.675 
0.803829 -0.127094 -3.94 
0.884196 -0.136997 -4.247 
0.966276 -0.146771 -4.55 
1.06106 -0.158061 -4.9 
1.17158 -0.171222 -5.308 
1.30236 -0.186802 -5.791 
1.41221 -0.198866 -6.165 
1.48577 -0.205479 -6.37 
1.5646 -0.212575 -6.59 
1.67885 -0.224156 -6.949 
1.77226 -0.232607 -7.211 
1.8731 -0.241736 -7.494 
1.98215 -0.251607 -7.8 
2.10047 -0.262316 -8.132 
2.22918 -0.273961 -8.493 
2.36997 -0.286703 -8.888 
2.46449 -0.293541 -9.1 
2.56354 -0.300702 -9.322 
2.66751 -0.308218 -9.555 
2.84993 -0.324444 -10.058 
2.97013 -0.333218 -10.33 
3.09698 -0.342476 -10.617 
3.14131 -0.342476 -10.617 
3.27656 -0.352249 -10.92 
3.41981 -0.362604 -11.241 
3.46674 -0.362604 -11.241 
3.51368 -0.362604 -11.241 
3.56061 -0.362604 -11.241 
3.60755 -0.362604 -11.241 
3.65448 -0.362604 -11.241 
3.59572 -0.352249 -10.92 
3.54028 -0.342476 -10.617 
3.48771 -0.333218 -10.33 
3.43787 -0.324444 -10.058 
3.47986 -0.324444 -10.058 
3.43152 -0.316121 -9.8 
3.47244 -0.316121 -9.8 
3.34199 -0.300702 -9.322 
3.3004 -0.293541 -9.1 
3.26062 -0.286703 -8.888 
3.15117 -0.273961 -8.493 
3.18664 -0.273961 -8.493 
3.15229 -0.268026 -8.309 
3.33158 -0.280187 -8.686 
3.44617 -0.286703 -8.888 
3.65337 -0.300702 -9.322 
3.88162 -0.316121 -9.8 
4.13468 -0.333218 -10.33 
4.54625 -0.362604 -11.241 
4.88044 -0.385281 -11.944 
5.08923 -0.3977 -12.329 
5.31208 -0.410958 -12.74 
5.36528 -0.410958 -12.74 
5.60518 -0.425119 -13.179 
5.66021 -0.425119 -13.179 
5.71524 -0.425119 -13.179 
5.77026 -0.425119 -13.179 
5.82529 -0.425119 -13.179 
5.68444 -0.410958 -12.74 
5.73763 -0.410958 -12.74 
5.99037 -0.425119 -13.179 
6.0454 -0.425119 -13.179 
5.89722 -0.410958 -12.74 
5.75845 -0.3977 -12.329 
6.0036 -0.410958 -12.74 
6.0568 -0.410958 -12.74 
6.54642 -0.440312 -13.65 
6.8482 -0.456634 -14.156 
7.17275 -0.474182 -14.7 
7.23412 -0.474182 -14.7 
7.2955 -0.474182 -14.7 
7.35688 -0.474182 -14.7 
7.41826 -0.474182 -14.7 
7.47964 -0.474182 -14.7 
7.26194 -0.456634 -14.156 
7.05936 -0.440312 -13.65 
6.8708 -0.425119 -13.179 
6.92583 -0.425119 -13.179 
6.74832 -0.410958 -12.74 
6.58209 -0.3977 -12.329 
6.23165 -0.373604 -11.582 
6.09511 -0.362604 -11.241 
5.64428 -0.333218 -10.33 
5.39561 -0.316121 -9.8 
5.30061 -0.308218 -9.555 
4.85481 -0.280187 -8.686 
4.57912 -0.262316 -8.132 
4.33624 -0.246575 -7.644 
4.12072 -0.232607 -7.211 
4.00001 -0.224156 -6.949 
3.82088 -0.212575 -6.59 
3.78299 -0.208963 -6.478 
3.68535 -0.202124 -6.266 
3.59364 -0.195705 -6.067 
3.50743 -0.189673 -5.88 
3.53198 -0.189673 -5.88 
3.5027 -0.186802 -5.791 
3.52688 -0.186802 -5.791 
3.44681 -0.181318 -5.621 
3.47028 -0.181318 -5.621 
3.44278 -0.178673 -5.539 
3.46591 -0.178673 -5.539 
3.43928 -0.176125 -5.46 
3.46207 -0.176125 -5.46 
3.53529 -0.178673 -5.539 
3.55842 -0.178673 -5.539 
3.58155 -0.178673 -5.539 
3.55326 -0.176125 -5.46 
3.57606 -0.176125 -5.46 
3.65093 -0.178673 -5.539 
3.62166 -0.176125 -5.46 
3.64445 -0.176125 -5.46 
3.66725 -0.176125 -5.46 
3.69005 -0.176125 -5.46 
3.66049 -0.173641 -5.383 
3.63165 -0.171222 -5.308 
3.65381 -0.171222 -5.308 
3.62611 -0.168899 -5.236 
3.59851 -0.166609 -5.165 
3.57171 -0.164383 -5.096 
3.59299 -0.164383 -5.096 
3.56675 -0.162222 -5.029 
3.58775 -0.162222 -5.029 
3.60874 -0.162222 -5.029 
3.58283 -0.160125 -4.964 
3.55709 -0.158061 -4.9 
3.48848 -0.154125 -4.778 
3.42252 -0.150351 -4.661 
3.40062 -0.148545 -4.605 
3.33965 -0.145061 -4.497 
3.28075 -0.141706 -4.393 
3.26155 -0.140093 -4.343 
3.24268 -0.138513 -4.294 
3.22492 -0.136997 -4.247 
3.20677 -0.135481 -4.2 
3.18899 -0.133997 -4.154 
3.20633 -0.133997 -4.154 
3.18953 -0.132577 -4.11 
3.17236 -0.131158 -4.066 
3.15561 -0.129771 -4.023 
3.13929 -0.128416 -3.981 
3.15591 -0.128416 -3.981 
3.10798 -0.125803 -3.9 
3.09302 -0.124545 -3.861 
3.07774 -0.123287 -3.822 
3.0937 -0.123287 -3.822 
3.07874 -0.122062 -3.784 
3.06428 -0.120868 -3.747 
3.05033 -0.119707 -3.711 
3.06583 -0.119707 -3.711 
3.05143 -0.118545 -3.675 
3.00919 -0.11632 -3.606 
3.02425 -0.11632 -3.606 
3.01065 -0.115223 -3.572 
2.99761 -0.114159 -3.539 
2.9843 -0.113094 -3.506 
2.97242 -0.112094 -3.475 
2.98693 -0.112094 -3.475 
2.9738 -0.111062 -3.443 
2.96214 -0.110094 -3.413 
2.94936 -0.109094 -3.382 
2.96348 -0.109094 -3.382 
2.95207 -0.108159 -3.353 
2.96607 -0.108159 -3.353 
2.98007 -0.108159 -3.353 
2.99407 -0.108159 -3.353 
2.98205 -0.107223 -3.324 
2.99593 -0.107223 -3.324 
3.00981 -0.107223 -3.324 
2.99731 -0.106288 -3.295 
3.01106 -0.106288 -3.295 
2.99912 -0.105385 -3.267 
2.98694 -0.104481 -3.239 
2.97545 -0.10361 -3.212 
2.98886 -0.10361 -3.212 
3.00227 -0.10361 -3.212 
2.99033 -0.102739 -3.185 
3.00363 -0.102739 -3.185 
3.01693 -0.102739 -3.185 
3.05592 -0.10361 -3.212 
3.06933 -0.10361 -3.212 
3.08274 -0.10361 -3.212 
3.07013 -0.102739 -3.185 
3.10956 -0.10361 -3.212 
3.09672 -0.102739 -3.185 
3.08463 -0.101901 -3.159 
3.07233 -0.101062 -3.133 
3.08541 -0.101062 -3.133 
3.09849 -0.101062 -3.133 
3.11157 -0.101062 -3.133 
3.12465 -0.101062 -3.133 
3.13773 -0.101062 -3.133 
-1.49082 -0.0580372 -1.593 
-1.48417 -0.0580372 -1.593 
-1.47751 -0.0580372 -1.593 
-1.47086 -0.0580372 -1.593 
-1.46421 -0.0580372 -1.593 
-1.45116 -0.0577822 -1.586 
-1.45091 -0.0580372 -1.593 
-1.44426 -0.0580372 -1.593 
-1.44302 -0.0582558 -1.599 
-1.43634 -0.0582558 -1.599 
-1.43593 -0.0585108 -1.606 
-1.43545 -0.0587658 -1.613 
-1.43492 -0.0590209 -1.62 
-1.43344 -0.0592395 -1.626 
-1.43279 -0.0594945 -1.633 
-1.43209 -0.0597495 -1.64 
-1.43132 -0.0600045 -1.647 
-1.43137 -0.060296 -1.655 
-1.43048 -0.060551 -1.662 
-1.42954 -0.0608061 -1.669 
-1.42854 -0.0610611 -1.676 
-1.42154 -0.0610611 -1.676 
-1.42129 -0.0613526 -1.684 
-1.42014 -0.0616076 -1.691 
-1.41976 -0.061899 -1.699 
-1.41267 -0.061899 -1.699 
-1.41137 -0.0621541 -1.706 
-1.40424 -0.0621541 -1.706 
-1.40367 -0.0624455 -1.714 
-1.40303 -0.062737 -1.722 
-1.39584 -0.062737 -1.722 
-1.3943 -0.062992 -1.729 
-1.3935 -0.0632835 -1.737 
-1.38624 -0.0632835 -1.737 
-1.38534 -0.0635749 -1.745 
-1.38437 -0.0638664 -1.753 
-1.38334 -0.0641579 -1.761 
-1.38224 -0.0644493 -1.769 
-1.37485 -0.0644493 -1.769 
-1.37442 -0.0647772 -1.778 
-1.37315 -0.0650687 -1.786 
-1.37181 -0.0653601 -1.794 
-1.37116 -0.065688 -1.803 
-1.36969 -0.0659795 -1.811 
-1.36889 -0.0663074 -1.82 
-1.36803 -0.0666353 -1.829 
-1.36708 -0.0669632 -1.838 
-1.36533 -0.0672546 -1.846 
-1.36424 -0.0675825 -1.855 
-1.36307 -0.0679104 -1.864 
-1.36256 -0.0682748 -1.874 
-1.36124 -0.0686027 -1.883 
-1.35985 -0.0689305 -1.892 
-1.3591 -0.0692949 -1.902 
-1.35755 -0.0696228 -1.911 
-1.34957 -0.0696228 -1.911 
-1.34861 -0.0699871 -1.921 
-1.34687 -0.070315 -1.93 
-1.34575 -0.0706793 -1.94 
-1.34454 -0.0710436 -1.95 
-1.34325 -0.071408 -1.96 
-1.34188 -0.0717723 -1.97 
-1.33366 -0.0717723 -1.97 
-1.33956 -0.0725374 -1.991 
-1.33125 -0.0725374 -1.991 
-1.32958 -0.0729017 -2.001 
-1.32849 -0.0733025 -2.012 
-1.32009 -0.0733025 -2.012 
-1.3182 -0.0736668 -2.022 
-1.30976 -0.0736668 -2.022 
-1.3084 -0.0740675 -2.033 
-1.30694 -0.0744683 -2.044 
-1.29841 -0.0744683 -2.044 
-1.28987 -0.0744683 -2.044 
-1.28824 -0.0748691 -2.055 
-1.27966 -0.0748691 -2.055 
-1.27788 -0.0752698 -2.066 
-1.26925 -0.0752698 -2.066 
-1.26734 -0.0756706 -2.077 
-1.25867 -0.0756706 -2.077 
-1.25722 -0.0761078 -2.089 
-1.24849 -0.0761078 -2.089 
-1.23977 -0.0761078 -2.089 
-1.23753 -0.0765085 -2.1 
-1.23578 -0.0769457 -2.112 
-1.22697 -0.0769457 -2.112 
-1.22449 -0.0773465 -2.123 
-1.22937 -0.0782209 -2.147 
-1.23462 -0.0791317 -2.172 
-1.23965 -0.0800425 -2.197 
-1.24448 -0.0809533 -2.222 
-1.24966 -0.0819006 -2.248 
-1.25517 -0.0828842 -2.275 
-1.26045 -0.0838679 -2.302 
-1.25845 -0.084378 -2.316 
-1.25687 -0.0849245 -2.331 
-1.25462 -0.0854345 -2.345 
-1.25226 -0.0859446 -2.359 
-1.25031 -0.0864911 -2.374 
-1.24824 -0.0870376 -2.389 
-1.24604 -0.087584 -2.404 
-1.24371 -0.0881305 -2.419 
-1.23361 -0.0881305 -2.419 
-1.2311 -0.088677 -2.434 
-1.22896 -0.0892599 -2.45 
-1.21873 -0.0892599 -2.45 
-1.2164 -0.0898429 -2.466 
-1.2061 -0.0898429 -2.466 
-1.20356 -0.0904258 -2.482 
-1.20089 -0.0910087 -2.498 
-1.19856 -0.0916281 -2.515 
-1.20365 -0.0928303 -2.548 
-1.20097 -0.0934497 -2.565 
-1.19815 -0.0940691 -2.582 
-1.20392 -0.0953806 -2.618 
-1.2012 -0.0960364 -2.636 
-1.19832 -0.0966922 -2.654 
-1.20423 -0.0980766 -2.692 
-1.19299 -0.0980766 -2.692 
-1.1901 -0.0987689 -2.711 
-1.18704 -0.0994611 -2.73 
-1.18425 -0.10019 -2.75 
-1.1813 -0.100918 -2.77 
-1.17818 -0.101647 -2.79 
-1.17489 -0.102376 -2.81 
-1.17185 -0.103141 -2.831 
-1.16864 -0.103906 -2.852 
-1.15673 -0.103906 -2.852 
-1.15365 -0.104707 -2.874 
-1.14165 -0.104707 -2.874 
-1.1379 -0.105472 -2.895 
-1.12582 -0.105472 -2.895 
-1.12258 -0.10631 -2.918 
-1.11039 -0.10631 -2.918 
-1.10649 -0.107112 -2.94 
-1.09421 -0.107112 -2.94 
-1.0904 -0.10795 -2.963 
-1.07803 -0.10795 -2.963 
-1.07393 -0.108788 -2.986 
-1.06146 -0.108788 -2.986 
-1.05708 -0.109626 -3.009 
-1.05284 -0.1105 -3.033 
-1.04875 -0.111411 -3.058 
-1.03599 -0.111411 -3.058 
-1.03125 -0.112285 -3.082 
-1.02664 -0.113196 -3.107 
-1.02215 -0.114143 -3.133 
-1.00907 -0.114143 -3.133 
-0.995987 -0.114143 -3.133 
-0.991063 -0.115091 -3.159 
-0.977873 -0.115091 -3.159 
-0.964683 -0.115091 -3.159 
-0.959324 -0.116038 -3.185 
-0.946026 -0.116038 -3.185 
-0.925113 -0.115091 -3.159 
-0.911923 -0.115091 -3.159 
-0.898733 -0.115091 -3.159 
-0.892832 -0.116038 -3.185 
-0.872353 -0.115091 -3.159 
-0.859163 -0.115091 -3.159 
-0.839011 -0.114143 -3.133 
-0.825929 -0.114143 -3.133 
-0.806102 -0.113196 -3.107 
-0.793129 -0.113196 -3.107 
-0.780157 -0.113196 -3.107 
-0.761011 -0.112285 -3.082 
-0.748142 -0.112285 -3.082 
-0.735274 -0.112285 -3.082 
-0.722405 -0.112285 -3.082 
-0.709537 -0.112285 -3.082 
-0.696668 -0.112285 -3.082 
-0.6838 -0.112285 -3.082 
-0.670932 -0.112285 -3.082 
-0.658063 -0.112285 -3.082 
-0.645195 -0.112285 -3.082 
-0.637455 -0.113196 -3.107 
-0.624482 -0.113196 -3.107 
-0.61151 -0.113196 -3.107 
-0.603545 -0.114143 -3.133 
-0.595364 -0.115091 -3.159 
-0.582174 -0.115091 -3.159 
-0.568984 -0.115091 -3.159 
-0.555794 -0.115091 -3.159 
-0.54707 -0.116038 -3.185 
-0.529414 -0.115091 -3.159 
-0.516224 -0.115091 -3.159 
-0.498894 -0.114143 -3.133 
-0.477905 -0.112285 -3.082 
-0.457643 -0.1105 -3.033 
-0.441458 -0.109626 -3.009 
-0.425616 -0.108788 -2.986 
-0.406783 -0.107112 -2.94 
-0.391556 -0.10631 -2.918 
-0.376382 -0.105472 -2.895 
-0.361652 -0.104707 -2.874 
-0.349652 -0.104707 -2.874 
-0.340119 -0.105472 -2.895 
-0.330637 -0.10631 -2.918 
-0.320855 -0.107112 -2.94 
-0.313407 -0.108788 -2.986 
-0.30094 -0.108788 -2.986 
-0.290694 -0.109626 -3.009 
-0.280349 -0.1105 -3.033 
-0.267685 -0.1105 -3.033 
-0.255021 -0.1105 -3.033 
-0.242357 -0.1105 -3.033 
-0.229693 -0.1105 -3.033 
-0.217029 -0.1105 -3.033 
-0.202748 -0.109626 -3.009 
-0.191702 -0.1105 -3.033 
-0.177621 -0.109626 -3.009 
-0.165057 -0.109626 -3.009 
-0.152494 -0.109626 -3.009 
-0.13993 -0.109626 -3.009 
-0.127366 -0.109626 -3.009 
-0.114803 -0.109626 -3.009 
-0.103055 -0.1105 -3.033 
-0.0903908 -0.1105 -3.033 
-0.0777269 -0.1105 -3.033 
-0.0655993 -0.111411 -3.058 
-0.0528311 -0.111411 -3.058 
-0.0403773 -0.112285 -3.082 
-0.0275088 -0.112285 -3.082 
-0.0146404 -0.112285 -3.082 
-0.00175813 -0.111411 -3.058 
0.0110101 -0.111411 -3.058 
0.023584 -0.1105 -3.033 
0.035961 -0.109626 -3.009 
0.0485247 -0.109626 -3.009 
0.0606214 -0.108788 -2.986 
0.073089 -0.108788 -2.986 
0.0848976 -0.10795 -2.963 
0.0972692 -0.10795 -2.963 
0.109641 -0.10795 -2.963 
0.122012 -0.10795 -2.963 
0.134384 -0.10795 -2.963 
0.146756 -0.10795 -2.963 
0.157892 -0.107112 -2.94 
0.170167 -0.107112 -2.94 
0.181078 -0.10631 -2.918 
0.193261 -0.10631 -2.918 
0.205445 -0.10631 -2.918 
0.21927 -0.107112 -2.94 
0.231545 -0.107112 -2.94 
0.243821 -0.107112 -2.94 
0.256096 -0.107112 -2.94 
0.270471 -0.10795 -2.963 
0.282843 -0.10795 -2.963 
0.295215 -0.10795 -2.963 
0.309974 -0.108788 -2.986 
0.322441 -0.108788 -2.986 
0.334909 -0.108788 -2.986 
0.347377 -0.108788 -2.986 
0.359844 -0.108788 -2.986 
0.372312 -0.108788 -2.986 
0.384779 -0.108788 -2.986 
0.397247 -0.108788 -2.986 
0.409715 -0.108788 -2.986 
0.422182 -0.108788 -2.986 
0.43465 -0.108788 -2.986 
0.443674 -0.10795 -2.963 
0.456045 -0.10795 -2.963 
0.468417 -0.10795 -2.963 
0.480788 -0.10795 -2.963 
0.489332 -0.107112 -2.94 
0.505531 -0.10795 -2.963 
0.521923 -0.108788 -2.986 
0.538507 -0.109626 -3.009 
0.56444 -0.112285 -3.082 
0.591732 -0.115091 -3.159 
0.630965 -0.120046 -3.295 
0.679942 -0.126603 -3.475 
0.73442 -0.13389 -3.675 
0.803829 -0.143545 -3.94 
0.874411 -0.153017 -4.2 
0.95502 -0.163838 -4.497 
1.04764 -0.176261 -4.838 
1.15568 -0.190761 -5.236 
1.28302 -0.207848 -5.705 
1.368 -0.217576 -5.972 
1.46151 -0.228287 -6.266 
1.53801 -0.236011 -6.478 
1.6199 -0.244281 -6.705 
1.73957 -0.25787 -7.078 
1.83711 -0.26778 -7.35 
1.94251 -0.278491 -7.644 
2.05682 -0.290113 -7.963 
2.18088 -0.302719 -8.309 
2.26464 -0.309422 -8.493 
2.35237 -0.316454 -8.686 
2.44419 -0.323813 -8.888 
2.60246 -0.339625 -9.322 
2.7074 -0.348114 -9.555 
2.89192 -0.366439 -10.058 
3.01326 -0.376349 -10.33 
3.05639 -0.376349 -10.33 
3.18564 -0.386805 -10.617 
3.32215 -0.397844 -10.92 
3.36774 -0.397844 -10.92 
3.41334 -0.397844 -10.92 
3.45893 -0.397844 -10.92 
3.50453 -0.397844 -10.92 
3.45162 -0.386805 -10.617 
3.49595 -0.386805 -10.617 
3.54028 -0.386805 -10.617 
3.48771 -0.376349 -10.33 
3.43787 -0.366439 -10.058 
3.47986 -0.366439 -10.058 
3.43152 -0.35704 -9.8 
3.38563 -0.348114 -9.555 
3.2624 -0.331537 -9.1 
3.22351 -0.323813 -8.888 
3.11571 -0.309422 -8.493 
3.0829 -0.302719 -8.309 
3.05119 -0.29627 -8.132 
3.02102 -0.290113 -7.963 
3.11909 -0.29627 -8.132 
3.15305 -0.29627 -8.132 
3.32848 -0.309422 -8.493 
3.5204 -0.323813 -8.888 
3.73122 -0.339625 -9.322 
4.06781 -0.366439 -10.058 
4.22094 -0.376349 -10.33 
4.50762 -0.397844 -10.92 
4.68706 -0.409539 -11.241 
4.73399 -0.409539 -11.241 
4.78093 -0.409539 -11.241 
4.82786 -0.409539 -11.241 
4.73559 -0.397844 -10.92 
4.78119 -0.397844 -10.92 
4.69285 -0.386805 -10.617 
4.60913 -0.376349 -10.33 
4.65226 -0.376349 -10.33 
4.69539 -0.376349 -10.33 
4.87017 -0.386805 -10.617 
5.05476 -0.397844 -10.92 
5.10035 -0.397844 -10.92 
5.29721 -0.409539 -11.241 
5.67837 -0.435151 -11.944 
6.32053 -0.480146 -13.179 
6.8482 -0.51574 -14.156 
6.90731 -0.51574 -14.156 
6.96641 -0.51574 -14.156 
7.02552 -0.51574 -14.156 
7.35688 -0.53556 -14.7 
7.41826 -0.53556 -14.7 
7.20284 -0.51574 -14.156 
7.26194 -0.51574 -14.156 
6.81578 -0.480146 -13.179 
6.64193 -0.464152 -12.74 
6.69513 -0.464152 -12.74 
6.53062 -0.449178 -12.329 
6.18329 -0.421963 -11.582 
6.04818 -0.409539 -11.241 
5.92106 -0.397844 -10.92 
5.49566 -0.366439 -10.058 
5.39561 -0.35704 -9.8 
5.17136 -0.339625 -9.322 
4.96771 -0.323813 -8.888 
4.57912 -0.29627 -8.132 
4.33624 -0.278491 -7.644 
4.20015 -0.26778 -7.35 
4.00001 -0.25317 -6.949 
3.88756 -0.244281 -6.705 
3.8484 -0.240091 -6.59 
3.68535 -0.228287 -6.266 
3.59364 -0.221037 -6.067 
3.56231 -0.217576 -5.972 
3.58724 -0.217576 -5.972 
3.55653 -0.214224 -5.88 
3.52688 -0.210981 -5.791 
3.49832 -0.207848 -5.705 
3.47028 -0.204788 -5.621 
3.49375 -0.204788 -5.621 
3.46591 -0.2018 -5.539 
3.48904 -0.2018 -5.539 
3.51217 -0.2018 -5.539 
3.48487 -0.198922 -5.46 
3.55842 -0.2018 -5.539 
3.58155 -0.2018 -5.539 
3.55326 -0.198922 -5.46 
3.57606 -0.198922 -5.46 
3.65093 -0.2018 -5.539 
3.67406 -0.2018 -5.539 
3.64445 -0.198922 -5.46 
3.66725 -0.198922 -5.46 
3.69005 -0.198922 -5.46 
3.66049 -0.196117 -5.383 
3.63165 -0.193384 -5.308 
3.65381 -0.193384 -5.308 
3.62611 -0.190761 -5.236 
3.59851 -0.188175 -5.165 
3.57171 -0.185661 -5.096 
3.59299 -0.185661 -5.096 
3.56675 -0.18322 -5.029 
3.58775 -0.18322 -5.029 
3.60874 -0.18322 -5.029 
3.58283 -0.180852 -4.964 
3.55709 -0.17852 -4.9 
3.53229 -0.176261 -4.838 
3.46511 -0.171926 -4.719 
3.44198 -0.169813 -4.661 
3.37901 -0.165768 -4.55 
3.35842 -0.163838 -4.497 
3.2991 -0.160049 -4.393 
3.24268 -0.156442 -4.294 
3.26061 -0.156442 -4.294 
3.24265 -0.154729 -4.247 
3.26038 -0.154729 -4.247 
3.24184 -0.153017 -4.2 
3.18953 -0.149738 -4.11 
3.20669 -0.149738 -4.11 
3.15561 -0.146568 -4.023 
3.17241 -0.146568 -4.023 
3.15591 -0.145038 -3.981 
3.10798 -0.142087 -3.9 
3.09302 -0.140666 -3.861 
3.10914 -0.140666 -3.861 
3.0937 -0.139246 -3.822 
3.07874 -0.137861 -3.784 
3.09454 -0.137861 -3.784 
3.07992 -0.136513 -3.747 
3.06583 -0.135201 -3.711 
3.02237 -0.132615 -3.64 
3.03757 -0.132615 -3.64 
3.02425 -0.131376 -3.606 
3.01065 -0.130137 -3.572 
2.99761 -0.128935 -3.539 
2.9843 -0.127733 -3.506 
2.97242 -0.126603 -3.475 
2.95943 -0.125438 -3.443 
2.94789 -0.124345 -3.413 
2.93524 -0.123215 -3.382 
2.94936 -0.123215 -3.382 
2.96348 -0.123215 -3.382 
2.9776 -0.123215 -3.382 
2.96607 -0.122159 -3.353 
2.98007 -0.122159 -3.353 
2.99407 -0.122159 -3.353 
3.00807 -0.122159 -3.353 
3.02207 -0.122159 -3.353 
3.00981 -0.121102 -3.324 
3.02369 -0.121102 -3.324 
3.03757 -0.121102 -3.324 
3.02482 -0.120046 -3.295 
3.01276 -0.119025 -3.267 
3.0264 -0.119025 -3.267 
3.01399 -0.118005 -3.239 
3.02751 -0.118005 -3.239 
3.04103 -0.118005 -3.239 
3.05456 -0.118005 -3.239 
3.06808 -0.118005 -3.239 
3.10825 -0.119025 -3.267 
3.09513 -0.118005 -3.239 
3.10865 -0.118005 -3.239 
3.12218 -0.118005 -3.239 
3.10956 -0.117022 -3.212 
3.12297 -0.117022 -3.212 
3.11002 -0.116038 -3.185 
3.09782 -0.115091 -3.159 
3.11101 -0.115091 -3.159 
3.09849 -0.114143 -3.133 
3.11157 -0.114143 -3.133 
3.12465 -0.114143 -3.133 
3.13773 -0.114143 -3.133 
-1.47764 -0.0644043 -1.586 
-1.47102 -0.0644043 -1.586 
-1.4644 -0.0644043 -1.586 
-1.45778 -0.0644043 -1.586 
-1.45116 -0.0644043 -1.586 
-1.44453 -0.0644043 -1.586 
-1.44426 -0.0646885 -1.593 
-1.43761 -0.0646885 -1.593 
-1.43634 -0.0649322 -1.599 
-1.43593 -0.0652164 -1.606 
-1.43545 -0.0655007 -1.613 
-1.43492 -0.0657849 -1.62 
-1.43344 -0.0660286 -1.626 
-1.43279 -0.0663128 -1.633 
-1.43209 -0.0665971 -1.64 
-1.43132 -0.0668814 -1.647 
-1.43137 -0.0672062 -1.655 
-1.43048 -0.0674905 -1.662 
-1.42954 -0.0677747 -1.669 
-1.42854 -0.068059 -1.676 
-1.42154 -0.068059 -1.676 
-1.42129 -0.0683839 -1.684 
-1.42014 -0.0686681 -1.691 
-1.41976 -0.068993 -1.699 
-1.41267 -0.068993 -1.699 
-1.41137 -0.0692772 -1.706 
-1.40424 -0.0692772 -1.706 
-1.40367 -0.0696021 -1.714 
-1.40303 -0.069927 -1.722 
-1.39584 -0.069927 -1.722 
-1.3943 -0.0702112 -1.729 
-1.3935 -0.0705361 -1.737 
-1.38624 -0.0705361 -1.737 
-1.38534 -0.0708609 -1.745 
-1.38437 -0.0711858 -1.753 
-1.37706 -0.0711858 -1.753 
-1.37599 -0.0715107 -1.761 
-1.37485 -0.0718355 -1.769 
-1.37442 -0.072201 -1.778 
-1.37315 -0.0725259 -1.786 
-1.37181 -0.0728507 -1.794 
-1.37116 -0.0732162 -1.803 
-1.36969 -0.0735411 -1.811 
-1.36889 -0.0739065 -1.82 
-1.36803 -0.074272 -1.829 
-1.36708 -0.0746375 -1.838 
-1.36533 -0.0749623 -1.846 
-1.36424 -0.0753278 -1.855 
-1.36307 -0.0756933 -1.864 
-1.36256 -0.0760994 -1.874 
-1.36124 -0.0764648 -1.883 
-1.35985 -0.0768303 -1.892 
-1.3591 -0.0772364 -1.902 
-1.35755 -0.0776019 -1.911 
-1.35663 -0.078008 -1.921 
-1.34861 -0.078008 -1.921 
-1.34687 -0.0783734 -1.93 
-1.34575 -0.0787795 -1.94 
-1.34454 -0.0791856 -1.95 
-1.34325 -0.0795917 -1.96 
-1.33507 -0.0795917 -1.96 
-1.33366 -0.0799977 -1.97 
-1.33216 -0.0804038 -1.98 
-1.33125 -0.0808505 -1.991 
-1.32958 -0.0812566 -2.001 
-1.32849 -0.0817033 -2.012 
-1.32009 -0.0817033 -2.012 
-1.3182 -0.0821094 -2.022 
-1.30976 -0.0821094 -2.022 
-1.3084 -0.082556 -2.033 
-1.30694 -0.0830027 -2.044 
-1.29841 -0.0830027 -2.044 
-1.29682 -0.0834494 -2.055 
-1.28824 -0.0834494 -2.055 
-1.2865 -0.0838961 -2.066 
-1.28468 -0.0843428 -2.077 
-1.27601 -0.0843428 -2.077 
-1.27466 -0.0848301 -2.089 
-1.26594 -0.0848301 -2.089 
-1.25722 -0.0848301 -2.089 
-1.25507 -0.0852768 -2.1 
-1.2463 -0.0852768 -2.1 
-1.2446 -0.0857641 -2.112 
-1.23578 -0.0857641 -2.112 
-1.23336 -0.0862108 -2.123 
-1.23141 -0.0866981 -2.135 
-1.23624 -0.0876727 -2.159 
-1.23462 -0.0882006 -2.172 
-1.23965 -0.0892158 -2.197 
-1.24448 -0.090231 -2.222 
-1.24966 -0.0912868 -2.248 
-1.25517 -0.0923832 -2.275 
-1.26045 -0.0934796 -2.302 
-1.25845 -0.0940481 -2.316 
-1.25687 -0.0946572 -2.331 
-1.25462 -0.0952257 -2.345 
-1.25226 -0.0957943 -2.359 
-1.25031 -0.0964034 -2.374 
-1.24824 -0.0970125 -2.389 
-1.24604 -0.0976216 -2.404 
-1.24371 -0.0982307 -2.419 
-1.23361 -0.0982307 -2.419 
-1.2311 -0.0988398 -2.434 
-1.22896 -0.0994896 -2.45 
-1.22669 -0.100139 -2.466 
-1.2164 -0.100139 -2.466 
-1.2061 -0.100139 -2.466 
-1.20356 -0.100789 -2.482 
-1.20089 -0.101439 -2.498 
-1.19856 -0.102129 -2.515 
-1.20365 -0.103469 -2.548 
-1.20097 -0.104159 -2.565 
-1.19815 -0.10485 -2.582 
-1.20392 -0.106312 -2.618 
-1.2012 -0.107043 -2.636 
-1.19832 -0.107774 -2.654 
-1.20423 -0.109317 -2.692 
-1.19299 -0.109317 -2.692 
-1.1901 -0.110088 -2.711 
-1.18704 -0.11086 -2.73 
-1.18425 -0.111672 -2.75 
-1.1813 -0.112484 -2.77 
-1.17818 -0.113296 -2.79 
-1.17489 -0.114108 -2.81 
-1.17185 -0.114961 -2.831 
-1.16864 -0.115814 -2.852 
-1.15673 -0.115814 -2.852 
-1.15365 -0.116707 -2.874 
-1.14999 -0.11756 -2.895 
-1.1379 -0.11756 -2.895 
-1.13476 -0.118494 -2.918 
-1.12258 -0.118494 -2.918 
-1.11039 -0.118494 -2.918 
-1.10649 -0.119387 -2.94 
-1.10277 -0.120321 -2.963 
-1.0904 -0.120321 -2.963 
-1.0864 -0.121255 -2.986 
-1.07393 -0.121255 -2.986 
-1.06964 -0.122189 -3.009 
-1.06551 -0.123164 -3.033 
-1.05284 -0.123164 -3.033 
-1.04875 -0.124179 -3.058 
-1.03599 -0.124179 -3.058 
-1.03125 -0.125154 -3.082 
-1.02664 -0.126169 -3.107 
-1.01367 -0.126169 -3.107 
-1.00907 -0.127225 -3.133 
-0.995987 -0.127225 -3.133 
-0.982906 -0.127225 -3.133 
-0.977873 -0.128281 -3.159 
-0.964683 -0.128281 -3.159 
-0.967457 -0.130433 -3.212 
-0.946026 -0.129336 -3.185 
-0.925113 -0.128281 -3.159 
-0.911923 -0.128281 -3.159 
-0.898733 -0.128281 -3.159 
-0.892832 -0.129336 -3.185 
-0.872353 -0.128281 -3.159 
-0.859163 -0.128281 -3.159 
-0.845973 -0.128281 -3.159 
-0.825929 -0.127225 -3.133 
-0.812848 -0.127225 -3.133 
-0.793129 -0.126169 -3.107 
-0.780157 -0.126169 -3.107 
-0.761011 -0.125154 -3.082 
-0.748142 -0.125154 -3.082 
-0.735274 -0.125154 -3.082 
-0.722405 -0.125154 -3.082 
-0.709537 -0.125154 -3.082 
-0.691243 -0.124179 -3.058 
-0.678475 -0.124179 -3.058 
-0.665707 -0.124179 -3.058 
-0.652939 -0.124179 -3.058 
-0.64017 -0.124179 -3.058 
-0.632326 -0.125154 -3.082 
-0.624482 -0.126169 -3.107 
-0.61151 -0.126169 -3.107 
-0.598537 -0.126169 -3.107 
-0.590464 -0.127225 -3.133 
-0.582174 -0.128281 -3.159 
-0.568984 -0.128281 -3.159 
-0.555794 -0.128281 -3.159 
-0.542604 -0.128281 -3.159 
-0.529414 -0.128281 -3.159 
-0.511976 -0.127225 -3.133 
-0.494754 -0.126169 -3.107 
-0.477905 -0.125154 -3.082 
-0.457643 -0.123164 -3.033 
-0.441458 -0.122189 -3.009 
-0.425616 -0.121255 -2.986 
-0.409966 -0.120321 -2.963 
-0.391556 -0.118494 -2.918 
-0.376382 -0.11756 -2.895 
-0.364294 -0.11756 -2.895 
-0.352207 -0.11756 -2.895 
-0.342821 -0.118494 -2.918 
-0.33313 -0.119387 -2.94 
-0.323365 -0.120321 -2.963 
-0.313407 -0.121255 -2.986 
-0.303258 -0.122189 -3.009 
-0.293013 -0.123164 -3.033 
-0.280349 -0.123164 -3.033 
-0.267685 -0.123164 -3.033 
-0.257123 -0.124179 -3.058 
-0.242357 -0.123164 -3.033 
-0.229693 -0.123164 -3.033 
-0.217029 -0.123164 -3.033 
-0.204366 -0.123164 -3.033 
-0.191702 -0.123164 -3.033 
-0.179038 -0.123164 -3.033 
-0.166374 -0.123164 -3.033 
-0.15371 -0.123164 -3.033 
-0.141046 -0.123164 -3.033 
-0.127366 -0.122189 -3.009 
-0.115718 -0.123164 -3.033 
-0.103055 -0.123164 -3.033 
-0.0911358 -0.124179 -3.058 
-0.0783676 -0.124179 -3.058 
-0.0655993 -0.124179 -3.058 
-0.0528311 -0.124179 -3.058 
-0.0403773 -0.125154 -3.082 
-0.0275088 -0.125154 -3.082 
-0.0146404 -0.125154 -3.082 
-0.00175813 -0.124179 -3.058 
0.0110101 -0.124179 -3.058 
0.0237784 -0.124179 -3.058 
0.0362478 -0.123164 -3.033 
0.0485247 -0.122189 -3.009 
0.0606214 -0.121255 -2.986 
0.073089 -0.121255 -2.986 
0.0848976 -0.120321 -2.963 
0.0972692 -0.120321 -2.963 
0.109641 -0.120321 -2.963 
0.122012 -0.120321 -2.963 
0.133341 -0.119387 -2.94 
0.145616 -0.119387 -2.94 
0.15671 -0.118494 -2.918 
0.168894 -0.118494 -2.918 
0.181078 -0.118494 -2.918 
0.193261 -0.118494 -2.918 
0.205445 -0.118494 -2.918 
0.217629 -0.118494 -2.918 
0.229813 -0.118494 -2.918 
0.243821 -0.119387 -2.94 
0.256096 -0.119387 -2.94 
0.268372 -0.119387 -2.94 
0.280647 -0.119387 -2.94 
0.295215 -0.120321 -2.963 
0.307586 -0.120321 -2.963 
0.319958 -0.120321 -2.963 
0.334909 -0.121255 -2.986 
0.347377 -0.121255 -2.986 
0.359844 -0.121255 -2.986 
0.372312 -0.121255 -2.986 
0.384779 -0.121255 -2.986 
0.397247 -0.121255 -2.986 
0.409715 -0.121255 -2.986 
0.41893 -0.120321 -2.963 
0.431302 -0.120321 -2.963 
0.443674 -0.120321 -2.963 
0.452505 -0.119387 -2.94 
0.464781 -0.119387 -2.94 
0.477056 -0.119387 -2.94 
0.489332 -0.119387 -2.94 
0.501607 -0.119387 -2.94 
0.517903 -0.120321 -2.963 
0.538507 -0.122189 -3.009 
0.560045 -0.124179 -3.058 
0.591732 -0.128281 -3.159 
0.630965 -0.133803 -3.295 
0.679942 -0.141113 -3.475 
0.727426 -0.147813 -3.64 
0.803829 -0.159995 -3.94 
0.874411 -0.170554 -4.2 
0.95502 -0.182614 -4.497 
1.04764 -0.196461 -4.838 
1.15568 -0.212623 -5.236 
1.28302 -0.231669 -5.705 
1.368 -0.242511 -5.972 
1.46151 -0.25445 -6.266 
1.5646 -0.267607 -6.59 
1.64889 -0.27715 -6.825 
1.73957 -0.287423 -7.078 
1.83711 -0.298469 -7.35 
1.94251 -0.310407 -7.644 
2.05682 -0.323361 -7.963 
2.13443 -0.330224 -8.132 
2.21558 -0.337412 -8.309 
2.3001 -0.344884 -8.493 
2.38864 -0.352721 -8.686 
2.4813 -0.360924 -8.888 
2.57848 -0.369533 -9.1 
2.68031 -0.378548 -9.322 
2.78719 -0.388009 -9.555 
2.82709 -0.388009 -9.555 
2.86699 -0.388009 -9.555 
2.98142 -0.397958 -9.8 
2.94678 -0.388009 -9.555 
2.98667 -0.388009 -9.555 
2.95276 -0.378548 -9.322 
2.99169 -0.378548 -9.322 
2.95844 -0.369533 -9.1 
2.99643 -0.369533 -9.1 
3.03443 -0.369533 -9.1 
3.07242 -0.369533 -9.1 
3.11042 -0.369533 -9.1 
3.22522 -0.378548 -9.322 
3.18641 -0.369533 -9.1 
3.14929 -0.360924 -8.888 
3.11398 -0.352721 -8.686 
3.08025 -0.344884 -8.493 
3.04821 -0.337412 -8.309 
2.95453 -0.323361 -7.963 
2.92662 -0.316742 -7.8 
2.9 -0.310407 -7.644 
2.93192 -0.310407 -7.644 
3.02432 -0.316742 -7.8 
3.12077 -0.323361 -7.963 
3.29106 -0.337412 -8.309 
3.47665 -0.352721 -8.686 
3.77014 -0.378548 -9.322 
3.90427 -0.388009 -9.555 
4.1518 -0.408435 -10.058 
4.30721 -0.419481 -10.33 
4.23579 -0.408435 -10.058 
4.16805 -0.397958 -9.8 
4.20897 -0.397958 -9.8 
4.14364 -0.388009 -9.555 
3.98432 -0.369533 -9.1 
3.83933 -0.352721 -8.686 
3.78948 -0.344884 -8.493 
3.82494 -0.344884 -8.493 
3.8604 -0.344884 -8.493 
3.98439 -0.352721 -8.686 
4.2123 -0.369533 -9.1 
4.46281 -0.388009 -9.555 
4.61816 -0.397958 -9.8 
5.04749 -0.431135 -10.617 
5.55463 -0.470322 -11.582 
6.37556 -0.535173 -13.179 
6.66041 -0.554299 -13.65 
6.7174 -0.554299 -13.65 
6.77439 -0.554299 -13.65 
7.08463 -0.574847 -14.156 
7.14373 -0.574847 -14.156 
7.20284 -0.574847 -14.156 
6.76075 -0.535173 -13.179 
6.37618 -0.500656 -12.329 
6.42766 -0.500656 -12.329 
6.27681 -0.485022 -11.944 
6.13493 -0.470322 -11.582 
6.00124 -0.456474 -11.241 
5.71244 -0.431135 -10.617 
5.60115 -0.419481 -10.33 
5.49566 -0.408435 -10.058 
5.26072 -0.388009 -9.555 
5.17136 -0.378548 -9.322 
4.85481 -0.352721 -8.686 
4.57912 -0.330224 -8.132 
4.33624 -0.310407 -7.644 
4.20015 -0.298469 -7.35 
4.07427 -0.287423 -7.078 
3.88756 -0.272277 -6.705 
3.8484 -0.267607 -6.59 
3.74652 -0.258673 -6.37 
3.65169 -0.250348 -6.165 
3.61897 -0.246369 -6.067 
3.64431 -0.246369 -6.067 
3.61218 -0.242511 -5.972 
3.58108 -0.238775 -5.88 
3.55106 -0.235161 -5.791 
3.52214 -0.231669 -5.705 
3.49375 -0.228258 -5.621 
3.51722 -0.228258 -5.621 
3.54069 -0.228258 -5.621 
3.51217 -0.224928 -5.539 
3.53529 -0.224928 -5.539 
3.55842 -0.224928 -5.539 
3.58155 -0.224928 -5.539 
3.60468 -0.224928 -5.539 
3.57606 -0.22172 -5.46 
3.59886 -0.22172 -5.46 
3.62166 -0.22172 -5.46 
3.64445 -0.22172 -5.46 
3.66725 -0.22172 -5.46 
3.63801 -0.218593 -5.383 
3.66049 -0.218593 -5.383 
3.63165 -0.215547 -5.308 
3.65381 -0.215547 -5.308 
3.62611 -0.212623 -5.236 
3.64797 -0.212623 -5.236 
3.62007 -0.20974 -5.165 
3.59299 -0.206938 -5.096 
3.61427 -0.206938 -5.096 
3.58775 -0.204218 -5.029 
3.60874 -0.204218 -5.029 
3.58283 -0.201578 -4.964 
3.55709 -0.198979 -4.9 
3.53229 -0.196461 -4.838 
3.50843 -0.194025 -4.778 
3.44198 -0.189274 -4.661 
3.41985 -0.187 -4.605 
3.398 -0.184766 -4.55 
3.3374 -0.180462 -4.444 
3.31744 -0.178391 -4.393 
3.29781 -0.176361 -4.343 
3.27854 -0.174371 -4.294 
3.26038 -0.172462 -4.247 
3.24184 -0.170554 -4.2 
3.22368 -0.168686 -4.154 
3.20669 -0.166899 -4.11 
3.18934 -0.165112 -4.066 
3.17241 -0.163366 -4.023 
3.18921 -0.163366 -4.023 
3.13986 -0.159995 -3.94 
3.12427 -0.158371 -3.9 
3.10914 -0.156787 -3.861 
3.0937 -0.155204 -3.822 
3.10966 -0.155204 -3.822 
3.09454 -0.153661 -3.784 
3.07992 -0.152158 -3.747 
3.03609 -0.149234 -3.675 
3.02237 -0.147813 -3.64 
3.03757 -0.147813 -3.64 
2.99574 -0.145052 -3.572 
2.98284 -0.143712 -3.539 
2.96966 -0.142372 -3.506 
2.95791 -0.141113 -3.475 
2.94505 -0.139813 -3.443 
2.95943 -0.139813 -3.443 
2.94789 -0.138595 -3.413 
2.93524 -0.137336 -3.382 
2.94936 -0.137336 -3.382 
2.96348 -0.137336 -3.382 
2.9776 -0.137336 -3.382 
2.99172 -0.137336 -3.382 
2.98007 -0.136159 -3.353 
2.99407 -0.136159 -3.353 
3.00807 -0.136159 -3.353 
3.02207 -0.136159 -3.353 
3.03607 -0.136159 -3.353 
3.05007 -0.136159 -3.353 
3.03757 -0.134981 -3.324 
3.05144 -0.134981 -3.324 
3.06532 -0.134981 -3.324 
3.05234 -0.133803 -3.295 
3.09308 -0.134981 -3.324 
3.10696 -0.134981 -3.324 
3.09361 -0.133803 -3.295 
3.10737 -0.133803 -3.295 
3.12113 -0.133803 -3.295 
3.13488 -0.133803 -3.295 
3.14864 -0.133803 -3.295 
3.13553 -0.132666 -3.267 
3.14917 -0.132666 -3.267 
3.1357 -0.131529 -3.239 
3.12297 -0.130433 -3.212 
3.11002 -0.129336 -3.185 
3.12332 -0.129336 -3.185 
3.11101 -0.128281 -3.159 
3.1242 -0.128281 -3.159 
3.11157 -0.127225 -3.133 
3.12465 -0.127225 -3.133 
-1.48427 -0.0710264 -1.586 
-1.47764 -0.0710264 -1.586 
-1.47102 -0.0710264 -1.586 
-1.4644 -0.0710264 -1.586 
-1.45778 -0.0710264 -1.586 
-1.45116 -0.0710264 -1.586 
-1.44453 -0.0710264 -1.586 
-1.43791 -0.0710264 -1.586 
-1.43761 -0.0713399 -1.593 
-1.43634 -0.0716086 -1.599 
-1.43593 -0.0719221 -1.606 
-1.43545 -0.0722355 -1.613 
-1.43492 -0.072549 -1.62 
-1.42815 -0.072549 -1.62 
-1.42665 -0.0728177 -1.626 
-1.42598 -0.0731312 -1.633 
-1.43132 -0.0737582 -1.647 
-1.43137 -0.0741164 -1.655 
-1.43048 -0.0744299 -1.662 
-1.42954 -0.0747434 -1.669 
-1.42854 -0.0750569 -1.676 
-1.42154 -0.0750569 -1.676 
-1.42129 -0.0754152 -1.684 
-1.42014 -0.0757286 -1.691 
-1.41976 -0.0760869 -1.699 
-1.41849 -0.0764004 -1.706 
-1.41137 -0.0764004 -1.706 
-1.40424 -0.0764004 -1.706 
-1.40367 -0.0767587 -1.714 
-1.40303 -0.0771169 -1.722 
-1.39584 -0.0771169 -1.722 
-1.3943 -0.0774304 -1.729 
-1.38708 -0.0774304 -1.729 
-1.38624 -0.0777887 -1.737 
-1.38534 -0.0781469 -1.745 
-1.37806 -0.0781469 -1.745 
-1.37706 -0.0785052 -1.753 
-1.37599 -0.0788635 -1.761 
-1.37485 -0.0792217 -1.769 
-1.36747 -0.0792217 -1.769 
-1.37315 -0.0799831 -1.786 
-1.37181 -0.0803413 -1.794 
-1.37116 -0.0807444 -1.803 
-1.36969 -0.0811026 -1.811 
-1.36889 -0.0815057 -1.82 
-1.36803 -0.0819087 -1.829 
-1.36708 -0.0823118 -1.838 
-1.37198 -0.0830731 -1.855 
-1.37086 -0.0834762 -1.864 
-1.36307 -0.0834762 -1.864 
-1.36256 -0.083924 -1.874 
-1.36124 -0.084327 -1.883 
-1.35985 -0.0847301 -1.892 
-1.3591 -0.0851779 -1.902 
-1.35755 -0.085581 -1.911 
-1.35663 -0.0860288 -1.921 
-1.34861 -0.0860288 -1.921 
-1.34687 -0.0864319 -1.93 
-1.34575 -0.0868797 -1.94 
-1.34454 -0.0873275 -1.95 
-1.34325 -0.0877754 -1.96 
-1.33507 -0.0877754 -1.96 
-1.33366 -0.0882232 -1.97 
-1.33216 -0.088671 -1.98 
-1.33125 -0.0891636 -1.991 
-1.32293 -0.0891636 -1.991 
-1.32122 -0.0896115 -2.001 
-1.32009 -0.0901041 -2.012 
-1.3182 -0.0905519 -2.022 
-1.30976 -0.0905519 -2.022 
-1.3084 -0.0910445 -2.033 
-1.30694 -0.0915372 -2.044 
-1.3054 -0.0920298 -2.055 
-1.29682 -0.0920298 -2.055 
-1.29513 -0.0925224 -2.066 
-1.29335 -0.093015 -2.077 
-1.28468 -0.093015 -2.077 
-1.28338 -0.0935524 -2.089 
-1.27466 -0.0935524 -2.089 
-1.2726 -0.094045 -2.1 
-1.26384 -0.094045 -2.1 
-1.26224 -0.0945824 -2.112 
-1.25342 -0.0945824 -2.112 
-1.25108 -0.095075 -2.123 
-1.24222 -0.095075 -2.123 
-1.24033 -0.0956124 -2.135 
-1.23833 -0.0961498 -2.147 
-1.23624 -0.0966872 -2.159 
-1.24144 -0.0978068 -2.184 
-1.24642 -0.0989264 -2.209 
-1.24448 -0.0995086 -2.222 
-1.24966 -0.100673 -2.248 
-1.25517 -0.101882 -2.275 
-1.26045 -0.103091 -2.302 
-1.25845 -0.103718 -2.316 
-1.25687 -0.10439 -2.331 
-1.25462 -0.105017 -2.345 
-1.26023 -0.106316 -2.374 
-1.25031 -0.106316 -2.374 
-1.24824 -0.106987 -2.389 
-1.24604 -0.107659 -2.404 
-1.24371 -0.108331 -2.419 
-1.24126 -0.109003 -2.434 
-1.2311 -0.109003 -2.434 
-1.22896 -0.109719 -2.45 
-1.22669 -0.110436 -2.466 
-1.2164 -0.110436 -2.466 
-1.21393 -0.111152 -2.482 
-1.20356 -0.111152 -2.482 
-1.20089 -0.111869 -2.498 
-1.19856 -0.11263 -2.515 
-1.20365 -0.114108 -2.548 
-1.20097 -0.114869 -2.565 
-1.19815 -0.115631 -2.582 
-1.20392 -0.117243 -2.618 
-1.2012 -0.118049 -2.636 
-1.19832 -0.118855 -2.654 
-1.19573 -0.119706 -2.673 
-1.19299 -0.120557 -2.692 
-1.1901 -0.121408 -2.711 
-1.18704 -0.122259 -2.73 
-1.18425 -0.123154 -2.75 
-1.18983 -0.124946 -2.79 
-1.18662 -0.125841 -2.81 
-1.17489 -0.125841 -2.81 
-1.17185 -0.126782 -2.831 
-1.16864 -0.127722 -2.852 
-1.16565 -0.128707 -2.874 
-1.15365 -0.128707 -2.874 
-1.14999 -0.129648 -2.895 
-1.1379 -0.129648 -2.895 
-1.13476 -0.130678 -2.918 
-1.12258 -0.130678 -2.918 
-1.11877 -0.131663 -2.94 
-1.10649 -0.131663 -2.94 
-1.10277 -0.132693 -2.963 
-1.09887 -0.133723 -2.986 
-1.0864 -0.133723 -2.986 
-1.0822 -0.134753 -3.009 
-1.07817 -0.135828 -3.033 
-1.06551 -0.135828 -3.033 
-1.05284 -0.135828 -3.033 
-1.04875 -0.136947 -3.058 
-1.03599 -0.136947 -3.058 
-1.03125 -0.138022 -3.082 
-1.02664 -0.139142 -3.107 
-1.01367 -0.139142 -3.107 
-1.00907 -0.140306 -3.133 
-0.995987 -0.140306 -3.133 
-0.991063 -0.141471 -3.159 
-0.977873 -0.141471 -3.159 
-0.964683 -0.141471 -3.159 
-0.959324 -0.142635 -3.185 
-0.938303 -0.141471 -3.159 
-0.925113 -0.141471 -3.159 
-0.911923 -0.141471 -3.159 
-0.898733 -0.141471 -3.159 
-0.892832 -0.142635 -3.185 
-0.872353 -0.141471 -3.159 
-0.859163 -0.141471 -3.159 
-0.839011 -0.140306 -3.133 
-0.825929 -0.140306 -3.133 
-0.806102 -0.139142 -3.107 
-0.793129 -0.139142 -3.107 
-0.780157 -0.139142 -3.107 
-0.761011 -0.138022 -3.082 
-0.748142 -0.138022 -3.082 
-0.729548 -0.136947 -3.058 
-0.71678 -0.136947 -3.058 
-0.704012 -0.136947 -3.058 
-0.691243 -0.136947 -3.058 
-0.678475 -0.136947 -3.058 
-0.665707 -0.136947 -3.058 
-0.652939 -0.136947 -3.058 
-0.64017 -0.136947 -3.058 
-0.632326 -0.138022 -3.082 
-0.619458 -0.138022 -3.082 
-0.61151 -0.139142 -3.107 
-0.598537 -0.139142 -3.107 
-0.590464 -0.140306 -3.133 
-0.577383 -0.140306 -3.133 
-0.568984 -0.141471 -3.159 
-0.555794 -0.141471 -3.159 
-0.538139 -0.140306 -3.133 
-0.525057 -0.140306 -3.133 
-0.507727 -0.139142 -3.107 
-0.490773 -0.138022 -3.082 
-0.474183 -0.136947 -3.058 
-0.457643 -0.135828 -3.033 
-0.441458 -0.134753 -3.009 
-0.422337 -0.132693 -2.963 
-0.409966 -0.132693 -2.963 
-0.394508 -0.131663 -2.94 
-0.379372 -0.130678 -2.918 
-0.367188 -0.130678 -2.918 
-0.357681 -0.131663 -2.94 
-0.345406 -0.131663 -2.94 
-0.335736 -0.132693 -2.963 
-0.325875 -0.133723 -2.986 
-0.315821 -0.134753 -3.009 
-0.305676 -0.135828 -3.033 
-0.295428 -0.136947 -3.058 
-0.28266 -0.136947 -3.058 
-0.269891 -0.136947 -3.058 
-0.257123 -0.136947 -3.058 
-0.244355 -0.136947 -3.058 
-0.231587 -0.136947 -3.058 
-0.218818 -0.136947 -3.058 
-0.20605 -0.136947 -3.058 
-0.191702 -0.135828 -3.033 
-0.179038 -0.135828 -3.033 
