ply
format ascii 1.0
comment pointcloud saved from Realsense Viewer
element vertex 1876
property float32 x
property float32 y
property float32 z
end_header
3.20569 3.90000 1.16062 
3.18945 3.82200 1.13741 
2.98548 3.26700 0.97225 
2.83894 2.89500 0.86154 
2.90234 2.87400 0.85529 
-1.51491 1.62600 0.47710 
-1.47317 1.64000 0.48121 
-1.45210 1.65500 0.48561 
-1.43048 1.66200 0.48766 
-1.39712 1.70600 0.50058 
-1.36747 1.76900 0.51906 
-1.36432 1.79400 0.52640 
-1.35762 1.84600 0.54165 
-1.35649 1.85500 0.54429 
-1.35338 1.88300 0.55251 
-1.33640 1.95000 0.57217 
-1.31820 2.02200 0.59330 
-1.31689 2.03300 0.59652 
-1.30633 2.11200 0.61970 
-1.30273 2.13500 0.62645 
-1.29073 2.53100 0.74265 
-1.26959 2.53100 0.74265 
-1.24846 2.53100 0.74265 
-1.18737 2.58200 0.75761 
-1.06535 2.54800 0.74764 
-1.03644 2.58200 0.75761 
-1.00898 2.71100 0.79546 
-0.98373 2.94000 0.86266 
-0.95657 3.00900 0.88290 
-0.95938 3.05800 0.89728 
-0.94661 3.05800 0.89728 
-0.93830 3.15900 0.92692 
-0.94063 3.21200 0.94247 
-0.79339 3.05800 0.89728 
-0.71237 2.98600 0.87615 
-0.68380 3.08200 0.90432 
-0.61663 3.13300 0.91929 
-0.56512 3.21200 0.94247 
-0.52930 3.23900 0.95039 
-0.48873 3.23900 0.95039 
-0.41070 3.15900 0.92692 
-0.39752 3.15900 0.92692 
-0.13993 3.00900 0.88290 
-0.09185 3.08200 0.90432 
0.02397 3.08200 0.90432 
0.06308 3.10700 0.91166 
0.13115 3.18500 0.93454 
0.16965 3.15900 0.92692 
0.22058 3.13300 0.91929 
0.31994 3.08200 0.90432 
0.33022 3.05800 0.89728 
0.44235 2.87400 0.84329 
0.45767 2.89500 0.84945 
1.81987 6.82500 2.00260 
2.16994 6.59000 1.93364 
2.19746 6.59000 1.93364 
2.37579 6.70500 1.96739 
2.34620 5.30800 1.55748 
2.44400 5.09600 1.49527 
2.35134 4.77800 1.40196 
2.35214 4.66100 1.36763 
3.26192 5.88000 1.72531 
3.12328 5.23600 1.53635 
3.31638 5.09600 1.49527 
2.99167 4.29400 1.25995 
2.92882 4.15400 1.21887 
2.88375 4.06600 1.19305 
3.17353 3.78400 1.11030 
3.18944 3.74700 1.09945 
3.20508 3.74700 1.09945 
3.04497 3.47500 1.01964 
2.94228 3.29500 0.96682 
2.89663 3.05800 0.89728 
2.87535 3.00900 0.88290 
2.85613 2.96300 0.86940 
2.84234 2.87400 0.84329 
-1.45210 1.65500 0.47870 
-1.42354 1.66200 0.48073 
-1.39000 1.70600 0.49345 
-1.38220 1.71400 0.49577 
-1.37427 1.72200 0.49808 
-1.37174 1.73700 0.50242 
-1.35370 1.82000 0.52643 
-1.34875 1.85500 0.53655 
-1.35338 1.88300 0.54465 
-1.34405 1.89200 0.54725 
-1.33640 1.95000 0.56403 
-1.32122 2.00100 0.57878 
-1.31548 2.04400 0.59122 
-1.29891 2.10000 0.60741 
-1.29381 2.13500 0.61754 
-1.28131 2.15900 0.62448 
-1.27996 2.17200 0.62824 
-1.29073 2.53100 0.73208 
-1.25903 2.53100 0.73208 
-1.22239 2.56500 0.74191 
-1.21168 2.56500 0.74191 
-1.15046 2.54800 0.73700 
-1.13982 2.54800 0.73700 
-1.12918 2.54800 0.73700 
-1.03644 2.58200 0.74683 
-1.02566 2.58200 0.74683 
-0.96669 2.96300 0.85703 
-0.93830 3.15900 0.91373 
-0.68380 3.08200 0.89145 
-0.63745 3.10700 0.89868 
-0.62448 3.10700 0.89868 
-0.51577 3.23900 0.93686 
-0.50225 3.23900 0.93686 
-0.45398 3.18500 0.92125 
-0.24720 2.94000 0.85038 
-0.22098 2.91800 0.84402 
-0.12838 3.03300 0.87728 
-0.11667 3.05800 0.88451 
-0.09114 3.05800 0.88451 
-0.06611 3.08200 0.89145 
-0.05368 3.10700 0.89868 
-0.01464 3.08200 0.89145 
-0.00177 3.08200 0.89145 
0.01110 3.08200 0.89145 
0.06257 3.08200 0.89145 
0.08902 3.10700 0.89868 
0.28362 3.10700 0.89868 
0.30956 3.10700 0.89868 
0.34018 3.03300 0.87728 
0.41514 2.85200 0.82493 
0.43035 2.87400 0.83129 
0.44235 2.87400 0.83129 
0.57976 2.96300 0.85703 
0.80359 3.71100 1.07339 
1.41787 5.97200 1.72737 
1.56506 6.47800 1.87373 
1.76288 6.82500 1.97410 
1.81987 6.82500 1.97410 
1.98385 6.70500 1.93939 
2.00485 6.59000 1.90613 
2.07897 6.47800 1.87373 
2.40378 6.70500 1.93939 
2.58929 6.82500 1.97410 
2.51503 5.97200 1.72737 
2.46298 5.79100 1.67502 
2.41415 5.62100 1.62585 
2.39059 5.46000 1.57928 
2.47709 5.16500 1.49395 
2.37160 4.66100 1.34817 
2.36234 4.60500 1.33197 
3.21130 5.46000 1.57928 
3.14514 5.23600 1.51449 
3.12488 5.09600 1.47399 
3.05907 4.44400 1.28541 
2.89780 4.11000 1.18880 
2.75857 3.82200 1.10550 
3.18921 3.94000 1.13963 
3.22199 3.86100 1.11678 
3.22136 3.82200 1.10550 
3.17419 3.67500 1.06298 
3.15915 3.64000 1.05285 
2.89997 3.15900 0.91373 
2.91316 3.15900 0.91373 
2.89363 3.08200 0.89145 
2.82685 2.89500 0.83736 
2.86822 2.85200 0.82493 
-1.47550 1.62000 0.46181 
-1.43137 1.65500 0.47179 
-1.43048 1.66200 0.47379 
-1.42354 1.66200 0.47379 
-1.42129 1.68400 0.48006 
-1.41426 1.68400 0.48006 
-1.40602 1.69100 0.48205 
-1.38287 1.70600 0.48633 
-1.37264 1.72900 0.49289 
-1.34751 1.86400 0.53137 
-1.33765 1.94000 0.55304 
-1.33216 1.98000 0.56444 
-1.30840 2.03300 0.57955 
-1.30203 2.07700 0.59209 
-1.28131 2.15900 0.61547 
-1.31136 2.35900 0.67248 
-1.34691 2.49800 0.71210 
-1.22239 2.56500 0.73120 
-1.13671 2.56500 0.73120 
-1.05471 2.54800 0.72636 
-1.02961 2.56500 0.73120 
-1.00717 2.61800 0.74631 
-0.99913 2.98600 0.85122 
-0.83205 3.10700 0.88571 
-0.71925 2.96300 0.84466 
-0.62448 3.10700 0.88571 
-0.61151 3.10700 0.88571 
-0.60855 3.15900 0.90054 
-0.58697 3.18500 0.90795 
-0.51577 3.23900 0.92334 
-0.47124 3.21200 0.91564 
-0.43709 3.15900 0.90054 
-0.32838 3.00900 0.85777 
-0.16253 2.96300 0.84466 
-0.02751 3.08200 0.87859 
0.02397 3.08200 0.87859 
0.03683 3.08200 0.87859 
0.10200 3.10700 0.88571 
0.25983 3.13300 0.89312 
0.32254 3.10700 0.88571 
0.33281 3.08200 0.87859 
0.38514 2.89500 0.82528 
0.39435 2.87400 0.81929 
0.44558 2.89500 0.82528 
0.46130 2.91800 0.83183 
0.46975 2.89500 0.82528 
0.49785 2.91800 0.83183 
0.80359 3.71100 1.05789 
1.64790 6.70500 1.91139 
1.81987 6.82500 1.94560 
1.97733 6.59000 1.87861 
2.01771 6.37000 1.81590 
2.04431 6.37000 1.81590 
2.56079 6.82500 1.94560 
2.58929 6.82500 1.94560 
2.57056 6.16500 1.75746 
2.39092 4.90000 1.39684 
2.38086 4.83800 1.37917 
2.37129 4.77800 1.36206 
2.37160 4.66100 1.32871 
2.41053 4.66100 1.32871 
2.96053 5.46000 1.55648 
3.18836 5.79100 1.65084 
3.36282 5.97200 1.70244 
3.38467 5.88000 1.67621 
3.25777 5.53900 1.57900 
3.23410 5.46000 1.55648 
3.27632 5.23600 1.49263 
3.38786 5.30800 1.51315 
2.86678 4.06600 1.15909 
2.67846 3.71100 1.05789 
3.23902 3.98100 1.13486 
3.28792 3.94000 1.12318 
3.23673 3.78400 1.07870 
2.99172 3.38200 0.96411 
2.88919 3.13300 0.89312 
2.87295 3.03300 0.86462 
2.85434 2.87400 0.81929 
-1.50932 1.62000 0.45505 
-1.50133 1.62600 0.45673 
-1.46739 1.62600 0.45673 
-1.45948 1.64000 0.46067 
-1.43137 1.65500 0.46488 
-1.40602 1.69100 0.47499 
-1.37505 1.71400 0.48145 
-1.37427 1.72200 0.48370 
-1.36449 1.73700 0.48791 
-1.36242 1.75300 0.49241 
-1.29891 2.10000 0.58988 
-1.28131 2.15900 0.60645 
-1.29156 2.28900 0.64297 
-1.33273 2.43400 0.68370 
-1.34357 2.53100 0.71094 
-1.33132 2.54800 0.71572 
-1.23789 2.53100 0.71094 
-1.11529 2.56500 0.72049 
-1.05471 2.54800 0.71572 
-1.00717 2.61800 0.73538 
-1.01315 2.69200 0.75617 
-1.02406 2.98600 0.83875 
-1.00682 3.00900 0.84521 
-0.98169 3.00900 0.84521 
-0.96420 3.03300 0.85195 
-0.93830 3.15900 0.88735 
-0.94063 3.21200 0.90223 
-0.84502 3.10700 0.87274 
-0.76224 2.98600 0.83875 
-0.73163 2.96300 0.83229 
-0.66571 3.05800 0.85898 
-0.65043 3.10700 0.87274 
-0.62448 3.10700 0.87274 
-0.61151 3.10700 0.87274 
-0.34367 3.03300 0.85195 
-0.15133 2.98600 0.83875 
-0.04038 3.08200 0.86572 
-0.02751 3.08200 0.86572 
-0.01464 3.08200 0.86572 
0.03683 3.08200 0.86572 
0.10200 3.10700 0.87274 
0.14209 3.13300 0.88004 
0.16826 3.13300 0.88004 
0.23366 3.13300 0.88004 
0.28599 3.13300 0.88004 
0.40635 2.87400 0.80729 
0.45767 2.89500 0.81319 
0.73798 3.47500 0.97611 
1.70589 6.82500 1.91711 
1.89986 6.70500 1.88340 
1.97078 6.47800 1.81963 
2.07091 6.37000 1.78930 
2.21421 6.47800 1.81963 
2.54567 5.30800 1.49099 
2.41137 4.90000 1.37638 
2.37129 4.77800 1.34211 
2.49099 4.77800 1.34211 
2.68484 5.02900 1.41262 
3.41269 5.97200 1.67750 
3.28089 5.53900 1.55587 
3.36830 5.38300 1.51206 
2.98007 3.35300 0.94184 
2.89498 3.21200 0.90223 
2.89724 3.18500 0.89465 
2.86278 3.00900 0.84521 
-1.46874 1.62000 0.44828 
-1.43132 1.64700 0.45576 
-1.43137 1.65500 0.45797 
-1.42354 1.66200 0.45991 
-1.41426 1.68400 0.46599 
-1.34512 1.82900 0.50612 
-1.29991 2.03300 0.56257 
-1.28159 2.22200 0.61487 
-1.30357 2.51500 0.69595 
-1.30130 2.53100 0.70038 
-1.23789 2.53100 0.70038 
-1.19815 2.58200 0.71449 
-1.17659 2.58200 0.71449 
-1.15503 2.58200 0.71449 
-1.12268 2.58200 0.71449 
-1.09387 2.56500 0.70978 
-1.00410 2.58200 0.71449 
-1.03001 2.83100 0.78339 
-1.02406 2.98600 0.82628 
-0.99426 3.00900 0.83265 
-0.96913 3.00900 0.83265 
-0.69615 2.91800 0.80747 
-0.68912 2.94000 0.81355 
-0.67497 2.98600 0.82628 
-0.66250 2.98600 0.82628 
-0.64519 3.08200 0.85285 
-0.58697 3.18500 0.88135 
-0.49388 3.18500 0.88135 
-0.48058 3.18500 0.88135 
-0.46347 3.15900 0.87416 
-0.38783 3.08200 0.85285 
-0.11667 3.05800 0.84621 
-0.07962 3.10700 0.85977 
-0.04038 3.08200 0.85285 
0.15518 3.13300 0.86696 
0.16826 3.13300 0.86696 
0.18134 3.13300 0.86696 
0.22058 3.13300 0.86696 
0.32254 3.10700 0.85977 
0.35284 3.03300 0.83929 
0.36944 2.96300 0.81992 
0.39723 2.89500 0.80110 
0.53843 2.94000 0.81355 
0.60612 3.03300 0.83929 
0.68600 3.29500 0.91179 
1.12244 4.90000 1.35592 
1.94373 6.47800 1.79259 
1.93792 6.37000 1.76270 
2.26830 6.47800 1.79259 
2.47262 6.59000 1.82358 
2.64628 6.82500 1.88861 
2.55503 6.06700 1.67886 
2.58707 5.53900 1.53275 
2.53669 5.38300 1.48958 
2.51114 5.23600 1.44890 
2.35134 4.77800 1.32216 
2.34201 4.71900 1.30584 
2.57505 4.90000 1.35592 
2.62941 4.96400 1.37363 
3.07130 5.62100 1.55544 
3.41269 5.97200 1.65257 
3.34809 5.46000 1.51089 
3.43928 5.46000 1.51089 
3.51217 5.53900 1.53275 
3.62780 5.53900 1.53275 
3.62166 5.46000 1.51089 
3.46911 5.16500 1.42925 
3.25253 3.78400 1.04711 
3.11505 3.57200 0.98844 
2.94228 3.29500 0.91179 
2.86302 3.13300 0.86696 
2.86278 3.00900 0.83265 
2.86584 2.98600 0.82628 
2.86634 2.87400 0.79529 
-1.45325 1.63300 0.44506 
-1.44578 1.64000 0.44697 
-1.39848 1.69900 0.46305 
-1.39139 1.69900 0.46305 
-1.38287 1.70600 0.46496 
-1.34610 1.82000 0.49603 
-1.34100 1.85500 0.50557 
-1.33766 1.88300 0.51320 
-1.32955 1.94000 0.52873 
-1.32826 1.95000 0.53146 
-1.30976 2.02200 0.55108 
-1.30132 2.02200 0.55108 
-1.29682 2.05500 0.56008 
-1.29335 2.07700 0.56607 
-1.29751 2.11200 0.57561 
-1.28131 2.15900 0.58842 
-1.28552 2.19700 0.59878 
-1.33126 2.45000 0.66773 
-1.34558 2.51500 0.68545 
-1.12268 2.58200 0.70371 
-1.02653 2.53100 0.68981 
-1.00024 2.60000 0.70861 
-1.01315 2.69200 0.73369 
-1.01606 2.73000 0.74404 
-1.04092 2.96300 0.80755 
-0.99426 3.00900 0.82008 
-0.96420 3.03300 0.82662 
-0.93384 3.05800 0.83344 
-0.86396 3.08200 0.83998 
-0.79964 2.98600 0.81382 
-0.71484 2.89500 0.78901 
-0.65960 2.91800 0.79528 
-0.65504 3.00900 0.82008 
-0.58217 3.15900 0.86097 
-0.56898 3.15900 0.86097 
-0.56037 3.18500 0.86805 
-0.35633 3.03300 0.82662 
-0.32588 2.98600 0.81382 
-0.28403 2.94000 0.80128 
-0.26972 2.91800 0.79528 
-0.24342 2.89500 0.78901 
-0.16253 2.96300 0.80755 
-0.12838 3.03300 0.82662 
-0.11667 3.05800 0.83344 
-0.06665 3.10700 0.84679 
-0.01464 3.08200 0.83998 
-0.00176 3.05800 0.83344 
0.11497 3.10700 0.84679 
0.25983 3.13300 0.85388 
0.39723 2.89500 0.78901 
0.42705 2.85200 0.77729 
0.46130 2.91800 0.79528 
0.52616 2.94000 0.80128 
1.81987 6.82500 1.86011 
1.84837 6.82500 1.86011 
2.24126 6.47800 1.76554 
2.26830 6.47800 1.76554 
2.64698 6.47800 1.76554 
2.57056 6.16500 1.68023 
2.61697 5.70500 1.55486 
2.56395 5.53900 1.50962 
2.44400 5.09600 1.38888 
2.35134 4.77800 1.30221 
2.30466 4.60500 1.25506 
3.36012 5.88000 1.60256 
3.35293 5.62100 1.53197 
3.37340 5.53900 1.50962 
3.61110 5.62100 1.53197 
3.68151 5.62100 1.53197 
3.15915 3.64000 0.99206 
2.88395 3.18500 0.86805 
2.87359 3.15900 0.86097 
2.87110 3.05800 0.83344 
2.87295 3.03300 0.82662 
2.86278 3.00900 0.82008 
2.86584 2.98600 0.81382 
-1.49606 1.61300 0.43288 
-1.48226 1.62000 0.43476 
-1.46739 1.62600 0.43637 
-1.43137 1.65500 0.44415 
-1.41454 1.67600 0.44979 
-1.41426 1.68400 0.45193 
-1.39139 1.69900 0.45596 
-1.37505 1.71400 0.45998 
-1.36128 1.76100 0.47260 
-1.35456 1.81100 0.48601 
-1.34512 1.82900 0.49085 
-1.33527 1.90200 0.51044 
-1.32563 1.91100 0.51285 
-1.32955 1.94000 0.52063 
-1.30328 2.01200 0.53996 
-1.29991 2.03300 0.54559 
-1.28987 2.04400 0.54854 
-1.29210 2.08900 0.56062 
-1.29381 2.13500 0.57297 
-1.27409 2.20900 0.59283 
-1.33648 2.49800 0.67038 
-1.23557 2.54800 0.68380 
-1.01215 2.54800 0.68380 
-1.00717 2.61800 0.70259 
-1.03765 2.85200 0.76539 
-1.01485 3.03300 0.81396 
-0.93887 3.03300 0.81396 
-0.73365 2.87400 0.77129 
-0.67365 2.87400 0.77129 
-0.65440 2.89500 0.77693 
-0.62510 2.98600 0.80135 
-0.58556 3.10700 0.83382 
-0.53814 3.13300 0.84080 
-0.44657 3.13300 0.84080 
-0.25754 2.91800 0.78310 
-0.23317 2.91800 0.78310 
-0.18728 2.96300 0.79518 
-0.10472 3.08200 0.82711 
-0.07962 3.10700 0.83382 
0.14092 3.10700 0.83382 
0.28599 3.13300 0.84080 
0.40635 2.87400 0.77129 
0.57179 2.98600 0.80135 
0.59346 3.03300 0.81396 
1.76288 6.82500 1.83161 
2.26830 6.47800 1.73849 
2.36255 6.59000 1.76855 
2.50013 6.59000 1.76855 
2.58268 6.59000 1.76855 
2.63771 6.59000 1.76855 
2.60285 6.37000 1.70951 
2.62944 6.37000 1.70951 
2.58037 6.06700 1.62819 
2.57449 5.88000 1.57801 
2.55970 5.79100 1.55412 
2.58388 5.79100 1.55412 
2.30260 4.71900 1.26643 
2.28543 4.60500 1.23584 
2.57505 4.90000 1.31501 
2.98333 5.46000 1.46529 
3.70498 5.62100 1.50850 
3.30260 3.86100 1.03617 
3.25253 3.78400 1.01551 
3.15915 3.64000 0.97686 
3.03131 3.44300 0.92399 
2.86040 3.15900 0.84778 
2.86302 3.13300 0.84080 
2.85224 3.10700 0.83382 
2.84216 3.08200 0.82711 
2.87295 3.03300 0.81396 
2.86584 2.98600 0.80135 
2.86634 2.87400 0.77129 
-1.48259 1.61300 0.42614 
-1.46874 1.62000 0.42799 
-1.45325 1.63300 0.43143 
-1.43894 1.64000 0.43328 
-1.41454 1.67600 0.44279 
-1.41426 1.68400 0.44490 
-1.38287 1.70600 0.45071 
-1.37077 1.74500 0.46102 
-1.36863 1.76100 0.46524 
-1.36128 1.76100 0.46524 
-1.35958 1.77800 0.46973 
-1.35824 1.78600 0.47185 
-1.34406 1.83800 0.48559 
-1.34220 1.84600 0.48770 
-1.33766 1.88300 0.49748 
-1.33615 1.89200 0.49985 
-1.32455 1.92100 0.50751 
-1.28987 2.04400 0.54001 
-1.28650 2.06600 0.54582 
-1.29210 2.08900 0.55190 
-1.29033 2.15900 0.57039 
-1.28703 2.18400 0.57700 
-1.27976 2.23500 0.59047 
-1.30979 2.37400 0.62719 
-1.33508 2.51500 0.66445 
-1.21168 2.56500 0.67765 
-1.18737 2.58200 0.68215 
-1.17394 2.60000 0.68690 
-1.10458 2.56500 0.67765 
-1.01315 2.49800 0.65995 
-1.00540 2.53100 0.66867 
-1.04092 2.96300 0.78280 
-1.03653 2.98600 0.78888 
-1.03195 3.00900 0.79496 
-0.81823 2.96300 0.78280 
-0.76319 2.89500 0.76484 
-0.65175 2.83100 0.74793 
-0.48984 3.15900 0.83459 
-0.46347 3.15900 0.83459 
-0.43349 3.13300 0.82772 
-0.37204 3.05800 0.80790 
-0.32838 3.00900 0.79496 
-0.24720 2.94000 0.77673 
-0.23493 2.94000 0.77673 
-0.21202 2.96300 0.78280 
-0.16506 3.00900 0.79496 
-0.10472 3.08200 0.81424 
-0.09185 3.08200 0.81424 
-0.06611 3.08200 0.81424 
-0.05325 3.08200 0.81424 
0.02378 3.05800 0.80790 
0.16686 3.10700 0.82085 
0.23366 3.13300 0.82772 
0.28599 3.13300 0.82772 
0.32254 3.10700 0.82085 
0.35284 3.03300 0.80130 
0.38182 2.96300 0.78280 
0.39113 2.94000 0.77673 
0.41835 2.87400 0.75929 
0.47349 2.91800 0.77092 
0.93739 4.24700 1.12203 
1.16734 5.09600 1.34633 
1.46370 6.16500 1.62875 
1.79138 6.82500 1.80312 
1.92785 6.70500 1.77141 
2.04431 6.37000 1.68291 
2.15070 6.37000 1.68291 
2.21421 6.47800 1.71144 
2.20389 6.37000 1.68291 
2.26830 6.47800 1.71144 
2.60285 6.37000 1.68291 
2.58037 6.06700 1.60286 
2.56490 5.97200 1.57776 
2.58983 5.97200 1.57776 
2.53149 5.62100 1.48503 
2.41239 5.16500 1.36456 
2.35996 4.96400 1.31145 
2.35000 4.90000 1.29455 
2.29613 4.55000 1.20208 
2.62941 4.96400 1.31145 
2.74188 5.09600 1.34633 
3.11824 5.62100 1.48503 
3.14171 5.62100 1.48503 
3.43377 5.88000 1.55346 
3.63457 5.62100 1.48503 
3.35025 4.29400 1.13445 
3.44288 4.34300 1.14739 
3.37398 4.02300 1.06285 
3.03131 3.44300 0.90962 
2.86789 3.08200 0.81424 
2.86029 3.03300 0.80130 
2.88562 3.03300 0.80130 
2.86584 2.98600 0.78888 
-1.43820 1.64700 0.42825 
-1.38429 1.69900 0.44177 
-1.37575 1.70600 0.44359 
-1.36708 1.72200 0.44775 
-1.34512 1.82900 0.47557 
-1.33361 1.91100 0.49689 
-1.33075 1.93000 0.50183 
-1.30631 1.99100 0.51769 
-1.29288 2.02200 0.52576 
-1.29142 2.03300 0.52862 
-1.28987 2.04400 0.53148 
-1.28824 2.05500 0.53434 
-1.29014 2.10000 0.54604 
-1.27231 2.22200 0.57776 
-1.02358 2.49800 0.64952 
-1.00024 2.60000 0.67605 
-1.00993 2.65400 0.69009 
-1.02030 2.71100 0.70491 
-1.04092 2.96300 0.77043 
-0.96172 2.98600 0.77641 
-0.76965 2.87400 0.74729 
-0.58085 3.08200 0.80137 
-0.53367 3.10700 0.80787 
-0.37204 3.05800 0.79513 
-0.20120 2.98600 0.77641 
-0.18873 2.98600 0.77641 
-0.10557 3.10700 0.80787 
-0.05325 3.08200 0.80137 
0.04891 3.03300 0.78863 
0.06158 3.03300 0.78863 
0.08831 3.08200 0.80137 
0.10118 3.08200 0.80137 
0.13978 3.08200 0.80137 
0.16686 3.10700 0.80787 
0.17983 3.10700 0.80787 
0.23172 3.10700 0.80787 
0.33281 3.08200 0.80137 
0.39113 2.94000 0.76445 
0.44558 2.89500 0.75275 
0.47349 2.91800 0.75873 
0.49785 2.91800 0.75873 
0.52616 2.94000 0.76445 
0.54265 2.96300 0.77043 
0.59346 3.03300 0.78863 
1.56506 6.47800 1.68440 
2.17729 6.37000 1.65631 
2.51174 6.47800 1.68440 
2.58037 6.06700 1.57753 
2.57449 5.88000 1.52890 
2.32026 4.83800 1.25797 
2.28289 4.71900 1.22702 
2.60868 4.96400 1.29073 
3.30926 5.79100 1.50576 
3.45832 5.88000 1.52890 
3.52214 5.70500 1.48340 
3.60468 5.53900 1.44024 
3.13805 4.11000 1.06867 
3.24184 4.20000 1.09207 
3.29585 4.24700 1.10430 
3.46102 4.34300 1.12926 
3.45544 4.24700 1.10430 
3.35538 3.98100 1.03513 
3.33727 3.94000 1.02447 
2.89498 3.21200 0.83518 
2.87818 3.10700 0.80787 
2.89828 3.03300 0.78863 
2.86850 2.96300 0.77043 
2.84931 2.91800 0.75873 
2.90234 2.87400 0.74729 
-1.45325 1.63300 0.41779 
-1.44578 1.64000 0.41958 
-1.42354 1.66200 0.42521 
-1.39317 1.68400 0.43084 
-1.37505 1.71400 0.43851 
-1.37427 1.72200 0.44056 
-1.36542 1.72900 0.44235 
-1.35456 1.81100 0.46333 
-1.34512 1.82900 0.46794 
-1.34875 1.85500 0.47459 
-1.33257 1.92100 0.49147 
-1.31870 1.96000 0.50145 
-1.30075 1.97000 0.50401 
-1.28987 2.04400 0.52294 
-1.29541 2.12300 0.54315 
-1.29810 2.17200 0.55569 
-1.31407 2.51500 0.64344 
-1.28257 2.51500 0.64344 
-1.24057 2.51500 0.64344 
-1.20097 2.56500 0.65624 
-1.17394 2.60000 0.66519 
-1.15503 2.58200 0.66058 
-1.03765 2.85200 0.72966 
-1.02752 3.03300 0.77597 
-0.87890 2.91800 0.74655 
-0.84235 2.91800 0.74655 
-0.82363 2.89500 0.74066 
-0.67726 2.79000 0.71380 
-0.63993 2.83100 0.72429 
-0.61263 2.98600 0.76394 
-0.46504 3.08200 0.78851 
-0.42643 3.08200 0.78851 
-0.41356 3.08200 0.78851 
-0.40069 3.08200 0.78851 
-0.21367 2.98600 0.76394 
-0.20275 3.00900 0.76983 
-0.07898 3.08200 0.78851 
0.04891 3.03300 0.77597 
0.06158 3.03300 0.77597 
0.08831 3.08200 0.78851 
0.10118 3.08200 0.78851 
0.25560 3.08200 0.78851 
0.43035 2.87400 0.73529 
0.45767 2.89500 0.74066 
0.49785 2.91800 0.74655 
0.52616 2.94000 0.75218 
0.67224 3.29500 0.84300 
1.23308 5.38300 1.37720 
1.88195 6.94900 1.77785 
1.91097 6.94900 1.77785 
2.01935 6.82500 1.74612 
2.19746 6.59000 1.68600 
2.39007 6.37000 1.62972 
2.58651 6.26600 1.60311 
2.47144 5.53900 1.41711 
2.29149 4.77800 1.22241 
2.26620 4.60500 1.17815 
2.28543 4.60500 1.17815 
2.34311 4.60500 1.17815 
2.47104 4.77800 1.22241 
2.52227 4.83800 1.23777 
2.69933 5.09600 1.30377 
3.16518 5.62100 1.43809 
3.33344 5.79100 1.48158 
3.48288 5.88000 1.50435 
3.48904 5.53900 1.41711 
3.53529 5.53900 1.41711 
2.43407 3.35300 0.85784 
3.36818 4.29400 1.09859 
3.05749 3.50600 0.89698 
2.95429 3.32400 0.85042 
2.90579 3.23900 0.82867 
2.87611 3.13300 0.80155 
2.87110 3.05800 0.78237 
2.89828 3.03300 0.77597 
2.85851 2.94000 0.75218 
-1.46239 1.61300 0.40594 
-1.45325 1.63300 0.41097 
-1.44578 1.64000 0.41273 
-1.40020 1.68400 0.42381 
-1.36128 1.76100 0.44319 
-1.35269 1.76900 0.44520 
-1.34405 1.89200 0.47615 
-1.32826 1.95000 0.49075 
-1.27945 2.00100 0.50359 
-1.28443 2.02200 0.50887 
-1.28824 2.05500 0.51718 
-1.28650 2.06600 0.51994 
-1.27968 2.30200 0.57934 
-1.30626 2.40400 0.60501 
-1.23789 2.53100 0.63697 
-1.07573 2.49800 0.62866 
-1.03106 2.46600 0.62061 
-0.98987 2.46600 0.62061 
-1.04092 2.96300 0.74569 
-0.92236 2.94000 0.73990 
-0.89109 2.91800 0.73436 
-0.87198 2.89500 0.72858 
-0.78758 2.85200 0.71775 
-0.76996 2.83100 0.71247 
-0.63993 2.83100 0.71247 
-0.61547 2.94000 0.73990 
-0.38481 3.05800 0.76960 
-0.29069 3.00900 0.75727 
-0.27600 2.98600 0.75148 
-0.26557 3.00900 0.75727 
-0.25300 3.00900 0.75727 
-0.19328 3.05800 0.76960 
-0.18193 3.08200 0.77564 
-0.15746 3.10700 0.78193 
-0.14570 3.13300 0.78847 
0.01092 3.03300 0.76331 
0.02358 3.03300 0.76331 
0.03625 3.03300 0.76331 
0.06158 3.03300 0.76331 
0.07485 3.05800 0.76960 
0.15265 3.08200 0.77564 
0.20412 3.08200 0.77564 
0.25560 3.08200 0.77564 
0.34298 3.05800 0.76960 
0.52616 2.94000 0.73990 
0.59835 3.05800 0.76960 
0.63130 3.15900 0.79502 
0.73679 3.53900 0.89065 
1.10198 4.90000 1.23317 
1.35072 5.79100 1.45740 
2.04785 6.82500 1.71763 
2.07634 6.82500 1.71763 
2.10484 6.82500 1.71763 
2.15182 6.70500 1.68743 
2.59630 6.16500 1.55153 
2.56490 5.97200 1.50296 
2.32787 5.02900 1.26563 
2.31322 4.66100 1.17302 
2.40112 4.71900 1.18762 
3.50743 5.88000 1.47980 
3.49832 5.70500 1.43576 
3.52214 5.70500 1.43576 
3.43573 5.38300 1.35472 
3.45820 5.38300 1.35472 
2.34362 3.32400 0.83654 
3.12089 4.11000 1.03435 
3.20677 4.20000 1.05700 
3.27812 4.24700 1.06883 
3.36818 4.29400 1.08066 
3.38611 4.29400 1.08066 
3.32213 3.98100 1.00189 
3.01693 3.44300 0.86649 
2.91727 3.26700 0.82220 
2.88395 3.18500 0.80156 
2.88076 3.08200 0.77564 
2.86149 2.91800 0.73436 
-1.49643 1.59900 0.39574 
-1.48976 1.59900 0.39574 
-1.38484 1.69100 0.41851 
-1.36863 1.70600 0.42222 
-1.37427 1.72200 0.42618 
-1.35393 1.76100 0.43583 
-1.34934 1.79400 0.44400 
-1.34059 1.92100 0.47543 
-1.33765 1.94000 0.48013 
-1.28137 1.99100 0.49276 
-1.29541 2.12300 0.52542 
-1.29381 2.13500 0.52839 
-1.26717 2.19700 0.54374 
-1.26843 2.24800 0.55636 
-1.29683 2.48200 0.61427 
-1.19026 2.56500 0.63482 
-1.16581 2.58200 0.63902 
-1.11854 2.54800 0.63061 
-1.00391 2.45000 0.60635 
-0.98345 2.45000 0.60635 
-1.00993 2.65400 0.65684 
-1.03653 2.98600 0.73901 
-1.02752 3.03300 0.75064 
-1.00682 3.00900 0.74470 
-0.91546 2.91800 0.72218 
-0.84712 2.85200 0.70585 
-0.63993 2.83100 0.70065 
-0.62305 2.91800 0.72218 
-0.59222 3.00900 0.74470 
-0.50364 3.08200 0.76277 
-0.47418 3.05800 0.75683 
-0.44865 3.05800 0.75683 
-0.36900 3.03300 0.75064 
-0.23159 3.05800 0.75683 
-0.03974 3.03300 0.75064 
0.08831 3.08200 0.76277 
0.13978 3.08200 0.76277 
0.17839 3.08200 0.76277 
0.26637 3.05800 0.75683 
0.31745 3.05800 0.75683 
0.41287 3.00900 0.74470 
0.42218 2.98600 0.73901 
0.51004 2.91800 0.72218 
0.52616 2.94000 0.72763 
1.11638 4.96400 1.22855 
1.37148 5.88000 1.45525 
1.88195 6.94900 1.71982 
2.16183 6.82500 1.68913 
2.28001 6.59000 1.63097 
2.30752 6.59000 1.63097 
2.58037 6.06700 1.50153 
2.29778 4.96400 1.22855 
2.31851 4.96400 1.22855 
2.39124 4.77800 1.18252 
3.40922 5.88000 1.45525 
3.50270 5.79100 1.43322 
3.49375 5.62100 1.39115 
3.43928 5.46000 1.35130 
3.38786 5.30800 1.31369 
3.38563 5.23600 1.29587 
2.35069 3.29500 0.81548 
3.28792 3.94000 0.97512 
3.09953 3.60600 0.89245 
2.92852 3.29500 0.81548 
2.89227 3.23900 0.80163 
2.87079 2.94000 0.72763 
2.91146 2.89500 0.71649 
-1.45325 1.63300 0.39734 
-1.44643 1.63300 0.39734 
-1.43820 1.64700 0.40074 
-1.43742 1.66200 0.40439 
-1.43048 1.66200 0.40439 
-1.42257 1.66900 0.40609 
-1.42154 1.67600 0.40780 
-1.40020 1.68400 0.40974 
-1.35474 1.87400 0.45597 
-1.33640 1.95000 0.47447 
-1.32826 1.95000 0.47447 
-1.32012 1.95000 0.47447 
-1.30234 1.96000 0.47690 
-1.25904 2.24800 0.54697 
-1.28181 2.35900 0.57398 
-1.28647 2.48200 0.60391 
-1.28433 2.49800 0.60780 
-1.25107 2.51500 0.61194 
-1.20097 2.56500 0.62411 
-0.99748 2.56500 0.62411 
-1.01939 3.00900 0.73214 
-0.79948 2.85200 0.69394 
-0.77567 2.85200 0.69394 
-0.63277 2.85200 0.69394 
-0.60319 2.94000 0.71535 
-0.52526 3.05800 0.74406 
-0.51249 3.05800 0.74406 
-0.46142 3.05800 0.74406 
-0.41965 3.03300 0.73798 
-0.17186 3.13300 0.76231 
-0.09337 3.13300 0.76231 
0.07544 3.08200 0.74990 
0.11404 3.08200 0.74990 
0.12691 3.08200 0.74990 
0.16552 3.08200 0.74990 
0.27914 3.05800 0.74406 
0.33281 3.08200 0.74990 
0.35855 3.08200 0.74990 
0.38428 3.08200 0.74990 
0.39406 3.05800 0.74406 
1.28760 5.62100 1.36768 
1.56506 6.47800 1.57620 
1.70589 6.82500 1.66063 
1.73438 6.82500 1.66063 
1.79491 6.94900 1.69081 
2.09421 7.07800 1.72219 
2.20111 6.94900 1.69081 
2.24732 6.82500 1.66063 
2.26380 6.70500 1.63144 
2.59975 6.70500 1.63144 
2.68374 6.70500 1.63144 
2.62205 6.16500 1.50005 
2.42126 4.83800 1.17716 
2.71431 5.16500 1.25673 
3.09587 5.53900 1.34773 
3.46256 5.97200 1.45309 
3.55106 5.79100 1.40904 
3.25120 4.96400 1.20782 
3.16928 4.77800 1.16257 
2.66832 3.90000 0.94893 
2.39212 3.41300 0.83044 
2.39864 3.38200 0.82290 
2.62288 3.57200 0.86913 
3.25725 4.06600 0.98932 
3.20587 3.86100 0.93944 
3.07031 3.57200 0.86913 
2.92653 3.32400 0.80878 
2.89227 3.23900 0.78810 
2.90839 3.21200 0.78153 
2.90227 3.13300 0.76231 
2.88076 3.08200 0.74990 
2.83894 2.89500 0.70440 
2.89937 2.89500 0.70440 
-1.45604 1.60600 0.38406 
-1.42257 1.66900 0.39913 
-1.40020 1.68400 0.40271 
-1.37575 1.70600 0.40797 
-1.35215 1.77800 0.42519 
-1.34575 1.94000 0.46393 
-1.30075 1.97000 0.47111 
-1.28134 2.04400 0.48880 
-1.29014 2.10000 0.50220 
-1.24966 2.24800 0.53759 
-1.25333 2.28900 0.54739 
-1.27615 2.40400 0.57489 
-1.27401 2.41900 0.57848 
-1.26157 2.51500 0.60144 
-1.23789 2.53100 0.60527 
-1.16884 2.56500 0.61340 
-1.16581 2.58200 0.61746 
-1.10405 2.51500 0.60144 
-1.02437 2.45000 0.58589 
-0.98719 2.43400 0.58207 
-1.00717 2.61800 0.62607 
-1.02350 2.75000 0.65764 
-1.03653 2.98600 0.71407 
-1.01939 3.00900 0.71957 
-1.00682 3.00900 0.71957 
-0.85902 2.85200 0.68203 
-0.84712 2.85200 0.68203 
-0.74565 2.87400 0.68729 
-0.68040 2.85200 0.68203 
-0.66849 2.85200 0.68203 
-0.59222 3.00900 0.71957 
-0.36608 3.00900 0.71957 
-0.34095 3.00900 0.71957 
-0.26769 3.03300 0.72531 
-0.24627 3.08200 0.73703 
-0.17329 3.15900 0.75545 
-0.14691 3.15900 0.75545 
0.16686 3.10700 0.74301 
0.57620 3.00900 0.71957 
0.75074 3.60600 0.86234 
1.56506 6.47800 1.54916 
1.70589 6.82500 1.63214 
1.85778 7.07800 1.69264 
1.88733 7.07800 1.69264 
2.18287 7.07800 1.69264 
2.20111 6.94900 1.66179 
2.26380 6.70500 1.60344 
2.64628 6.82500 1.63214 
2.41339 5.46000 1.30571 
2.40183 5.38300 1.28730 
2.29778 4.96400 1.18710 
2.31851 4.96400 1.18710 
2.46360 4.96400 1.18710 
2.51685 5.02900 1.20264 
2.53785 5.02900 1.20264 
2.89630 5.38300 1.28730 
2.98333 5.46000 1.30571 
3.16518 5.62100 1.34421 
3.59364 6.06700 1.45087 
3.61218 5.97200 1.42815 
3.55106 5.79100 1.38487 
3.52214 5.70500 1.36430 
3.36569 5.30800 1.26936 
3.29510 5.09600 1.21866 
3.03704 4.55000 1.08809 
2.95059 4.39300 1.05055 
2.46459 3.47500 0.83101 
2.64784 3.60600 0.86234 
2.74044 3.71100 0.88745 
3.07162 4.02300 0.96206 
3.17276 3.94000 0.94222 
3.18921 3.94000 0.94222 
3.15751 3.86100 0.92332 
3.14157 3.82200 0.91400 
3.15774 3.78400 0.90491 
3.09836 3.64000 0.87047 
3.05539 3.57200 0.85421 
2.92653 3.32400 0.79490 
2.93522 3.21200 0.76812 
2.90227 3.13300 0.74923 
2.83712 2.91800 0.69781 
2.88586 2.91800 0.69781 
2.91023 2.91800 0.69781 
2.93459 2.91800 0.69781 
-1.47751 1.59300 0.37430 
-1.46421 1.59300 0.37430 
-1.45566 1.61300 0.37900 
-1.45325 1.63300 0.38370 
-1.42154 1.67600 0.39380 
-1.38484 1.69100 0.39733 
-1.35393 1.76100 0.41377 
-1.36256 1.87400 0.44033 
-1.34861 1.92100 0.45137 
-1.31870 1.96000 0.46053 
-1.29014 2.10000 0.49343 
-1.26879 2.18400 0.51316 
-1.24642 2.20900 0.51904 
-1.21168 2.56500 0.60269 
-1.17955 2.56500 0.60269 
-1.16884 2.56500 0.60269 
-1.04136 2.46600 0.57942 
-0.99904 2.51500 0.59094 
-1.03162 2.71100 0.63699 
-1.03094 2.77000 0.65085 
-1.03195 3.00900 0.70701 
-1.00682 3.00900 0.70701 
-0.98666 2.98600 0.70161 
-0.89615 2.89500 0.68022 
-0.86565 2.87400 0.67529 
-0.69066 2.89500 0.68022 
-0.56356 3.05800 0.71852 
-0.53802 3.05800 0.71852 
-0.47418 3.05800 0.71852 
-0.34095 3.00900 0.70701 
-0.25712 3.05800 0.71852 
-0.19638 3.10700 0.73004 
-0.18494 3.13300 0.73615 
-0.10645 3.13300 0.73615 
0.01101 3.05800 0.71852 
0.14092 3.10700 0.73004 
0.16686 3.10700 0.73004 
0.19281 3.10700 0.73004 
0.20578 3.10700 0.73004 
0.25560 3.08200 0.72416 
0.29659 3.10700 0.73004 
0.45056 3.00900 0.70701 
0.45959 2.98600 0.70161 
0.49785 2.91800 0.68563 
0.59835 3.05800 0.71852 
1.56506 6.47800 1.52211 
1.85778 7.07800 1.66309 
1.94644 7.07800 1.66309 
1.97599 7.07800 1.66309 
2.13356 7.21100 1.69434 
2.21242 7.07800 1.66309 
2.28001 6.59000 1.54842 
2.30752 6.59000 1.54842 
2.75239 6.94900 1.63278 
2.83943 6.94900 1.63278 
2.77529 6.59000 1.54842 
2.27706 4.96400 1.16637 
2.43286 5.02900 1.18164 
2.74514 5.30800 1.24720 
2.93773 5.46000 1.28291 
3.02649 5.53900 1.30147 
3.36012 5.88000 1.38160 
3.43763 5.97200 1.40321 
3.54298 6.06700 1.42554 
3.56831 6.06700 1.42554 
3.64431 6.06700 1.42554 
3.23048 4.96400 1.16637 
3.20929 4.90000 1.15133 
2.52739 3.60600 0.84729 
2.54831 3.57200 0.83930 
2.72494 3.71100 0.87196 
3.08942 3.98100 0.93540 
3.14055 3.90000 0.91637 
2.94637 3.23900 0.76105 
2.86029 3.03300 0.71265 
2.85022 3.00900 0.70701 
2.84376 2.96300 0.69620 
2.83712 2.91800 0.68563 
2.85102 2.89500 0.68022 
-1.47086 1.59300 0.36765 
-1.45756 1.59300 0.36765 
-1.45604 1.60600 0.37065 
-1.45325 1.63300 0.37688 
-1.39190 1.69100 0.39027 
-1.39139 1.69900 0.39211 
-1.36708 1.72200 0.39742 
-1.35723 1.73700 0.40088 
-1.36424 1.85500 0.42812 
-1.35910 1.90200 0.43896 
-1.35385 1.94000 0.44773 
-1.28134 2.04400 0.47173 
-1.25565 2.20900 0.50982 
-1.24448 2.22200 0.51282 
-1.24800 2.26200 0.52205 
-1.25687 2.33100 0.53797 
-1.25462 2.34500 0.54120 
-1.25226 2.35900 0.54443 
-1.25031 2.37400 0.54790 
-1.22732 2.53100 0.58413 
-1.05165 2.46600 0.56913 
-0.99630 2.48200 0.57282 
-1.01810 2.61800 0.60421 
-1.05739 2.94000 0.67852 
-1.05329 2.96300 0.68383 
-1.04451 3.00900 0.69445 
-1.04018 3.03300 0.69999 
-1.01939 3.00900 0.69445 
-0.94691 2.94000 0.67852 
-0.83093 3.00900 0.69445 
-0.75555 3.00900 0.69445 
-0.68912 2.94000 0.67852 
-0.47418 3.05800 0.70576 
-0.44498 3.03300 0.69999 
-0.31834 3.03300 0.69999 
-0.26989 3.05800 0.70576 
-0.23340 3.08200 0.71130 
-0.20767 3.08200 0.71130 
-0.18494 3.13300 0.72307 
-0.06611 3.08200 0.71130 
-0.00174 3.03300 0.69999 
0.07605 3.10700 0.71706 
0.10200 3.10700 0.71706 
0.19281 3.10700 0.71706 
0.25767 3.10700 0.71706 
0.36448 3.13300 0.72307 
0.39064 3.13300 0.72307 
0.55933 2.98600 0.68914 
1.02877 4.66100 1.07571 
1.79491 6.94900 1.60376 
2.15331 7.07800 1.63353 
2.18287 7.07800 1.63353 
2.23581 6.70500 1.54745 
2.77529 6.59000 1.52091 
2.51134 5.79100 1.33651 
2.29778 4.96400 1.14564 
2.55486 5.23600 1.20842 
2.80640 5.38300 1.24234 
3.14171 5.62100 1.29727 
3.33557 5.88000 1.35705 
3.36012 5.88000 1.35705 
3.43763 5.97200 1.37828 
3.51765 6.06700 1.40020 
3.67743 6.16500 1.42282 
3.36569 5.30800 1.22503 
3.25178 5.02900 1.16064 
3.23048 4.96400 1.14564 
2.95059 4.39300 1.01386 
2.79483 4.11000 0.94855 
2.75247 4.02300 0.92847 
2.63713 3.67500 0.84815 
3.09370 3.82200 0.88208 
2.94228 3.29500 0.76045 
2.94455 3.26700 0.75399 
2.95989 3.23900 0.74753 
2.83712 2.91800 0.67345 
2.83894 2.89500 0.66814 
2.89804 2.91800 0.67345 
2.91023 2.91800 0.67345 
2.93459 2.91800 0.67345 
2.96899 2.94000 0.67852 
-1.48427 1.58600 0.35941 
-1.44892 1.61300 0.36553 
-1.44844 1.62000 0.36712 
-1.44643 1.63300 0.37006 
-1.42854 1.67600 0.37981 
-1.41426 1.68400 0.38162 
-1.40723 1.68400 0.38162 
-1.37505 1.71400 0.38842 
-1.36708 1.72200 0.39023 
-1.35820 1.72900 0.39182 
-1.35611 1.80300 0.40859 
-1.36129 1.82000 0.41244 
-1.36708 1.83800 0.41652 
-1.35910 1.90200 0.43102 
-1.35493 1.93000 0.43737 
-1.35268 1.95000 0.44190 
-1.34325 1.96000 0.44416 
-1.28443 2.02200 0.45821 
-1.28338 2.08900 0.47340 
-1.27996 2.17200 0.49221 
-1.25968 2.18400 0.49493 
-1.25800 2.19700 0.49787 
-1.24243 2.23500 0.50648 
-1.24027 2.24800 0.50943 
-1.24483 2.34500 0.53141 
-1.17448 2.53100 0.57356 
-1.01414 2.45000 0.55521 
-1.01047 2.46600 0.55883 
-1.03563 2.69200 0.61005 
-1.04251 2.77000 0.62772 
-1.05329 2.96300 0.67146 
-1.01939 3.00900 0.68188 
-1.00682 3.00900 0.68188 
-0.95432 2.96300 0.67146 
-0.93463 2.94000 0.66625 
-0.79339 3.05800 0.69299 
-0.71786 3.00900 0.68188 
-0.65504 3.00900 0.68188 
-0.50773 3.10700 0.70409 
-0.47791 3.08200 0.69843 
-0.46504 3.08200 0.69843 
-0.44865 3.05800 0.69299 
-0.42311 3.05800 0.69299 
-0.31834 3.03300 0.68732 
-0.23340 3.08200 0.69843 
-0.04006 3.05800 0.69299 
0.04931 3.05800 0.69299 
0.07605 3.10700 0.70409 
0.08902 3.10700 0.70409 
0.15518 3.13300 0.70998 
0.24470 3.10700 0.70409 
0.33831 3.13300 0.70998 
0.40707 3.15900 0.71588 
0.49785 2.91800 0.66126 
0.70243 3.44300 0.78023 
0.92984 4.29400 0.97308 
1.02877 4.66100 1.05625 
1.16158 5.16500 1.17047 
1.59212 6.59000 1.49339 
1.64790 6.70500 1.51945 
1.73688 6.94900 1.57475 
2.53229 6.82500 1.54665 
2.82605 7.21100 1.63412 
2.85616 7.21100 1.63412 
2.88627 7.21100 1.63412 
2.91638 7.21100 1.63412 
2.70923 6.37000 1.44354 
2.64907 5.38300 1.21987 
3.02649 5.53900 1.25522 
3.33557 5.88000 1.33250 
3.65169 6.16500 1.39708 
3.57524 5.79100 1.31233 
3.51722 5.62100 1.27380 
3.16868 4.83800 1.09636 
2.99180 3.94000 0.89286 
3.10798 3.90000 0.88380 
3.09454 3.78400 0.85751 
3.05143 3.67500 0.83281 
3.06678 3.67500 0.83281 
2.94789 3.41300 0.77344 
2.92407 3.35300 0.75984 
2.94041 3.32400 0.75327 
2.98355 3.29500 0.74670 
2.82843 2.98600 0.67667 
-1.45637 1.59900 0.35568 
-1.44892 1.61300 0.35879 
-1.44508 1.64700 0.36636 
-1.43820 1.64700 0.36636 
-1.42129 1.68400 0.37459 
-1.41426 1.68400 0.37459 
-1.39000 1.70600 0.37948 
-1.37505 1.71400 0.38126 
-1.35269 1.76900 0.39350 
-1.36911 1.88300 0.41885 
-1.35910 1.90200 0.42308 
-1.30631 1.99100 0.44288 
-1.30451 2.00100 0.44510 
-1.29488 2.01200 0.44755 
-1.28468 2.07700 0.46201 
-1.28338 2.08900 0.46468 
-1.28869 2.11200 0.46979 
-1.24642 2.20900 0.49137 
-1.24878 2.31600 0.51517 
-1.24241 2.35900 0.52473 
-1.22829 2.38900 0.53141 
-1.22896 2.45000 0.54498 
-1.22669 2.46600 0.54854 
-1.16706 2.51500 0.55943 
-1.09659 2.49800 0.55565 
-1.04136 2.46600 0.54854 
-1.01414 2.45000 0.54498 
-1.04451 3.00900 0.66932 
-0.68017 3.00900 0.66932 
-0.66760 3.00900 0.66932 
-0.53367 3.10700 0.69112 
-0.42311 3.05800 0.68022 
-0.36900 3.03300 0.67466 
-0.31834 3.03300 0.67466 
-0.24627 3.08200 0.68556 
-0.11854 3.10700 0.69112 
-0.05325 3.08200 0.68556 
0.01110 3.08200 0.68556 
0.02397 3.08200 0.68556 
0.32523 3.13300 0.69690 
0.33831 3.13300 0.69690 
0.55502 2.96300 0.65909 
0.57620 3.00900 0.66932 
0.83673 3.94000 0.87641 
1.16158 5.16500 1.14890 
2.17468 7.35000 1.63493 
2.28816 6.94900 1.54573 
2.46224 6.94900 1.54573 
2.56490 5.97200 1.32841 
2.34620 5.30800 1.18071 
2.51114 5.23600 1.16469 
2.77815 5.46000 1.21452 
2.80095 5.46000 1.21452 
3.23672 5.79100 1.28815 
3.54872 6.16500 1.37134 
3.71151 6.26600 1.39381 
3.03704 4.55000 1.01210 
2.88800 4.24700 0.94470 
2.84210 4.15400 0.92401 
2.73345 3.90000 0.86751 
2.74974 3.90000 0.86751 
2.85121 3.86100 0.85884 
2.86733 3.86100 0.85884 
3.04115 3.94000 0.87641 
3.04285 3.90000 0.86751 
3.03931 3.60600 0.80212 
2.95943 3.44300 0.76586 
2.92407 3.35300 0.74584 
2.92852 3.29500 0.73294 
2.98355 3.29500 0.73294 
2.97184 3.26700 0.72671 
-1.46440 1.58600 0.34617 
-1.46973 1.59900 0.34900 
-1.45566 1.61300 0.35206 
-1.44508 1.64700 0.35948 
-1.43742 1.66200 0.36275 
-1.40558 1.69900 0.37083 
-1.36708 1.72200 0.37585 
-1.36533 1.84600 0.40292 
-1.35385 1.94000 0.42343 
-1.33125 1.99100 0.43456 
-1.32958 2.00100 0.43675 
-1.28134 2.04400 0.44613 
-1.27988 2.11200 0.46097 
-1.25376 2.22200 0.48498 
-1.24448 2.22200 0.48498 
-1.22829 2.38900 0.52143 
-1.21593 2.40400 0.52471 
-1.21132 2.49800 0.54522 
-1.06884 2.48200 0.54173 
-1.06538 2.89500 0.63187 
-1.05708 3.00900 0.65676 
-1.04018 3.03300 0.66199 
-1.02752 3.03300 0.66199 
-0.95432 2.96300 0.64672 
-0.90442 3.13300 0.68382 
-0.70401 3.05800 0.66745 
-0.63494 3.03300 0.66199 
-0.58085 3.08200 0.67269 
-0.56798 3.08200 0.67269 
-0.52506 3.13300 0.68382 
-0.48178 3.10700 0.67815 
-0.39757 3.05800 0.66745 
-0.29301 3.03300 0.66199 
-0.26989 3.05800 0.66745 
-0.21882 3.05800 0.66745 
-0.04006 3.05800 0.66745 
0.08902 3.10700 0.67815 
0.14209 3.13300 0.68382 
0.35431 3.15900 0.68950 
0.43345 3.15900 0.68950 
0.50602 2.89500 0.63187 
0.51811 2.89500 0.63187 
0.60305 3.08200 0.67269 
0.92984 4.29400 0.93723 
1.61990 6.70500 1.46346 
1.70786 6.94900 1.51672 
2.21729 7.49400 1.63567 
2.26675 7.35000 1.60424 
2.33063 7.07800 1.54487 
2.73573 7.21100 1.57390 
2.88053 7.35000 1.60424 
2.94191 7.35000 1.60424 
2.42518 5.53900 1.20897 
2.34620 5.30800 1.15855 
2.73256 5.46000 1.19172 
2.75535 5.46000 1.19172 
2.82375 5.46000 1.19172 
2.86934 5.46000 1.19172 
3.18836 5.79100 1.26397 
3.26192 5.88000 1.28339 
3.79000 6.26600 1.36764 
3.72030 6.06700 1.32421 
2.93514 4.34300 0.94792 
2.79022 3.98100 0.86891 
2.81487 3.90000 0.85123 
2.96405 3.86100 0.84272 
3.01065 3.57200 0.77964 
2.99761 3.53900 0.77244 
2.95943 3.44300 0.75148 
2.93524 3.38200 0.73817 
2.99731 3.29500 0.71918 
2.98548 3.26700 0.71307 
2.81902 2.96300 0.64672 
2.80941 2.94000 0.64170 
2.81276 2.91800 0.63689 
2.99222 2.96300 0.64672 
-1.48427 1.58600 0.33954 
-1.47751 1.59300 0.34104 
-1.45604 1.60600 0.34383 
-1.35620 1.74500 0.37358 
-1.36803 1.82900 0.39157 
-1.36708 1.83800 0.39349 
-1.35268 1.95000 0.41747 
-1.32009 2.01200 0.43075 
-1.29288 2.02200 0.43289 
-1.27988 2.11200 0.45216 
-1.27089 2.17200 0.46500 
-1.25084 2.30200 0.49283 
-1.23256 2.35900 0.50504 
-1.21593 2.40400 0.51467 
-1.19046 2.49800 0.53479 
-1.13831 2.49800 0.53479 
-1.10702 2.49800 0.53479 
-1.09659 2.49800 0.53479 
-1.05155 2.51500 0.53843 
-1.04032 2.56500 0.54914 
-1.06930 2.81000 0.60159 
-1.06547 2.83100 0.60608 
-1.06566 2.96300 0.63434 
-1.05708 3.00900 0.64419 
-1.05284 3.03300 0.64933 
-0.93144 3.00900 0.64419 
-0.77314 3.18500 0.68187 
-0.59372 3.08200 0.65982 
-0.41034 3.05800 0.65468 
-0.35927 3.05800 0.65468 
-0.28035 3.03300 0.64933 
-0.22969 3.03300 0.64933 
-0.20437 3.03300 0.64933 
-0.14105 3.03300 0.64933 
-0.12944 3.05800 0.65468 
-0.10472 3.08200 0.65982 
-0.05325 3.08200 0.65982 
0.04970 3.08200 0.65982 
0.24674 3.13300 0.67074 
0.28599 3.13300 0.67074 
0.38069 3.15900 0.67631 
0.42372 3.18500 0.68187 
0.47569 3.00900 0.64419 
1.16158 5.16500 1.10577 
1.46151 6.26600 1.34148 
2.38934 7.64400 1.63650 
2.38951 7.35000 1.57355 
2.55508 7.21100 1.54379 
2.64540 7.21100 1.54379 
2.97260 7.35000 1.57355 
2.97660 7.21100 1.54379 
2.30456 5.16500 1.10577 
2.27706 4.96400 1.06274 
2.84147 5.53900 1.18584 
2.84654 5.46000 1.16893 
2.91086 5.53900 1.18584 
3.81616 6.26600 1.34148 
3.46207 5.46000 1.16893 
3.38786 5.30800 1.13638 
3.18883 4.90000 1.04904 
2.91996 4.29400 0.91930 
2.90573 4.24700 0.90923 
2.84632 4.11000 0.87990 
2.84374 3.94000 0.84351 
2.91816 3.82200 0.81825 
3.06078 3.86100 0.82660 
2.93364 3.41300 0.73068 
2.95603 3.29500 0.70542 
2.99731 3.29500 0.70542 
2.97341 3.23900 0.69343 
2.91535 3.13300 0.67074 
2.84763 3.03300 0.64933 
2.79714 2.94000 0.62942 
2.80267 2.89500 0.61979 
2.83712 2.91800 0.62471 
2.93217 2.94000 0.62942 
2.94444 2.94000 0.62942 
-1.47640 1.59900 0.33565 
-1.45521 1.62000 0.34006 
-1.44702 1.62600 0.34132 
-1.44578 1.64000 0.34426 
-1.42832 1.68400 0.35349 
-1.40424 1.70600 0.35811 
-1.39712 1.70600 0.35811 
-1.38220 1.71400 0.35979 
-1.37264 1.72900 0.36294 
-1.36008 1.76900 0.37134 
-1.36803 1.82900 0.38393 
-1.36307 1.86400 0.39128 
-1.35144 1.96000 0.41143 
-1.30328 2.01200 0.42235 
-1.27966 2.05500 0.43137 
-1.25084 2.30200 0.48322 
-1.23256 2.35900 0.49519 
-1.20331 2.41900 0.50778 
-1.15175 2.48200 0.52100 
-1.07920 2.48200 0.52100 
-1.07747 2.89500 0.60770 
-1.07803 2.96300 0.62197 
-1.05708 3.00900 0.63163 
-0.94400 3.00900 0.63163 
-0.93384 3.05800 0.64191 
-0.84852 3.32400 0.69775 
-0.80669 3.26700 0.68579 
-0.74045 3.15900 0.66312 
-0.65294 3.05800 0.64191 
-0.60659 3.08200 0.64695 
-0.55962 3.10700 0.65220 
-0.40069 3.08200 0.64695 
-0.30568 3.03300 0.63667 
-0.28035 3.03300 0.63667 
-0.26769 3.03300 0.63667 
-0.15249 3.00900 0.63163 
-0.05325 3.08200 0.64695 
0.01110 3.08200 0.64695 
0.47067 3.05800 0.64191 
0.49393 2.89500 0.60770 
0.51435 2.87400 0.60329 
0.55071 2.94000 0.61715 
0.57179 2.98600 0.62680 
1.59190 6.70500 1.40747 
2.28956 7.96300 1.67154 
2.32281 7.96300 1.67154 
2.49486 7.21100 1.51369 
2.74922 7.49400 1.57309 
3.02767 7.64400 1.60458 
2.95125 7.07800 1.48577 
2.82372 6.70500 1.40747 
2.46109 5.62100 1.17992 
2.28588 5.02900 1.05565 
2.81835 5.53900 1.16271 
2.97742 5.62100 1.17992 
3.26308 5.97200 1.25360 
3.34032 6.06700 1.27355 
3.82088 6.59000 1.38333 
3.18883 4.90000 1.02858 
3.05453 4.60500 0.96665 
2.96893 4.39300 0.92215 
2.86348 4.11000 0.86274 
2.89629 3.90000 0.81866 
2.88624 3.82200 0.80229 
2.99630 3.86100 0.81048 
3.06078 3.86100 0.81048 
3.06428 3.74700 0.78655 
3.02237 3.64000 0.76408 
3.01065 3.57200 0.74981 
2.98430 3.50600 0.73596 
2.98355 3.29500 0.69166 
2.92635 3.15900 0.66312 
2.82843 2.98600 0.62680 
2.80941 2.94000 0.61715 
2.83396 2.94000 0.61715 
2.82494 2.91800 0.61253 
-1.44844 1.62000 0.33330 
-1.44643 1.63300 0.33597 
-1.44578 1.64000 0.33741 
-1.42832 1.68400 0.34646 
-1.37174 1.73700 0.35737 
-1.35958 1.77800 0.36580 
-1.35824 1.78600 0.36745 
-1.36424 1.85500 0.38164 
-1.36256 1.87400 0.38555 
-1.36124 1.88300 0.38740 
-1.35755 1.91100 0.39317 
-1.35268 1.95000 0.40119 
-1.33689 2.01200 0.41394 
-1.32849 2.01200 0.41394 
-1.29488 2.01200 0.41394 
-1.27466 2.08900 0.42979 
-1.27419 2.14700 0.44172 
-1.26304 2.22200 0.45715 
-1.25744 2.26200 0.46538 
-1.24713 2.33100 0.47958 
-1.07255 2.51500 0.51743 
-1.05824 2.53100 0.52072 
-1.07393 2.98600 0.61433 
-1.06964 3.00900 0.61907 
-1.05284 3.03300 0.62400 
-0.99426 3.00900 0.61907 
-0.65043 3.10700 0.63923 
-0.61151 3.10700 0.63923 
-0.57738 3.13300 0.64458 
-0.56430 3.13300 0.64458 
-0.55579 3.15900 0.64993 
-0.54260 3.15900 0.64993 
-0.50303 3.15900 0.64993 
-0.48581 3.13300 0.64458 
-0.43349 3.13300 0.64458 
-0.41356 3.08200 0.63408 
-0.24044 3.00900 0.61907 
-0.21367 2.98600 0.61433 
0.04970 3.08200 0.63408 
0.08831 3.08200 0.63408 
0.20922 3.15900 0.64993 
0.22058 3.13300 0.64458 
0.25767 3.10700 0.63923 
0.37053 3.18500 0.65528 
0.41042 3.18500 0.65528 
0.45226 3.10700 0.63923 
0.48933 2.94000 0.60487 
0.82824 3.90000 0.80238 
1.02877 4.66100 0.95894 
1.94251 7.64400 1.57266 
2.18981 7.96300 1.63829 
2.32281 7.96300 1.63829 
2.47067 7.80000 1.60476 
2.51226 7.35000 1.51218 
2.60570 6.06700 1.24821 
2.36837 5.30800 1.09206 
2.63333 5.53900 1.13958 
2.69578 5.62100 1.15645 
2.84147 5.53900 1.13958 
2.93048 5.62100 1.15645 
3.09165 5.79100 1.19143 
3.16371 5.88000 1.20974 
3.39428 6.16500 1.26838 
3.85956 6.70500 1.37947 
3.93094 6.59000 1.35581 
3.91823 6.47800 1.33277 
3.71192 5.97200 1.22867 
3.62360 5.79100 1.19143 
3.00340 4.44400 0.91430 
2.93789 4.29400 0.88344 
2.92618 4.20000 0.86410 
2.92882 4.15400 0.85464 
2.93212 4.11000 0.84558 
2.88345 3.86100 0.79435 
2.89957 3.86100 0.79435 
2.91569 3.86100 0.79435 
2.91816 3.82200 0.78633 
2.96603 3.82200 0.78633 
2.99795 3.82200 0.78633 
3.01391 3.82200 0.78633 
3.06178 3.82200 0.78633 
2.99574 3.57200 0.73490 
2.98284 3.53900 0.72811 
2.94041 3.32400 0.68387 
2.96979 3.29500 0.67791 
2.98355 3.29500 0.67791 
2.97341 3.23900 0.66639 
2.96204 3.21200 0.66083 
2.91535 3.13300 0.64458 
2.81902 2.96300 0.60960 
2.86149 2.91800 0.60034 
2.90762 2.94000 0.60487 
2.93217 2.94000 0.60487 
2.96748 2.96300 0.60960 
-1.49082 1.59300 0.32109 
-1.46421 1.59300 0.32109 
-1.46305 1.59900 0.32230 
-1.43828 1.65500 0.33359 
-1.43651 1.66900 0.33641 
-1.37077 1.74500 0.35173 
-1.36863 1.76100 0.35495 
-1.36128 1.76100 0.35495 
-1.35663 1.92100 0.38720 
-1.33956 1.99100 0.40131 
-1.32009 2.01200 0.40554 
-1.27768 2.12300 0.42792 
-1.24713 2.33100 0.46984 
-1.19045 2.43400 0.49060 
-1.17521 2.46600 0.49705 
-1.15462 2.46600 0.49705 
-1.06912 2.63600 0.53132 
-1.07297 2.67300 0.53878 
-1.08955 2.89500 0.58352 
-1.07803 2.96300 0.59723 
-1.06964 3.00900 0.60650 
-0.95657 3.00900 0.60650 
-0.94661 3.05800 0.61638 
-0.94805 3.38200 0.68168 
-0.89157 3.38200 0.68168 
-0.86333 3.38200 0.68168 
-0.74568 3.23900 0.65286 
-0.60354 3.13300 0.63150 
-0.59046 3.13300 0.63150 
-0.56430 3.13300 0.63150 
-0.55579 3.15900 0.63674 
-0.19965 2.96300 0.59723 
-0.15133 2.98600 0.60187 
-0.00177 3.08200 0.62122 
0.04970 3.08200 0.62122 
0.12794 3.10700 0.62625 
0.18134 3.13300 0.63150 
0.32793 3.15900 0.63674 
0.38383 3.18500 0.64198 
0.43345 3.15900 0.63674 
0.44664 3.15900 0.63674 
0.47569 3.00900 0.60650 
0.48933 2.94000 0.59259 
0.54659 2.91800 0.58816 
2.27024 8.13200 1.63911 
2.62406 7.49400 1.51051 
3.02767 7.64400 1.54075 
3.03083 7.49400 1.51051 
2.77529 6.59000 1.32830 
2.60570 6.06700 1.22288 
2.36837 5.30800 1.06990 
2.64884 5.62100 1.13298 
2.93892 5.97200 1.20373 
3.11461 5.88000 1.18519 
3.28966 6.06700 1.22288 
3.59366 6.47800 1.30572 
3.98563 6.82500 1.37567 
3.74563 6.06700 1.22288 
3.03922 4.49700 0.90643 
2.95893 4.24700 0.85604 
2.93212 4.11000 0.82842 
2.89310 3.94000 0.79416 
2.88914 3.78400 0.76271 
2.90783 3.74700 0.75526 
2.99574 3.57200 0.71998 
2.95791 3.47500 0.70043 
2.98205 3.32400 0.66999 
2.91535 3.13300 0.63150 
2.88076 3.08200 0.62122 
2.84763 3.03300 0.61134 
2.81596 2.98600 0.60187 
2.80941 2.94000 0.59259 
2.83712 2.91800 0.58816 
2.84931 2.91800 0.58816 
2.86149 2.91800 0.58816 
-1.47751 1.59300 0.31444 
-1.46305 1.59900 0.31562 
-1.44892 1.61300 0.31839 
-1.44578 1.64000 0.32371 
-1.43742 1.66200 0.32806 
-1.43535 1.68400 0.33240 
-1.42014 1.69100 0.33378 
-1.38708 1.72900 0.34128 
-1.36974 1.75300 0.34602 
-1.36700 1.77800 0.35095 
-1.36256 1.87400 0.36990 
-1.35985 1.89200 0.37346 
-1.35115 1.90200 0.37543 
-1.30328 2.01200 0.39714 
-1.29488 2.01200 0.39714 
-1.29288 2.02200 0.39912 
-1.28134 2.04400 0.40346 
-1.26843 2.24800 0.44373 
-1.27245 2.28900 0.45182 
-1.26812 2.31600 0.45715 
-1.23504 2.34500 0.46287 
-1.20834 2.38900 0.47156 
-1.20589 2.40400 0.47452 
-1.14138 2.48200 0.48992 
-1.13102 2.48200 0.48992 
-1.08305 2.51500 0.49643 
-1.07245 2.56500 0.50630 
-1.10093 2.83100 0.55880 
-1.09365 2.87400 0.56729 
-1.07803 2.96300 0.58486 
-1.04018 3.03300 0.59868 
-0.98169 3.00900 0.59394 
-0.84921 3.38200 0.66756 
-0.79301 3.32400 0.65612 
-0.71863 3.23900 0.63934 
-0.62971 3.13300 0.61841 
-0.56898 3.15900 0.62355 
-0.54260 3.15900 0.62355 
-0.48984 3.15900 0.62355 
-0.45965 3.13300 0.61841 
-0.43349 3.13300 0.61841 
-0.37496 3.08200 0.60835 
-0.34650 3.05800 0.60361 
-0.31834 3.03300 0.59868 
-0.12737 3.00900 0.59394 
-0.06560 3.05800 0.60361 
-0.05283 3.05800 0.60361 
-0.01464 3.08200 0.60835 
0.15518 3.13300 0.61841 
0.20750 3.13300 0.61841 
0.37053 3.18500 0.62868 
0.43345 3.15900 0.62355 
0.45605 3.13300 0.61841 
0.48933 2.94000 0.58032 
1.01641 4.60500 0.90897 
1.64983 6.94900 1.37165 
1.91059 7.64400 1.50883 
2.45843 8.30900 1.64009 
2.52782 8.30900 1.64009 
2.60094 7.80000 1.53962 
2.63351 7.80000 1.53962 
2.73121 7.80000 1.53962 
2.76378 7.80000 1.53962 
2.92662 7.80000 1.53962 
2.82372 6.70500 1.32348 
2.75517 6.47800 1.27868 
2.42431 5.38300 1.06254 
2.56395 5.53900 1.09333 
2.77089 5.88000 1.16064 
2.98568 6.06700 1.19755 
3.39756 6.26600 1.23683 
3.48055 6.37000 1.25736 
3.91297 6.94900 1.37165 
3.87164 6.82500 1.34717 
3.98563 6.82500 1.34717 
3.93094 6.59000 1.30078 
3.54069 5.62100 1.10951 
3.25178 5.02900 0.99266 
3.00562 4.39300 0.86712 
2.97879 4.20000 0.82903 
2.88001 3.90000 0.76981 
2.87028 3.82200 0.75441 
2.84890 3.71100 0.73250 
2.89218 3.74700 0.73961 
2.95476 3.74700 0.73961 
2.94187 3.71100 0.73250 
3.00717 3.64000 0.71849 
2.95429 3.32400 0.65612 
2.99731 3.29500 0.65039 
2.94863 3.21200 0.63401 
2.81596 2.98600 0.58940 
2.80267 2.89500 0.57144 
2.86149 2.91800 0.57598 
2.91989 2.94000 0.58032 
-1.47751 1.59300 0.30779 
-1.46305 1.59900 0.30895 
-1.43553 1.67600 0.32382 
-1.42720 1.69100 0.32672 
