ply
format ascii 1.0
comment pointcloud saved from Realsense Viewer
element vertex 1878
property float32 x
property float32 y
property float32 z
end_header
0.71750 3.45500 1.09131 
0.77119 3.49400 1.10363 
0.94989 3.61900 1.14311 
1.03075 3.70600 1.17059 
1.35960 3.18500 1.00602 
1.38519 3.05800 0.96591 
1.51873 3.13600 0.99055 
1.49166 2.76700 0.87399 
1.51136 2.60200 0.82188 
1.51395 2.52700 0.79819 
1.52110 2.51700 0.79503 
1.59293 2.50600 0.79155 
1.78630 2.46600 0.77892 
1.76021 2.28200 0.72080 
1.83038 2.27300 0.71796 
1.84224 2.27300 0.71796 
1.85349 2.26500 0.71543 
1.87783 2.27300 0.71796 
-1.47602 2.12300 0.66504 
-1.47602 2.13100 0.66754 
-1.38602 2.20000 0.68916 
-1.36446 2.24000 0.70169 
-1.33947 2.25700 0.70701 
-1.16876 2.35200 0.73677 
-0.93843 2.45600 0.76935 
-0.88858 2.49600 0.78188 
-0.81049 2.53700 0.79472 
-0.66905 2.65900 0.83294 
-0.60756 2.69400 0.84390 
-0.59785 2.68200 0.84015 
-0.59085 2.68200 0.84015 
-0.34711 2.80500 0.87868 
-0.22464 2.92600 0.91658 
-0.21138 2.95400 0.92535 
-0.17541 2.99800 0.93913 
-0.07518 3.05800 0.95793 
-0.05149 3.07300 0.96263 
-0.00340 3.10400 0.97234 
0.06268 3.16900 0.99270 
0.22328 3.21900 1.00836 
0.23168 3.21900 1.00836 
0.53995 3.36000 1.05253 
0.54871 3.36000 1.05253 
0.75357 3.45500 1.08229 
0.83502 3.49400 1.09451 
0.91061 3.57600 1.12019 
0.91994 3.57600 1.12019 
1.15574 3.55500 1.11362 
1.25210 3.61900 1.13366 
1.27836 3.64000 1.14024 
1.32619 3.51500 1.10109 
1.38588 3.04200 0.95292 
1.49384 2.91200 0.91219 
1.48223 2.64700 0.82918 
1.51309 2.55900 0.80162 
1.51977 2.55900 0.80162 
1.63276 2.51700 0.78846 
1.64590 2.51700 0.78846 
1.65903 2.51700 0.78846 
1.72195 2.46600 0.77248 
1.77416 2.47600 0.77562 
1.76513 2.27300 0.71202 
1.77106 2.27300 0.71202 
1.86531 2.26500 0.70952 
-1.62081 2.14600 0.66664 
-1.62048 2.15300 0.66882 
-1.43441 2.16900 0.67379 
-1.41014 2.18400 0.67845 
-1.36632 2.22400 0.69087 
-1.33358 2.25700 0.70112 
-1.30528 2.29000 0.71137 
-1.26455 2.32500 0.72225 
-1.22072 2.33400 0.72504 
-1.19486 2.34300 0.72784 
-1.09313 2.36100 0.73343 
-1.05394 2.39800 0.74492 
-0.96015 2.44600 0.75983 
-0.80416 2.55900 0.79494 
-0.62305 2.67000 0.82942 
-0.21138 2.95400 0.91764 
-0.13104 3.05800 0.94995 
0.49946 3.32400 1.03258 
0.51961 3.34200 1.03817 
0.82590 3.49400 1.08539 
0.91061 3.57600 1.11086 
1.27836 3.64000 1.13074 
1.34529 3.05800 0.94995 
1.37115 3.02700 0.94032 
1.44939 3.04200 0.94498 
1.48174 3.02700 0.94032 
1.48519 2.94000 0.91329 
1.49338 2.92600 0.90894 
1.48851 2.85800 0.88782 
1.49166 2.76700 0.85955 
1.49729 2.61300 0.81171 
1.58639 2.50600 0.77847 
1.76446 2.34300 0.72784 
1.77212 2.28200 0.70889 
1.85283 2.25700 0.70112 
-1.67681 2.14600 0.66104 
-1.67121 2.14600 0.66104 
-1.46401 2.14600 0.66104 
-1.29592 2.31600 0.71341 
-1.18717 2.35200 0.72450 
-1.05394 2.39800 0.73867 
-1.01602 2.42700 0.74760 
-1.00969 2.42700 0.74760 
-0.90731 2.47600 0.76269 
-0.76583 2.68200 0.82615 
-0.76222 2.69400 0.82984 
-0.75519 2.69400 0.82984 
-0.64130 2.65900 0.81906 
-0.56034 2.67000 0.82245 
-0.52786 2.68200 0.82615 
-0.48472 2.75500 0.84863 
-0.47961 2.76700 0.85233 
-0.46009 2.78000 0.85634 
-0.34711 2.80500 0.86404 
-0.33555 2.83100 0.87204 
-0.32817 2.83100 0.87204 
-0.16920 3.02700 0.93242 
0.07169 3.20200 0.98633 
0.08047 3.21900 0.99156 
0.13156 3.23600 0.99680 
0.20539 3.20200 0.98633 
0.33961 3.28800 1.01282 
0.41911 3.30600 1.01836 
0.52833 3.34200 1.02945 
1.09845 3.70600 1.14158 
1.13719 3.55500 1.09506 
1.19756 3.59700 1.10800 
1.31056 3.08900 0.95152 
1.33165 3.02700 0.93242 
1.36812 2.96900 0.91455 
1.38434 2.95400 0.90993 
1.45242 2.98300 0.91887 
1.45335 2.96900 0.91455 
1.48519 2.94000 0.90562 
1.49606 2.84400 0.87605 
1.50445 2.81800 0.86804 
1.49729 2.61300 0.80489 
1.50457 2.60200 0.80151 
1.53983 2.54800 0.78487 
1.65822 2.49600 0.76885 
1.77987 2.46600 0.75961 
1.78458 2.44600 0.75345 
1.77915 2.37900 0.73281 
1.88304 2.26500 0.69770 
-1.63201 2.14600 0.65544 
-1.49818 2.12300 0.64842 
-1.44739 2.13800 0.65300 
-1.41785 2.16100 0.66002 
-1.35376 2.23200 0.68171 
-1.30745 2.27300 0.69423 
-1.30528 2.29000 0.69942 
-1.28383 2.31600 0.70736 
-1.21463 2.33400 0.71286 
-1.18555 2.36100 0.72111 
-0.98568 2.44600 0.74707 
-0.94484 2.45600 0.75012 
-0.93843 2.45600 0.75012 
-0.86322 2.51700 0.76875 
-0.82373 2.53700 0.77486 
-0.72004 2.69400 0.82281 
-0.68576 2.67000 0.81548 
-0.62305 2.67000 0.81548 
-0.58124 2.67000 0.81548 
-0.54186 2.68200 0.81915 
-0.43108 2.78000 0.84908 
-0.38755 2.78000 0.84908 
-0.36008 2.79200 0.85275 
-0.28785 2.87100 0.87687 
-0.28036 2.87100 0.87687 
-0.27287 2.87100 0.87687 
-0.21701 2.92600 0.89367 
0.02111 3.13600 0.95781 
0.14001 3.23600 0.98835 
0.24008 3.21900 0.98316 
0.25688 3.21900 0.98316 
0.51961 3.34200 1.02073 
0.53995 3.36000 1.02623 
0.62918 3.41600 1.04333 
0.69562 3.43600 1.04944 
0.73554 3.45500 1.05524 
1.05009 3.70600 1.13190 
1.05347 3.68400 1.12518 
1.06944 3.70600 1.13190 
1.10452 3.66200 1.11847 
1.12363 3.66200 1.11847 
1.13719 3.55500 1.08579 
1.19756 3.59700 1.09861 
1.29932 3.61900 1.10533 
1.31188 3.57600 1.09220 
1.31257 3.45500 1.05524 
1.30667 3.41600 1.04333 
1.29444 3.08900 0.94346 
1.29856 3.04200 0.92910 
1.49597 2.85800 0.87290 
1.50676 2.75500 0.84144 
1.50021 2.73000 0.83381 
1.50296 2.64700 0.80846 
1.54648 2.55900 0.78158 
1.56011 2.52700 0.77181 
1.66369 2.45600 0.75012 
1.77435 2.31600 0.70736 
1.78998 2.28200 0.69698 
-1.62081 2.14600 0.64984 
-1.60961 2.14600 0.64984 
-1.48156 2.12300 0.64288 
-1.47602 2.13100 0.64530 
-1.47046 2.13100 0.64530 
-1.45297 2.13800 0.64742 
-1.41785 2.16100 0.65438 
-1.41743 2.16900 0.65681 
-1.39106 2.20800 0.66862 
-1.37297 2.21600 0.67104 
-1.30667 2.28200 0.69102 
-1.29144 2.30800 0.69890 
-1.24635 2.32500 0.70404 
-1.16091 2.36100 0.71495 
-1.05622 2.38900 0.72343 
-0.99844 2.44600 0.74069 
-0.72325 2.70600 0.81942 
-0.61608 2.67000 0.80852 
-0.60911 2.67000 0.80852 
-0.59518 2.67000 0.80852 
-0.57427 2.67000 0.80852 
-0.53022 2.69400 0.81578 
-0.47238 2.76700 0.83789 
-0.42382 2.78000 0.84183 
-0.34711 2.80500 0.84940 
-0.30284 2.87100 0.86938 
-0.28036 2.87100 0.86938 
0.01286 3.12000 0.94478 
0.08934 3.23600 0.97991 
0.22328 3.21900 0.97476 
0.92534 3.59700 1.08923 
1.04386 3.68400 1.11557 
1.10452 3.66200 1.10891 
1.13588 3.64000 1.10225 
1.20488 3.61900 1.09589 
1.23087 3.64000 1.10225 
1.26698 3.66200 1.10891 
1.27836 3.64000 1.10225 
1.29203 3.28800 0.99566 
1.34709 2.94000 0.89028 
1.40265 2.91200 0.88180 
1.49422 2.89800 0.87756 
1.50257 2.88500 0.87362 
1.56643 2.54800 0.77157 
1.58615 2.53700 0.76824 
1.63292 2.54800 0.77157 
1.79000 2.43600 0.73766 
1.80665 2.27300 0.68830 
-1.52051 2.13100 0.63974 
-1.36052 2.22400 0.66766 
-1.34891 2.22400 0.66766 
-1.33629 2.23200 0.67006 
-1.31769 2.24000 0.67246 
-1.28641 2.29900 0.69017 
-1.07875 2.37000 0.71149 
-1.04577 2.40800 0.72289 
-0.99844 2.44600 0.73430 
-0.50389 2.74200 0.82316 
-0.43833 2.78000 0.83457 
-0.23655 2.88500 0.86609 
-0.21038 2.94000 0.88260 
-0.14623 3.04200 0.91322 
-0.04369 3.08900 0.92733 
-0.03563 3.08900 0.92733 
-0.00340 3.10400 0.93184 
0.18128 3.21900 0.96636 
0.52833 3.34200 1.00329 
0.58135 3.39700 1.01980 
0.62918 3.41600 1.02550 
0.81678 3.49400 1.04892 
0.82590 3.49400 1.04892 
0.88670 3.55500 1.06723 
0.91595 3.59700 1.07984 
1.07911 3.70600 1.11256 
1.08878 3.70600 1.11256 
1.13185 3.59700 1.07984 
1.26498 3.68400 1.10596 
1.26698 3.66200 1.09935 
1.29580 3.34200 1.00329 
1.47751 2.94000 0.88260 
1.49422 2.89800 0.87000 
1.52575 2.84400 0.85378 
1.60658 2.55900 0.76823 
1.65759 2.46600 0.74031 
1.77932 2.29900 0.69017 
1.82614 2.29000 0.68747 
1.88868 2.30800 0.69287 
-1.64321 2.14600 0.63864 
-1.53108 2.13800 0.63626 
-1.41743 2.16900 0.64549 
-1.35376 2.23200 0.66423 
-1.23422 2.32500 0.69191 
-1.21320 2.34300 0.69727 
-1.19171 2.36100 0.70262 
-1.08493 2.37000 0.70530 
-0.98330 2.45600 0.73090 
-0.93843 2.45600 0.73090 
-0.91651 2.46600 0.73387 
-0.60485 2.68200 0.79815 
-0.57686 2.68200 0.79815 
-0.47961 2.76700 0.82345 
-0.32225 2.84400 0.84636 
-0.09912 3.05800 0.91005 
-0.02757 3.08900 0.91927 
0.02944 3.15200 0.93802 
0.07169 3.20200 0.95290 
0.31901 3.25300 0.96808 
0.32921 3.27000 0.97314 
0.47344 3.32400 0.98921 
0.61135 3.41600 1.01659 
0.79855 3.49400 1.03980 
1.01141 3.70600 1.10289 
1.14124 3.59700 1.07045 
1.26698 3.66200 1.08980 
1.27653 3.66200 1.08980 
1.30061 3.28800 0.97850 
1.29489 3.16900 0.94308 
1.31906 2.91200 0.86660 
1.33540 2.89800 0.86243 
1.35200 2.88500 0.85856 
1.38211 2.88500 0.85856 
1.42545 2.91200 0.86660 
1.45450 2.94000 0.87493 
1.49384 2.91200 0.86660 
1.49422 2.89800 0.86243 
1.53943 2.91200 0.86660 
1.54703 2.91200 0.86660 
1.55212 2.62500 0.78119 
1.59957 2.58000 0.76780 
-1.64881 2.14600 0.63304 
-1.52550 2.13800 0.63068 
-1.51992 2.13800 0.63068 
-1.49202 2.13800 0.63068 
-1.40835 2.20800 0.65133 
-1.39610 2.21600 0.65369 
-1.31067 2.24800 0.66313 
-1.08284 2.37900 0.70177 
-0.72325 2.70600 0.79823 
-0.69895 2.69400 0.79469 
-0.68184 2.68200 0.79115 
-0.61885 2.68200 0.79115 
-0.51594 2.73000 0.80531 
-0.46735 2.78000 0.82006 
-0.23541 2.87100 0.84691 
-0.21038 2.94000 0.86726 
0.01286 3.12000 0.92036 
0.08840 3.20200 0.94455 
0.09727 3.21900 0.94956 
0.24008 3.21900 0.94956 
0.35677 3.28800 0.96991 
0.41272 3.32400 0.98053 
0.42140 3.32400 0.98053 
0.66341 3.45500 1.01918 
0.72166 3.47500 1.02508 
0.80335 3.51500 1.03688 
0.81252 3.51500 1.03688 
1.08878 3.70600 1.09322 
1.11408 3.66200 1.08024 
1.16710 3.61900 1.06756 
1.29940 3.39700 1.00207 
1.30001 3.20200 0.94455 
1.33045 2.87100 0.84691 
1.36042 2.87100 0.84691 
1.41859 2.89800 0.85487 
1.45521 2.92600 0.86313 
1.54703 2.91200 0.85900 
1.68036 2.58000 0.76106 
1.67222 2.52700 0.74543 
1.79579 2.35200 0.69381 
1.92773 2.29000 0.67552 
-1.59236 2.12300 0.62072 
-1.58682 2.12300 0.62072 
-1.55358 2.12300 0.62072 
-1.42912 2.16100 0.63183 
-1.42047 2.20000 0.64323 
-1.31067 2.24800 0.65726 
-1.27094 2.28200 0.66720 
-1.23841 2.29900 0.67217 
-1.03706 2.41700 0.70667 
-1.02398 2.44600 0.71515 
-1.00893 2.45600 0.71808 
-0.98971 2.45600 0.71808 
-0.97689 2.45600 0.71808 
-0.94484 2.45600 0.71808 
-0.87252 2.50600 0.73270 
-0.85665 2.51700 0.73591 
-0.80071 2.54800 0.74498 
-0.75150 2.70600 0.79117 
-0.61459 2.69400 0.78766 
-0.52785 2.71800 0.79468 
-0.50389 2.74200 0.80170 
-0.18231 2.98300 0.87216 
-0.16051 3.01200 0.88064 
-0.03545 3.07300 0.89847 
0.02100 3.12000 0.91222 
0.13927 3.21900 0.94116 
0.36535 3.28800 0.96133 
0.47601 3.34200 0.97712 
0.82637 3.53500 1.03355 
0.93640 3.64000 1.06425 
1.15488 3.64000 1.06425 
1.29322 3.57600 1.04554 
1.29460 2.85800 0.83561 
1.31697 2.85800 0.83561 
1.33189 2.85800 0.83561 
1.41859 2.89800 0.84731 
1.57020 2.87100 0.83941 
1.59284 2.60200 0.76076 
1.66286 2.43600 0.71223 
1.79423 2.33400 0.68241 
1.79132 2.29900 0.67217 
1.79626 2.29000 0.66954 
1.80189 2.28200 0.66720 
1.93205 2.36100 0.69030 
-1.54250 2.12300 0.61518 
-1.53108 2.13800 0.61952 
-1.51441 2.14600 0.62184 
-1.47529 2.13800 0.61952 
-1.35959 2.23200 0.64676 
-1.34211 2.23200 0.64676 
-1.29236 2.25700 0.65400 
-1.21463 2.33400 0.67632 
-1.05394 2.39800 0.69486 
-1.02869 2.42700 0.70326 
-0.98330 2.45600 0.71167 
-0.96156 2.46600 0.71457 
-0.91377 2.47600 0.71746 
-0.79725 2.53700 0.73514 
-0.64685 2.68200 0.77716 
-0.58460 2.71800 0.78759 
-0.41836 2.79200 0.80903 
-0.25672 2.85800 0.82815 
0.09625 3.18500 0.92291 
0.13018 3.20200 0.92783 
0.14689 3.20200 0.92783 
0.33775 3.27000 0.94754 
0.46728 3.34200 0.96840 
0.48212 3.32400 0.96319 
0.55748 3.36000 0.97362 
0.57827 3.37900 0.97912 
0.65976 3.43600 0.99564 
0.72560 3.49400 1.01245 
0.90657 3.59700 1.04229 
1.08580 3.72900 1.08054 
1.22875 3.66200 1.06113 
1.26698 3.66200 1.06113 
1.28884 3.41600 0.98984 
1.27789 3.01200 0.87278 
1.26327 2.80500 0.81280 
1.35426 2.85800 0.82815 
1.55008 2.73000 0.79106 
1.55174 2.63600 0.76383 
1.61321 2.60200 0.75397 
1.70439 2.37000 0.68675 
1.79503 2.34300 0.67892 
1.94560 2.37000 0.68675 
-1.59263 2.11600 0.60762 
-1.58711 2.11600 0.60762 
-1.52001 2.14600 0.61624 
-1.44604 2.16100 0.62055 
-1.44040 2.16100 0.62055 
-1.40695 2.22400 0.63864 
-1.39453 2.23200 0.64094 
-1.20404 2.36100 0.67798 
-1.06869 2.38900 0.68602 
-0.86598 2.50600 0.71962 
-0.82048 2.52700 0.72565 
-0.78383 2.58000 0.74087 
-0.75232 2.65900 0.76355 
-0.35608 2.81800 0.80921 
-0.29257 2.84400 0.81668 
-0.26288 2.84400 0.81668 
-0.08231 3.02700 0.86923 
0.00470 3.10400 0.89134 
0.33775 3.27000 0.93900 
0.62918 3.41600 0.98093 
0.79869 3.53500 1.01510 
0.88779 3.59700 1.03291 
1.21741 3.77500 1.08402 
1.24352 3.70600 1.06421 
1.27836 3.34200 0.95968 
1.24141 2.92600 0.84022 
1.22327 2.83100 0.81294 
1.22449 2.76700 0.79456 
1.48575 2.92600 0.84022 
1.56223 2.91200 0.83620 
1.56582 2.62500 0.75379 
1.59963 2.59100 0.74402 
1.85405 2.32500 0.66764 
1.94355 2.39800 0.68860 
1.96422 2.40800 0.69148 
-1.69352 2.15300 0.61263 
-1.56535 2.10900 0.60011 
-1.45193 2.15300 0.61263 
-1.40618 2.23200 0.63511 
-1.31653 2.24800 0.63966 
-1.29236 2.25700 0.64222 
-1.27186 2.27300 0.64678 
-1.26344 2.29000 0.65161 
-1.25641 2.29900 0.65418 
-1.25041 2.29900 0.65418 
-1.22815 2.32500 0.66157 
-1.22681 2.33400 0.66413 
-1.19171 2.36100 0.67182 
-1.17939 2.36100 0.67182 
-1.17770 2.37000 0.67438 
-1.16533 2.37000 0.67438 
-1.01121 2.44600 0.69600 
-0.91008 2.46600 0.70169 
-0.85008 2.51700 0.71621 
-0.55868 2.73000 0.77682 
-0.55156 2.73000 0.77682 
-0.54443 2.73000 0.77682 
-0.27030 2.84400 0.80925 
-0.18825 2.95400 0.84055 
-0.14411 2.99800 0.85307 
-0.12847 2.99800 0.85307 
0.07880 3.15200 0.89689 
0.22328 3.21900 0.91596 
0.47344 3.32400 0.94584 
0.53705 3.34200 0.95096 
0.65976 3.43600 0.97771 
0.71259 3.47500 0.98880 
0.77102 3.53500 1.00588 
0.78024 3.53500 1.00588 
0.86902 3.59700 1.02352 
1.23027 3.84600 1.09437 
1.25937 3.64000 1.03575 
1.26315 3.23600 0.92080 
1.21440 2.89800 0.82462 
1.46984 2.94000 0.83657 
1.59284 2.60200 0.74039 
1.70996 2.63600 0.75007 
1.66023 2.33400 0.66413 
1.79248 2.31600 0.65901 
1.84083 2.31600 0.65901 
1.87452 2.34300 0.66670 
1.94355 2.39800 0.68235 
-1.68241 2.14600 0.60504 
-1.66498 2.13800 0.60278 
-1.62560 2.12300 0.59855 
-1.49201 2.14600 0.60504 
-1.48641 2.14600 0.60504 
-1.40036 2.23200 0.62929 
-1.34000 2.24800 0.63380 
-1.30480 2.24800 0.63380 
-1.26942 2.29000 0.64564 
-1.23548 2.31600 0.65297 
-1.15113 2.37900 0.67073 
-1.10610 2.38900 0.67355 
-1.09775 2.39800 0.67609 
-1.07897 2.39800 0.67609 
-0.98330 2.45600 0.69244 
-0.91651 2.46600 0.69526 
-0.88858 2.49600 0.70372 
-0.83694 2.51700 0.70964 
-0.77010 2.62500 0.74009 
-0.75957 2.63600 0.74319 
-0.73453 2.67000 0.75277 
-0.62716 2.71800 0.76631 
-0.47752 2.75500 0.77674 
-0.30600 2.83100 0.79817 
-0.27030 2.84400 0.80183 
-0.20937 2.92600 0.82495 
0.02100 3.12000 0.87965 
0.05385 3.13600 0.88416 
0.13637 3.15200 0.88867 
0.49946 3.32400 0.93716 
0.58709 3.37900 0.95267 
0.66873 3.43600 0.96874 
0.68144 3.45500 0.97410 
0.83595 3.57600 1.00821 
0.89841 3.64000 1.02626 
0.99822 3.72900 1.05135 
1.02396 3.75200 1.05783 
1.15125 3.75200 1.05783 
1.23795 3.87000 1.09110 
1.26154 3.61900 1.02034 
1.26326 3.59700 1.01413 
1.26707 3.55500 1.00229 
1.24152 3.20200 0.90277 
1.23415 3.12000 0.87965 
1.15588 2.65900 0.74967 
1.16976 2.65900 0.74967 
1.19058 2.65900 0.74967 
1.32183 2.80500 0.79084 
1.55862 2.63600 0.74319 
1.71652 2.62500 0.74009 
1.77295 2.37900 0.67073 
1.79098 2.37000 0.66819 
1.82242 2.30800 0.65071 
1.93899 2.32500 0.65551 
-1.53620 2.15300 0.60139 
-1.37615 2.24000 0.62570 
-1.27779 2.27300 0.63491 
-1.18389 2.37000 0.66201 
-1.17152 2.37000 0.66201 
-0.95766 2.45600 0.68603 
-0.56829 2.74200 0.76592 
-0.39835 2.80500 0.78352 
-0.25672 2.85800 0.79832 
0.04566 3.13600 0.87597 
0.24848 3.21900 0.89916 
0.47344 3.32400 0.92849 
0.50814 3.32400 0.92849 
0.51681 3.32400 0.92849 
0.57502 3.36000 0.93854 
0.58709 3.37900 0.94385 
0.62026 3.41600 0.95419 
0.73472 3.49400 0.97597 
0.74831 3.51500 0.98184 
0.86489 3.61900 1.01089 
1.03715 3.72900 1.04162 
1.05976 3.70600 1.03519 
1.25394 3.92000 1.09497 
1.25123 3.72900 1.04162 
1.24141 3.36000 0.93854 
1.22734 3.25300 0.90866 
1.21831 3.18500 0.88966 
1.19367 3.05800 0.85419 
1.16035 2.85800 0.79832 
1.23034 2.67000 0.74581 
1.45371 2.95400 0.82514 
1.51010 2.88500 0.80586 
1.53269 2.88500 0.80586 
1.70308 2.63600 0.73631 
1.70996 2.63600 0.73631 
1.67794 2.50600 0.70000 
1.63701 2.38900 0.66732 
1.62393 2.35200 0.65698 
1.62325 2.31600 0.64692 
1.78731 2.32500 0.64944 
1.88786 2.35200 0.65698 
1.91467 2.37000 0.66201 
-1.64841 2.13100 0.58969 
-1.61472 2.11600 0.58554 
-1.59287 2.10900 0.58360 
-1.55898 2.13800 0.59163 
-1.46296 2.16100 0.59799 
-1.45732 2.16100 0.59799 
-1.44433 2.18400 0.60435 
-1.43080 2.21600 0.61321 
-1.36347 2.24800 0.62206 
-1.24508 2.33400 0.64586 
-1.22400 2.35200 0.65084 
-1.12480 2.38900 0.66108 
-1.10401 2.39800 0.66357 
-1.08347 2.40800 0.66634 
-0.97048 2.45600 0.67962 
-0.62554 2.74200 0.75876 
-0.57099 2.75500 0.76236 
-0.52306 2.73000 0.75544 
-0.22357 2.91200 0.80581 
-0.12971 3.02700 0.83763 
-0.09860 3.04200 0.84178 
-0.04326 3.05800 0.84621 
0.13568 3.13600 0.86779 
0.15283 3.15200 0.87222 
0.16105 3.15200 0.87222 
0.19500 3.16900 0.87692 
0.22092 3.18500 0.88135 
0.31901 3.25300 0.90017 
0.37393 3.28800 0.90985 
0.46477 3.32400 0.91981 
0.94371 3.70600 1.02552 
1.01769 3.72900 1.03189 
1.09193 3.68400 1.01943 
1.23321 3.61900 1.00145 
1.23226 3.53500 0.97820 
1.13240 2.84400 0.78699 
1.09623 2.53700 0.70204 
1.23356 2.64700 0.73248 
1.68912 2.62500 0.72639 
1.70308 2.63600 0.72943 
1.63533 2.29900 0.63618 
-1.55868 2.15300 0.59016 
-1.49761 2.14600 0.58824 
-1.49201 2.14600 0.58824 
-1.44433 2.18400 0.59865 
-1.35173 2.24800 0.61620 
-1.19626 2.37000 0.64964 
-1.19007 2.37000 0.64964 
-1.07719 2.40800 0.66006 
-1.07091 2.40800 0.66006 
-1.01534 2.45600 0.67321 
-0.89800 2.48600 0.68144 
-0.83037 2.51700 0.68993 
-0.72456 2.65900 0.72886 
-0.69272 2.67000 0.73187 
-0.63425 2.71800 0.74503 
-0.62554 2.74200 0.75161 
-0.59256 2.75500 0.75517 
-0.41299 2.80500 0.76888 
-0.31783 2.80500 0.76888 
-0.22357 2.91200 0.79821 
-0.08316 3.05800 0.83823 
0.10295 3.13600 0.85961 
0.22092 3.18500 0.87304 
0.32750 3.25300 0.89168 
0.37393 3.28800 0.90127 
0.41911 3.30600 0.90621 
0.50814 3.32400 0.91114 
0.55450 3.34200 0.91607 
0.74831 3.51500 0.96349 
1.03075 3.70600 1.01585 
1.07585 3.66200 1.00379 
1.21731 3.34200 0.91607 
1.14207 3.02700 0.82973 
1.16243 2.53700 0.69542 
1.33756 2.79200 0.76531 
1.40347 2.89800 0.79437 
1.47281 2.87100 0.78697 
1.47360 2.85800 0.78340 
1.52580 2.85800 0.78340 
1.53749 2.64700 0.72557 
1.59286 2.59100 0.71022 
1.63358 2.60200 0.71323 
1.68227 2.62500 0.71954 
1.69208 2.53700 0.69542 
1.67104 2.48600 0.68144 
1.67810 2.32500 0.63730 
1.69677 2.33400 0.63977 
1.83585 2.32500 0.63730 
1.84904 2.33400 0.63977 
1.94041 2.33400 0.63977 
-1.62576 2.11600 0.57449 
-1.59815 2.11600 0.57449 
-1.58128 2.12300 0.57639 
-1.53627 2.16100 0.58671 
-1.45140 2.16900 0.58888 
-1.39534 2.22400 0.60382 
-1.30414 2.25700 0.61278 
-1.29103 2.26500 0.61495 
-1.21020 2.36100 0.64101 
-1.03674 2.44600 0.66409 
-0.82674 2.50600 0.68038 
-0.75640 2.62500 0.71269 
-0.73206 2.63600 0.71567 
-0.65677 2.69400 0.73142 
-0.58537 2.75500 0.74798 
-0.19695 2.96900 0.80608 
0.12685 3.12000 0.84708 
0.15205 3.13600 0.85142 
0.23881 3.20200 0.86934 
0.32750 3.25300 0.88319 
0.37393 3.28800 0.89269 
0.56625 3.36000 0.91224 
0.58709 3.37900 0.91740 
0.73472 3.49400 0.94862 
0.78466 3.55500 0.96518 
0.87941 3.64000 0.98826 
1.01141 3.70600 1.00618 
1.06629 3.66200 0.99423 
1.12746 3.70600 1.00618 
1.20633 3.36000 0.91224 
1.04403 2.47600 0.67223 
1.15477 2.50600 0.68038 
1.43230 2.92600 0.79441 
1.48122 2.84400 0.77215 
1.50349 2.84400 0.77215 
1.51947 2.80500 0.76156 
1.53428 2.79200 0.75803 
1.54440 2.64700 0.71866 
1.59284 2.60200 0.70644 
1.60642 2.60200 0.70644 
1.62000 2.60200 0.70644 
1.67104 2.48600 0.67495 
1.94177 2.34300 0.63612 
-1.62589 2.10900 0.56709 
-1.34536 2.25700 0.60689 
-1.31067 2.24800 0.60447 
-1.26735 2.30800 0.62060 
-1.25966 2.31600 0.62275 
-1.16658 2.39800 0.64480 
-1.13530 2.39800 0.64480 
-1.10233 2.40800 0.64749 
-1.02175 2.45600 0.66039 
-0.92023 2.47600 0.66577 
-0.90085 2.47600 0.66577 
-0.89800 2.48600 0.66846 
-0.88502 2.48600 0.66846 
-0.66084 2.68200 0.72116 
-0.63851 2.70600 0.72762 
-0.62280 2.73000 0.73407 
-0.61838 2.74200 0.73730 
-0.49456 2.73000 0.73407 
-0.32515 2.80500 0.75424 
-0.15417 3.04200 0.81796 
-0.13829 3.04200 0.81796 
-0.06788 3.08900 0.83060 
0.06171 3.12000 0.83894 
0.06986 3.12000 0.83894 
0.09380 3.10400 0.83464 
0.15205 3.13600 0.84324 
0.16023 3.13600 0.84324 
0.31901 3.25300 0.87470 
0.39109 3.28800 0.88411 
0.51401 3.30600 0.88895 
0.90384 3.66200 0.98468 
1.12746 3.70600 0.99651 
1.21020 3.84600 1.03415 
1.25252 3.82200 1.02770 
1.09390 2.94000 0.79054 
1.01277 2.52700 0.67949 
1.01090 2.50600 0.67384 
1.03851 2.38900 0.64238 
1.51833 2.84400 0.76472 
1.57203 2.64700 0.71175 
1.58637 2.62500 0.70584 
1.59275 2.61300 0.70261 
1.65412 2.61300 0.70261 
1.66776 2.61300 0.70261 
1.69331 2.56900 0.69078 
1.67794 2.50600 0.67384 
1.85617 2.34300 0.63001 
1.94678 2.37900 0.63969 
1.94041 2.33400 0.62759 
-1.65337 2.11600 0.56345 
-1.63139 2.10900 0.56159 
-1.53063 2.16100 0.57543 
-1.45003 2.18400 0.58156 
-1.43195 2.20000 0.58582 
-1.42047 2.20000 0.58582 
-1.39682 2.20800 0.58795 
-1.38288 2.23200 0.59434 
-1.36933 2.24800 0.59860 
-1.29103 2.26500 0.60313 
-1.26735 2.30800 0.61458 
-1.25966 2.31600 0.61671 
-1.16844 2.38900 0.63614 
-1.12118 2.40800 0.64120 
-1.08347 2.40800 0.64120 
-1.05599 2.41700 0.64360 
-0.94607 2.47600 0.65931 
-0.89800 2.48600 0.66197 
-0.83982 2.50600 0.66730 
-0.73893 2.63600 0.70192 
-0.69272 2.67000 0.71097 
-0.60407 2.74200 0.73014 
-0.42226 2.81800 0.75038 
-0.14700 3.05800 0.81429 
0.15127 3.12000 0.83080 
0.25688 3.21900 0.85716 
0.29355 3.25300 0.86621 
0.34628 3.27000 0.87074 
0.42541 3.28800 0.87553 
0.61135 3.41600 0.90961 
0.82662 3.57600 0.95222 
1.24254 3.82200 1.01773 
1.18255 3.27000 0.87074 
1.54221 2.76700 0.73680 
1.54974 2.74200 0.73014 
1.63367 2.61300 0.69579 
1.62933 2.29900 0.61218 
1.72872 2.36100 0.62869 
1.74669 2.35200 0.62629 
1.78731 2.32500 0.61910 
1.79338 2.32500 0.61910 
1.86944 2.35200 0.62629 
-1.64240 2.10900 0.55608 
-1.59803 2.13800 0.56373 
-1.59281 2.14600 0.56584 
-1.50811 2.15300 0.56768 
-1.36892 2.25700 0.59511 
-1.25242 2.32500 0.61304 
-1.06229 2.41700 0.63729 
-0.99777 2.47600 0.65285 
-0.87555 2.49600 0.65812 
-0.83037 2.51700 0.66366 
-0.68884 2.68200 0.70717 
-0.66380 2.69400 0.71033 
-0.65677 2.69400 0.71033 
-0.64134 2.71800 0.71666 
-0.62280 2.73000 0.71982 
-0.59975 2.75500 0.72641 
-0.53731 2.73000 0.71982 
-0.49674 2.74200 0.72299 
0.04520 3.10400 0.81843 
0.29355 3.25300 0.85772 
0.32750 3.25300 0.85772 
0.37188 3.27000 0.86220 
0.47950 3.30600 0.87170 
0.54578 3.34200 0.88119 
0.74831 3.51500 0.92680 
0.92295 3.66200 0.96556 
1.00655 3.61900 0.95423 
1.03798 3.59700 0.94842 
0.96127 2.49600 0.65812 
1.00551 2.37000 0.62490 
1.05115 2.33400 0.61541 
1.06132 2.34300 0.61778 
1.65347 2.31600 0.61066 
1.66596 2.32500 0.61304 
1.77057 2.34300 0.61778 
1.93432 2.33400 0.61541 
-1.60368 2.11600 0.55241 
-1.57026 2.16900 0.56624 
-1.51373 2.15300 0.56207 
-1.49680 2.16100 0.56415 
-1.45535 2.19200 0.57225 
-1.33358 2.25700 0.58922 
-1.26942 2.29000 0.59783 
-1.26841 2.29900 0.60018 
-1.25966 2.31600 0.60462 
-1.25242 2.32500 0.60697 
-1.13798 2.41700 0.63099 
-1.13002 2.42700 0.63360 
-1.08122 2.41700 0.63099 
-0.92766 2.49600 0.65161 
-0.83694 2.51700 0.65709 
-0.81400 2.54800 0.66518 
-0.81084 2.55900 0.66806 
-0.73150 2.65900 0.69416 
-0.72456 2.65900 0.69416 
-0.42763 2.80500 0.73228 
-0.42226 2.81800 0.73567 
-0.40755 2.81800 0.73567 
-0.39466 2.83100 0.73906 
-0.35772 2.83100 0.73906 
-0.28655 2.85800 0.74611 
-0.21909 2.95400 0.77118 
-0.17623 3.01200 0.78632 
-0.16210 3.04200 0.79415 
0.08570 3.10400 0.81033 
0.12620 3.10400 0.81033 
0.21981 3.16900 0.82730 
0.25823 3.23600 0.84479 
0.29355 3.25300 0.84923 
0.30362 3.27000 0.85367 
0.44499 3.30600 0.86307 
0.50814 3.32400 0.86777 
0.73472 3.49400 0.91215 
0.78024 3.53500 0.92285 
0.99711 3.61900 0.94478 
1.14000 3.68400 0.96175 
0.98488 2.64700 0.69103 
1.00402 2.35200 0.61402 
1.09210 2.37000 0.61872 
1.10246 2.37900 0.62107 
1.22927 2.58000 0.67354 
1.40647 2.85800 0.74611 
1.48923 2.83100 0.73906 
1.54945 2.78000 0.72575 
1.59989 2.63600 0.68816 
1.60692 2.62500 0.68529 
1.66455 2.48600 0.64900 
1.62440 2.39800 0.62603 
1.58734 2.29900 0.60018 
1.65989 2.32500 0.60697 
1.69758 2.35200 0.61402 
1.72913 2.37000 0.61872 
1.78814 2.33400 0.60932 
1.88276 2.36100 0.61637 
1.92686 2.32500 0.60697 
-1.64165 2.10100 0.54301 
-1.63690 2.10900 0.54507 
-1.60344 2.12300 0.54869 
-1.58158 2.16900 0.56058 
-1.53627 2.16100 0.55851 
-1.43818 2.19200 0.56653 
-1.29825 2.25700 0.58333 
-1.29236 2.25700 0.58333 
-1.26942 2.29000 0.59185 
-1.26841 2.29900 0.59418 
-0.92115 2.49600 0.64510 
-0.81711 2.53700 0.65569 
-0.72456 2.65900 0.68722 
-0.66380 2.69400 0.69627 
-0.62992 2.73000 0.70557 
-0.47961 2.76700 0.71514 
-0.38163 2.84400 0.73504 
-0.08484 3.12000 0.80637 
-0.04413 3.12000 0.80637 
0.05330 3.10400 0.80223 
0.33775 3.27000 0.84514 
0.49676 3.30600 0.85444 
0.51681 3.32400 0.85909 
0.55748 3.36000 0.86840 
0.74384 3.49400 0.90303 
0.96289 3.59700 0.92965 
0.99105 3.59700 0.92965 
1.04737 3.59700 0.92965 
1.16884 3.68400 0.95214 
0.94683 2.52700 0.65311 
0.96841 2.37000 0.61253 
1.00242 2.33400 0.60323 
1.40796 2.83100 0.73168 
1.52580 2.85800 0.73866 
1.53326 2.85800 0.73866 
1.63367 2.61300 0.67533 
1.67217 2.51700 0.65052 
1.62969 2.30800 0.59651 
1.70408 2.36100 0.61020 
1.74299 2.38900 0.61744 
1.76510 2.35200 0.60788 
1.86944 2.35200 0.60788 
-1.60361 2.13800 0.54699 
-1.40444 2.18400 0.55876 
-1.39242 2.19200 0.56081 
-1.38288 2.23200 0.57104 
-1.29825 2.25700 0.57744 
-1.19331 2.35200 0.60174 
-1.16844 2.38900 0.61121 
-0.96936 2.48600 0.63602 
-0.74202 2.64700 0.67721 
-0.63705 2.73000 0.69845 
-0.63269 2.74200 0.70152 
-0.27420 2.88500 0.73810 
-0.16920 3.02700 0.77443 
-0.09251 3.10400 0.79413 
0.29508 3.27000 0.83660 
0.42541 3.28800 0.84121 
0.54871 3.36000 0.85963 
0.86327 3.53500 0.90440 
0.90127 3.57600 0.91489 
0.91061 3.57600 0.91489 
1.20923 3.57600 0.91489 
1.09527 3.07300 0.78620 
0.92738 2.40800 0.61607 
0.92863 2.37900 0.60865 
0.95604 2.37000 0.60635 
0.97089 2.36100 0.60404 
0.98415 2.33400 0.59714 
1.53274 2.87100 0.73452 
1.57176 2.70600 0.69231 
1.67282 2.54800 0.65189 
1.66486 2.50600 0.64114 
1.77595 2.33400 0.59714 
1.78731 2.32500 0.59483 
1.87558 2.35200 0.60174 
1.88172 2.35200 0.60174 
-1.61488 2.10900 0.53407 
-1.60392 2.13100 0.53964 
-1.60361 2.13800 0.54141 
-1.49015 2.17600 0.55103 
-1.46679 2.19200 0.55509 
-1.39176 2.20000 0.55711 
-1.36303 2.25700 0.57155 
-1.35714 2.25700 0.57155 
-1.26570 2.31600 0.58649 
-1.17770 2.37000 0.60016 
-1.17597 2.37900 0.60244 
-0.94069 2.49600 0.63207 
-0.78041 2.59100 0.65613 
-0.75269 2.63600 0.66752 
-0.74202 2.64700 0.67031 
-0.73150 2.65900 0.67335 
-0.71363 2.67000 0.67613 
-0.63269 2.74200 0.69436 
-0.59793 2.78000 0.70399 
-0.46735 2.78000 0.70399 
-0.09251 3.10400 0.78603 
0.11810 3.10400 0.78603 
0.14240 3.10400 0.78603 
0.33961 3.28800 0.83263 
0.39967 3.28800 0.83263 
0.45362 3.30600 0.83719 
0.52833 3.34200 0.84630 
1.12363 3.66200 0.92734 
1.19756 3.59700 0.91088 
1.18879 3.43600 0.87011 
1.01139 2.29900 0.58218 
1.04546 2.30800 0.58446 
1.57121 2.74200 0.69436 
1.59266 2.67000 0.67613 
1.67336 2.55900 0.64802 
1.71707 2.37900 0.60244 
1.79852 2.31600 0.58649 
1.86123 2.33400 0.59104 
1.88439 2.32500 0.58877 
1.89045 2.32500 0.58877 
-1.62589 2.10900 0.52856 
-1.60898 2.12300 0.53207 
-1.58158 2.16900 0.54360 
-1.50807 2.16100 0.54160 
-1.48967 2.19200 0.54937 
-1.44390 2.19200 0.54937 
-1.33947 2.25700 0.56566 
-1.22815 2.32500 0.58270 
-1.14902 2.42700 0.60826 
-1.11514 2.43600 0.61052 
-0.94720 2.49600 0.62556 
-0.90522 2.50600 0.62806 
-0.88949 2.51700 0.63082 
-0.86005 2.52700 0.63332 
-0.69272 2.67000 0.66916 
-0.66784 2.68200 0.67217 
-0.66084 2.68200 0.67217 
-0.36511 2.83100 0.70951 
-0.15417 3.04200 0.76240 
0.00474 3.13600 0.78595 
0.03729 3.12000 0.78194 
0.16756 3.12000 0.78194 
0.29671 3.28800 0.82405 
0.48212 3.32400 0.83307 
0.53118 3.36000 0.84209 
0.53995 3.36000 0.84209 
0.60596 3.43600 0.86114 
0.65439 3.45500 0.86590 
0.99459 3.57600 0.89623 
1.17388 3.64000 0.91227 
0.90475 2.39800 0.60099 
0.96588 2.33400 0.58495 
0.98260 2.31600 0.58044 
1.13475 2.40800 0.60350 
1.41945 2.76700 0.69347 
1.56343 2.79200 0.69974 
1.58583 2.71800 0.68119 
1.59295 2.70600 0.67819 
1.59282 2.68200 0.67217 
1.59989 2.63600 0.66064 
1.60692 2.62500 0.65789 
1.66857 2.62500 0.65789 
1.63097 2.41700 0.60576 
1.86012 2.32500 0.58270 
1.87105 2.31600 0.58044 
1.87713 2.26500 0.56766 
-1.60948 2.13100 0.52852 
-1.60361 2.13800 0.53025 
-1.58158 2.16900 0.53794 
-1.54762 2.16900 0.53794 
-1.52499 2.16100 0.53596 
-1.50244 2.16100 0.53596 
-1.46107 2.19200 0.54365 
-1.43818 2.19200 0.54365 
-1.38288 2.23200 0.55357 
-1.28735 2.29000 0.56795 
-1.09202 2.42700 0.60193 
-1.06429 2.43600 0.60416 
-0.96156 2.46600 0.61160 
-0.94069 2.49600 0.61904 
-0.71763 2.65900 0.65947 
-0.69272 2.67000 0.66220 
-0.53737 2.76700 0.68625 
-0.50362 2.78000 0.68948 
-0.42031 2.80500 0.69568 
-0.06042 3.12000 0.77380 
-0.03617 3.13600 0.77777 
-0.00344 3.13600 0.77777 
0.08614 3.12000 0.77380 
0.10242 3.12000 0.77380 
0.60596 3.43600 0.85217 
0.84482 3.53500 0.87673 
0.90939 3.53500 0.87673 
0.93309 3.55500 0.88169 
1.56309 2.85800 0.70882 
1.56387 2.76700 0.68625 
1.58585 2.75500 0.68328 
1.67556 2.63600 0.65376 
1.67140 2.50600 0.62152 
1.61116 2.31600 0.57440 
1.71806 2.38900 0.59250 
1.74956 2.39800 0.59474 
1.86199 2.29000 0.56795 
1.86304 2.24800 0.55753 
-1.60401 2.14600 0.52664 
-1.58724 2.16900 0.53228 
-1.55894 2.16900 0.53228 
-1.39682 2.20800 0.54185 
-1.36446 2.24000 0.54970 
-1.19922 2.31600 0.56836 
-1.17651 2.34300 0.57498 
-1.12150 2.43600 0.59780 
-1.01979 2.43600 0.59780 
-0.97291 2.44600 0.60026 
-0.96653 2.44600 0.60026 
-0.94607 2.47600 0.60762 
-0.83087 2.55900 0.62799 
-0.82071 2.56900 0.63044 
-0.75294 2.61300 0.64124 
-0.60519 2.78000 0.68222 
-0.53015 2.76700 0.67903 
-0.44022 2.79200 0.68517 
-0.02813 3.15200 0.77351 
0.04566 3.13600 0.76959 
0.20218 3.15200 0.77351 
0.24008 3.21900 0.78995 
0.47344 3.32400 0.81572 
0.48473 3.34200 0.82014 
0.57569 3.41600 0.83830 
0.63286 3.43600 0.84321 
0.70352 3.47500 0.85278 
0.73472 3.49400 0.85744 
0.75748 3.51500 0.86259 
0.81714 3.53500 0.86750 
0.83559 3.53500 0.86750 
0.87673 3.51500 0.86259 
1.07585 3.66200 0.89867 
1.13038 3.68400 0.90407 
1.15488 3.64000 0.89327 
1.16438 3.64000 0.89327 
0.92324 2.33400 0.57277 
1.30954 2.64700 0.64958 
1.61153 2.37900 0.58382 
1.75432 2.37900 0.58382 
-1.62560 2.12300 0.51545 
-1.58139 2.16100 0.52468 
-1.58158 2.16900 0.52662 
-1.54196 2.16900 0.52662 
-1.47823 2.19200 0.53220 
-1.37793 2.22400 0.53997 
-1.36541 2.23200 0.54192 
-1.28041 2.29900 0.55818 
-1.26455 2.32500 0.56450 
-1.18713 2.31600 0.56231 
-1.14429 2.41700 0.58683 
-1.07491 2.41700 0.58683 
-1.05402 2.42700 0.58926 
-0.88560 2.50600 0.60844 
-0.79056 2.58000 0.62641 
-0.74270 2.62500 0.63733 
-0.34872 2.81800 0.68419 
-0.08441 3.10400 0.75363 
0.13499 3.12000 0.75752 
0.38251 3.28800 0.79831 
0.60596 3.43600 0.83424 
0.70352 3.47500 0.84371 
0.81714 3.53500 0.85828 
0.85838 3.51500 0.85342 
1.01600 3.61900 0.87867 
0.89095 2.44600 0.59387 
1.02939 2.29900 0.55818 
1.03539 2.29900 0.55818 
1.42768 2.75500 0.66890 
1.57800 2.79200 0.67788 
1.61377 2.62500 0.63733 
1.74768 2.37000 0.57542 
1.75159 2.33400 0.56668 
1.75532 2.29900 0.55818 
1.75443 2.29000 0.55600 
-1.62560 2.12300 0.50991 
-1.51935 2.16100 0.51904 
-1.45535 2.19200 0.52648 
-1.42621 2.20000 0.52841 
-1.35125 2.25700 0.54210 
-1.33240 2.26500 0.54402 
-1.27441 2.29900 0.55218 
-1.19317 2.31600 0.55627 
-1.08752 2.41700 0.58053 
-1.07302 2.42700 0.58293 
-0.96768 2.41700 0.58053 
-0.91464 2.49600 0.59950 
-0.88292 2.51700 0.60454 
-0.66211 2.65900 0.63865 
-0.34137 2.81800 0.67684 
0.03767 3.15200 0.75706 
0.25959 3.25300 0.78132 
0.28813 3.28800 0.78973 
0.41683 3.28800 0.78973 
0.99711 3.61900 0.86923 
1.14538 3.64000 0.87427 
1.01938 2.29000 0.55002 
1.26966 2.58000 0.61968 
1.29272 2.61300 0.62760 
1.36092 2.69400 0.64706 
1.49709 2.81800 0.67684 
1.55593 2.81800 0.67684 
1.68324 2.67000 0.64129 
1.67125 2.49600 0.59950 
1.63631 2.36100 0.56708 
1.74190 2.37900 0.57140 
1.74413 2.31600 0.55627 
1.74332 2.29900 0.55218 
1.74845 2.29000 0.55002 
-1.63114 2.12300 0.50437 
-1.61477 2.13800 0.50794 
-1.53063 2.16100 0.51340 
-1.52499 2.16100 0.51340 
-1.50807 2.16100 0.51340 
-1.48423 2.18400 0.51886 
-1.47853 2.18400 0.51886 
-1.25966 2.31600 0.55022 
-1.25242 2.32500 0.55236 
-1.18109 2.31600 0.55022 
-1.13002 2.42700 0.57659 
-1.08752 2.41700 0.57422 
-0.97036 2.40800 0.57208 
-0.76013 2.59100 0.61556 
-0.56625 2.76700 0.65737 
-0.52066 2.75500 0.65452 
-0.19596 2.95400 0.70180 
-0.13035 3.04200 0.72270 
0.11170 3.15200 0.74884 
0.55786 3.41600 0.81156 
0.58460 3.41600 0.81156 
0.59352 3.41600 0.81156 
0.60596 3.43600 0.81631 
0.85404 3.53500 0.83983 
0.89598 3.55500 0.84458 
0.96878 3.61900 0.85978 
1.04718 3.66200 0.87000 
0.91382 2.60200 0.61817 
0.90148 2.32500 0.55236 
0.99939 2.29900 0.54618 
1.13203 2.38900 0.56757 
1.31645 2.64700 0.62886 
1.50445 2.81800 0.66949 
1.74124 2.70600 0.64288 
1.66432 2.47600 0.58824 
1.73570 2.37900 0.56519 
1.83280 2.18400 0.51886 
-1.59803 2.13800 0.50236 
-1.58115 2.15300 0.50588 
-1.57553 2.15300 0.50588 
-1.47853 2.18400 0.51316 
-1.35760 2.24800 0.52820 
-1.27174 2.31600 0.54418 
-1.25242 2.32500 0.54629 
-1.14003 2.40800 0.56580 
-1.08752 2.41700 0.56791 
-1.08122 2.41700 0.56791 
-1.06036 2.42700 0.57026 
-0.89509 2.49600 0.58647 
-0.88560 2.50600 0.58882 
-0.67599 2.65900 0.62477 
-0.63568 2.69400 0.63300 
-0.49190 2.75500 0.64733 
-0.20937 2.92600 0.68751 
-0.18921 2.96900 0.69761 
-0.06042 3.12000 0.73309 
0.18573 3.15200 0.74061 
0.25110 3.25300 0.76434 
0.26948 3.27000 0.76834 
0.29671 3.28800 0.77257 
0.64182 3.43600 0.80734 
0.82176 3.55500 0.83530 
1.12838 3.41600 0.80264 
0.98139 2.29900 0.54019 
1.05751 2.30800 0.54230 
1.07743 2.32500 0.54629 
1.10222 2.35200 0.55264 
1.16270 2.42700 0.57026 
1.37404 2.70600 0.63582 
1.61482 2.83100 0.66519 
1.60001 2.71800 0.63864 
1.59989 2.63600 0.61937 
1.61365 2.63600 0.61937 
1.63746 2.40800 0.56580 
1.67441 2.38900 0.56133 
1.74681 2.25700 0.53032 
1.77037 2.25700 0.53032 
1.83379 2.19200 0.51504 
-1.54755 2.16100 0.50212 
-1.52499 2.16100 0.50212 
-1.43140 2.20800 0.51304 
-1.38373 2.22400 0.51676 
-1.28041 2.29900 0.53419 
-1.18713 2.31600 0.53814 
-1.16429 2.34300 0.54441 
-1.12537 2.41700 0.56160 
-1.11906 2.41700 0.56160 
-1.06860 2.41700 0.56160 
-1.03250 2.43600 0.56602 
-0.96768 2.41700 0.56160 
-0.91921 2.45600 0.57067 
-0.84359 2.53700 0.58949 
-0.82065 2.54800 0.59204 
-0.33401 2.81800 0.65478 
-0.31339 2.83100 0.65780 
-0.14479 3.01200 0.69986 
-0.13761 3.02700 0.70334 
-0.06042 3.12000 0.72495 
0.04614 3.16900 0.73634 
0.05441 3.16900 0.73634 
0.16105 3.15200 0.73239 
0.17846 3.16900 0.73634 
0.20430 3.18500 0.74005 
0.37393 3.28800 0.76399 
0.42308 3.27000 0.75980 
0.43162 3.27000 0.75980 
0.59699 3.43600 0.79837 
1.06044 3.13600 0.72867 
0.89972 2.50600 0.58228 
0.92140 2.29900 0.53419 
1.03539 2.29900 0.53419 
1.64855 2.65900 0.61783 
1.71457 2.59100 0.60203 
1.68072 2.39800 0.55719 
1.80665 2.27300 0.52814 
1.81802 2.26500 0.52629 
1.82989 2.20800 0.51304 
-1.56456 2.13800 0.49120 
-1.49116 2.16100 0.49648 
-1.49102 2.16900 0.49832 
-1.34304 2.27300 0.52221 
-1.33118 2.27300 0.52221 
-1.31723 2.29000 0.52612 
-1.30528 2.29000 0.52612 
-1.29930 2.29000 0.52612 
-1.27441 2.29900 0.52819 
-1.17040 2.34300 0.53830 
-0.91008 2.46600 0.56655 
-0.80416 2.55900 0.58792 
-0.76335 2.60200 0.59780 
-0.75656 2.60200 0.59780 
-0.68987 2.65900 0.61090 
-0.59256 2.75500 0.63295 
-0.48032 2.73000 0.62721 
-0.25039 2.87100 0.65960 
-0.20937 2.92600 0.67224 
-0.17453 2.98300 0.68533 
-0.13035 3.04200 0.69889 
0.02133 3.16900 0.72807 
0.37393 3.28800 0.75541 
0.75748 3.51500 0.80756 
0.97073 3.66200 0.84133 
1.02108 3.70600 0.85144 
1.04042 3.70600 0.85144 
1.05976 3.70600 0.85144 
0.91207 2.55900 0.58792 
0.89733 2.44600 0.56196 
0.89541 2.32500 0.53416 
0.91540 2.29900 0.52819 
1.36698 2.70600 0.62169 
1.41379 2.74200 0.62996 
1.62965 2.84400 0.65340 
1.66233 2.67000 0.61342 
1.65759 2.46600 0.56655 
1.65038 2.42700 0.55759 
1.65003 2.40800 0.55323 
1.72913 2.37000 0.54450 
1.74484 2.32500 0.53416 
1.74234 2.28200 0.52428 
1.84105 2.25700 0.51854 
1.83154 2.22400 0.51096 
1.83565 2.20800 0.50728 
-1.55306 2.15300 0.48903 
-1.54744 2.15300 0.48903 
-1.49102 2.16900 0.49266 
-1.34897 2.27300 0.51628 
-1.33049 2.28200 0.51833 
-1.14781 2.39800 0.54467 
-1.10645 2.41700 0.54899 
-1.09383 2.41700 0.54899 
-1.08752 2.41700 0.54899 
-1.07491 2.41700 0.54899 
-1.06036 2.42700 0.55126 
-0.89438 2.47600 0.56239 
-0.88207 2.49600 0.56693 
-0.87555 2.49600 0.56693 
-0.85944 2.50600 0.56920 
-0.73585 2.62500 0.59623 
-0.72900 2.62500 0.59623 
-0.71830 2.63600 0.59873 
-0.44022 2.79200 0.63417 
-0.39284 2.81800 0.64007 
-0.22357 2.91200 0.66142 
0.01299 3.15200 0.71593 
0.05441 3.16900 0.71980 
0.15443 3.18500 0.72343 
0.42937 3.25300 0.73888 
0.61493 3.43600 0.78044 
0.62389 3.43600 0.78044 
0.66341 3.45500 0.78476 
0.69445 3.47500 0.78930 
0.98618 3.68400 0.83677 
1.02108 3.70600 0.84177 
1.07607 3.72900 0.84699 
1.10229 3.75200 0.85222 
0.93264 2.63600 0.59873 
0.89733 2.44600 0.55558 
0.93572 2.29000 0.52014 
0.94169 2.29000 0.52014 
1.12579 2.38900 0.54263 
1.23039 2.52700 0.57397 
1.34685 2.69400 0.61191 
1.39335 2.73000 0.62008 
1.49166 2.76700 0.62849 
1.53411 2.80500 0.63712 
1.62172 2.79200 0.63417 
1.58569 2.67000 0.60645 
1.58610 2.65900 0.60396 
1.59989 2.63600 0.59873 
1.66305 2.42700 0.55126 
1.78847 2.26500 0.51446 
1.84105 2.25700 0.51265 
1.83379 2.19200 0.49788 
-1.64713 2.10100 0.47173 
-1.59236 2.12300 0.47667 
-1.55361 2.14600 0.48183 
-1.52497 2.15300 0.48341 
-1.47853 2.18400 0.49037 
-1.38200 2.24000 0.50294 
-1.35604 2.26500 0.50855 
-1.34897 2.27300 0.51035 
-1.23422 2.32500 0.52203 
-1.14781 2.39800 0.53842 
-0.99436 2.43600 0.54695 
-0.96535 2.42700 0.54493 
-0.83694 2.51700 0.56513 
-0.80416 2.55900 0.57456 
-0.65789 2.67000 0.59949 
-0.58976 2.74200 0.61565 
-0.45794 2.76700 0.62127 
-0.37249 2.83100 0.63564 
-0.26031 2.89800 0.65068 
-0.15976 2.99800 0.67313 
-0.03617 3.13600 0.70412 
0.07922 3.16900 0.71153 
0.48813 3.30600 0.74229 
0.55476 3.39700 0.76272 
0.61493 3.43600 0.77147 
1.11208 3.75200 0.84243 
0.91875 2.55900 0.57456 
0.92140 2.29900 0.51619 
0.92376 2.29000 0.51417 
1.10447 2.37000 0.53213 
1.41379 2.74200 0.61565 
1.59293 2.85800 0.64170 
1.66233 2.67000 0.59949 
1.67627 2.67000 0.59949 
1.71100 2.65900 0.59702 
1.69429 2.59100 0.58175 
1.65759 2.46600 0.55368 
1.68205 2.42700 0.54493 
1.68773 2.41700 0.54268 
1.71640 2.36100 0.53011 
1.76513 2.27300 0.51035 
1.84231 2.21600 0.49755 
-1.63072 2.09400 0.46470 
-1.61979 2.09400 0.46470 
-1.56499 2.13100 0.47291 
-1.54182 2.15300 0.47779 
-1.53620 2.15300 0.47779 
-1.48447 2.17600 0.48289 
-1.46744 2.17600 0.48289 
-1.43769 2.20000 0.48822 
-1.41411 2.20800 0.48999 
-1.32320 2.29000 0.50819 
-1.31723 2.29000 0.50819 
-1.26735 2.30800 0.51219 
-1.24028 2.32500 0.51596 
-1.22208 2.32500 0.51596 
-1.05157 2.43600 0.54059 
-0.87853 2.48600 0.55169 
-0.82373 2.53700 0.56300 
-0.78372 2.60200 0.57743 
-0.74955 2.62500 0.58253 
-0.74270 2.62500 0.58253 
-0.61297 2.71800 0.60317 
-0.55868 2.73000 0.60583 
-0.40204 2.83100 0.62825 
-0.38727 2.83100 0.62825 
-0.27420 2.88500 0.64023 
-0.26031 2.89800 0.64312 
-0.08441 3.10400 0.68883 
-0.01971 3.12000 0.69238 
0.01293 3.13600 0.69593 
0.30529 3.28800 0.72966 
0.32921 3.27000 0.72567 
0.40391 3.25300 0.72190 
0.43786 3.25300 0.72190 
0.54300 3.37900 0.74986 
1.13591 3.49400 0.77538 
1.03725 2.99800 0.66531 
0.91296 2.30800 0.51219 
0.96939 2.29900 0.51019 
1.00391 2.28200 0.50642 
1.03944 2.30800 0.51219 
1.15003 2.42700 0.53859 
1.24062 2.54800 0.56545 
1.40760 2.73000 0.60583 
1.41472 2.73000 0.60583 
1.45034 2.73000 0.60583 
1.47103 2.74200 0.60850 
1.57894 2.64700 0.58742 
1.59301 2.63600 0.58497 
1.62038 2.64700 0.58742 
1.69950 2.39800 0.53216 
1.76510 2.35200 0.52195 
1.79438 2.26500 0.50264 
1.84396 2.23200 0.49532 
1.85387 2.21600 0.49177 
-1.42621 2.20000 0.48248 
-1.38784 2.24000 0.49125 
-1.36195 2.26500 0.49673 
-1.20245 2.33400 0.51186 
-1.08752 2.41700 0.53007 
-0.90639 2.45600 0.53862 
-0.78022 2.61300 0.57305 
-0.75640 2.62500 0.57568 
-0.59430 2.73000 0.59871 
-0.51846 2.70600 0.59345 
-0.42421 2.83100 0.62086 
-0.41682 2.83100 0.62086 
-0.29678 2.88500 0.63270 
-0.10762 3.07300 0.67393 
-0.08441 3.10400 0.68073 
-0.00342 3.12000 0.68424 
0.00472 3.12000 0.68424 
0.03748 3.13600 0.68775 
0.74831 3.51500 0.77087 
0.92295 3.66200 0.80311 
0.97272 3.70600 0.81275 
1.08935 3.77500 0.82789 
1.12572 3.79800 0.83293 
0.88517 2.37900 0.52173 
0.92376 2.29000 0.50221 
1.34685 2.69400 0.59082 
1.36698 2.70600 0.59345 
1.43053 2.70600 0.59345 
1.59295 2.70600 0.59345 
1.57926 2.63600 0.57810 
1.68255 2.64700 0.58051 
1.68933 2.45600 0.53862 
1.74105 2.36100 0.51779 
1.78124 2.32500 0.50989 
1.78403 2.28200 0.50046 
1.78847 2.26500 0.49673 
1.84105 2.25700 0.49498 
1.84694 2.25700 0.49498 
-1.57020 2.12300 0.46005 
-1.34113 2.29000 0.49624 
-1.28041 2.29900 0.49819 
-1.25242 2.32500 0.50382 
-1.15915 2.37000 0.51357 
-1.13375 2.40800 0.52181 
-1.12746 2.40800 0.52181 
-1.07302 2.42700 0.52593 
-0.96258 2.43600 0.52788 
-0.92823 2.44600 0.53004 
-0.91280 2.45600 0.53221 
-0.83694 2.51700 0.54543 
-0.67484 2.68200 0.58118 
-0.63285 2.68200 0.58118 
-0.55623 2.71800 0.58899 
-0.39842 2.85800 0.61932 
-0.37605 2.85800 0.61932 
0.32068 3.27000 0.70860 
0.54300 3.37900 0.73222 
0.79393 3.55500 0.77036 
1.05334 3.75200 0.81305 
1.13269 3.32400 0.72031 
0.91540 2.29900 0.49819 
0.93470 2.27300 0.49255 
1.17325 2.47600 0.53654 
1.18448 2.48600 0.53871 
1.27908 2.61300 0.56623 
1.55593 2.81800 0.61066 
1.62195 2.80500 0.60784 
1.66724 2.59100 0.56147 
1.64524 2.50600 0.54305 
1.65087 2.45600 0.53221 
1.78205 2.33400 0.50577 
1.83516 2.25700 0.48909 
-1.43904 2.17600 0.46586 
-1.43246 2.19200 0.46928 
-1.25966 2.31600 0.49583 
-1.19486 2.34300 0.50161 
-1.14974 2.38900 0.51146 
-1.00708 2.43600 0.52152 
-1.00072 2.43600 0.52152 
-0.97529 2.43600 0.52152 
-0.91921 2.45600 0.52580 
-0.80731 2.56900 0.54999 
-0.71763 2.65900 0.56926 
-0.68884 2.68200 0.57419 
-0.64685 2.68200 0.57419 
-0.51367 2.71800 0.58189 
-0.33130 2.85800 0.61187 
-0.20270 2.94000 0.62942 
-0.18054 2.95400 0.63242 
-0.14479 3.01200 0.64484 
-0.03581 3.10400 0.66453 
0.11407 3.21900 0.68915 
0.16534 3.23600 0.69279 
0.40179 3.23600 0.69279 
0.72079 3.51500 0.75252 
0.92849 3.68400 0.78870 
1.12286 3.82200 0.81825 
1.14136 3.32400 0.71163 
0.91008 2.31600 0.49583 
0.95031 2.28200 0.48855 
0.97413 2.28200 0.48855 
0.99402 2.27300 0.48662 
1.19401 2.50600 0.53651 
1.41784 2.68200 0.57419 
1.59995 2.73000 0.58446 
1.65492 2.64700 0.56669 
1.66074 2.60200 0.55706 
1.65308 2.56900 0.54999 
1.63139 2.44600 0.52366 
1.84105 2.25700 0.48320 
-1.58735 2.06600 0.43692 
-1.57607 2.09400 0.44284 
-1.43507 2.15300 0.45531 
-1.40695 2.22400 0.47033 
-1.39369 2.24000 0.47371 
-1.30441 2.29900 0.48619 
-1.28041 2.29900 0.48619 
-1.22815 2.32500 0.49169 
-1.14350 2.38900 0.50522 
-0.92561 2.45600 0.51939 
-0.56829 2.74200 0.57988 
-0.24637 2.91200 0.61583 
-0.16675 2.98300 0.63084 
0.12247 3.21900 0.68075 
0.18319 3.25300 0.68794 
0.27097 3.28800 0.69534 
0.30529 3.28800 0.69534 
0.38490 3.23600 0.68435 
0.47950 3.30600 0.69915 
0.52241 3.36000 0.71057 
1.18786 3.77500 0.79833 
1.04304 2.31600 0.48979 
1.07153 2.35200 0.49740 
1.38904 2.69400 0.56972 
1.43122 2.69400 0.56972 
1.52043 2.78000 0.58791 
1.59995 2.73000 0.57734 
1.65492 2.63600 0.55746 
1.63933 2.51700 0.53229 
1.63777 2.44600 0.51728 
1.66369 2.45600 0.51939 
1.69621 2.46600 0.52151 
1.70798 2.44600 0.51728 
1.70658 2.40800 0.50924 
1.74150 2.37000 0.50121 
1.77185 2.36100 0.49930 
1.78629 2.30800 0.48809 
1.84896 2.22400 0.47033 
-1.57574 2.12300 0.44343 
-1.48641 2.14600 0.44823 
-1.42875 2.16900 0.45304 
-1.42047 2.20000 0.45951 
-1.34897 2.27300 0.47476 
-1.26133 2.30800 0.48207 
-1.18103 2.35200 0.49126 
-1.16876 2.35200 0.49126 
-1.14678 2.37000 0.49502 
-1.13103 2.38900 0.49899 
-1.04522 2.43600 0.50881 
-0.96893 2.43600 0.50881 
-0.86904 2.49600 0.52134 
-0.72756 2.67000 0.55768 
-0.70284 2.68200 0.56019 
-0.61297 2.71800 0.56771 
-0.53019 2.73000 0.57021 
-0.12306 3.05800 0.63872 
-0.09960 3.07300 0.64186 
-0.06788 3.08900 0.64520 
-0.00340 3.10400 0.64833 
0.23535 3.27000 0.68300 
0.45973 3.28800 0.68676 
0.64911 3.47500 0.72582 
1.03375 3.75200 0.78368 
0.91296 2.30800 0.48207 
1.38816 2.70600 0.56520 
1.59303 2.75500 0.57544 
1.59997 2.65900 0.55538 
1.71707 2.37900 0.49690 
1.76569 2.36100 0.49314 
1.83888 2.24000 0.46787 
1.84623 2.20000 0.45951 
-1.42597 2.13100 0.43954 
-1.42563 2.20800 0.45542 
-1.35013 2.26500 0.46718 
-1.33049 2.28200 0.47068 
-1.32320 2.29000 0.47233 
-1.12480 2.38900 0.49275 
-1.06429 2.43600 0.50245 
-0.93582 2.46600 0.50864 
-0.86253 2.49600 0.51482 
-0.85290 2.50600 0.51689 
-0.78704 2.61300 0.53896 
-0.47961 2.76700 0.57072 
-0.35936 2.84400 0.58660 
-0.35194 2.84400 0.58660 
-0.32384 2.85800 0.58949 
-0.27543 2.89800 0.59774 
-0.21701 2.92600 0.60352 
0.34448 3.25300 0.67096 
0.66178 3.49400 0.72067 
0.76130 3.57600 0.73759 
0.80823 3.61900 0.74645 
0.92849 3.68400 0.75986 
0.93811 3.68400 0.75986 
1.23711 3.77500 0.77863 
0.93470 2.27300 0.46883 
0.94063 2.27300 0.46883 
0.98809 2.27300 0.46883 
1.09004 2.37900 0.49069 
1.35992 2.70600 0.55814 
1.71915 2.40800 0.49667 
1.75953 2.36100 0.48698 
1.78026 2.30800 0.47605 
1.80438 2.24800 0.46367 
1.81024 2.24800 0.46367 
1.83958 2.24800 0.46367 
1.83951 2.19200 0.45212 
-1.64165 2.09400 0.42644 
-1.48087 2.13800 0.43540 
-1.42724 2.18400 0.44477 
-1.38784 2.24000 0.45618 
-1.25966 2.31600 0.47165 
-1.21601 2.32500 0.47349 
-1.21463 2.33400 0.47532 
-1.02615 2.43600 0.49609 
-0.97802 2.42700 0.49426 
-0.96258 2.43600 0.49609 
-0.91746 2.48600 0.50627 
-0.89800 2.48600 0.50627 
-0.89509 2.49600 0.50831 
-0.86904 2.49600 0.50831 
-0.82420 2.55900 0.52114 
-0.60143 2.73000 0.55597 
-0.46735 2.78000 0.56615 
-0.43294 2.79200 0.56859 
-0.21038 2.94000 0.59873 
0.10567 3.21900 0.65555 
0.30696 3.30600 0.67327 
0.41239 3.25300 0.66247 
0.85606 3.66200 0.74577 
1.20017 3.94500 0.80340 
1.21047 3.94500 0.80340 
1.08195 3.05800 0.62276 
0.88339 2.40800 0.49039 
0.90497 2.33400 0.47532 
0.90755 2.32500 0.47349 
1.24273 2.58000 0.52542 
1.47103 2.74200 0.55841 
1.63997 2.55900 0.52114 
1.63847 2.47600 0.50424 
1.66403 2.46600 0.50220 
1.78292 2.27300 0.46290 
1.81611 2.24800 0.45781 
1.83958 2.24800 0.45781 
-1.58682 2.12300 0.42681 
-1.58724 2.13100 0.42842 
-1.58158 2.16900 0.43606 
-1.31931 2.27300 0.45697 
-1.29332 2.29000 0.46038 
-1.08752 2.41700 0.48592 
-0.94225 2.46600 0.49577 
-0.92395 2.48600 0.49979 
-0.84027 2.52700 0.50803 
-0.82730 2.54800 0.51225 
-0.82420 2.55900 0.51446 
-0.80410 2.60200 0.52311 
-0.74892 2.64700 0.53215 
-0.71763 2.65900 0.53457 
-0.56380 2.75500 0.55387 
-0.43833 2.78000 0.55889 
-0.27543 2.89800 0.58262 
-0.03545 3.07300 0.61780 
0.22564 3.25300 0.65399 
0.28108 3.30600 0.66464 
0.36995 3.25300 0.65399 
0.79872 3.66200 0.73621 
1.05334 3.75200 0.75430 
1.09598 3.79800 0.76355 
1.22326 3.92000 0.78808 
1.22785 3.87000 0.77803 
0.99052 2.26500 0.45536 
1.32686 2.68200 0.53919 
1.45672 2.74200 0.55125 
1.57145 2.73000 0.54884 
1.64622 2.54800 0.51225 
1.65287 2.54800 0.51225 
1.77699 2.27300 0.45697 
1.81160 2.25700 0.45375 
1.83303 2.24000 0.45033 
1.84315 2.22400 0.44711 
-1.59280 2.13100 0.42286 
-1.58724 2.16900 0.43040 
-1.42201 2.17600 0.43179 
-1.29332 2.29000 0.45441 
-1.26133 2.30800 0.45798 
-1.14858 2.36100 0.46850 
-0.93692 2.48600 0.49330 
-0.90448 2.48600 0.49330 
-0.81752 2.55900 0.50778 
