ply
format ascii 1.0
comment pointcloud saved from Realsense Viewer
element vertex 1842
property float32 x
property float32 y
property float32 z
end_header
-1.44673 2.78000 0.15263 
-1.43222 2.78000 0.15263 
-1.41046 2.78000 0.15263 
-1.39595 2.78000 0.15263 
-1.28406 2.80500 0.15400 
-1.25478 2.80500 0.15400 
-1.24589 2.81800 0.15472 
-0.72334 1.96000 0.10761 
-0.70288 1.96000 0.10761 
-0.68033 1.95400 0.10728 
-0.65149 1.92900 0.10591 
-0.51583 1.89300 0.10393 
-0.49607 1.89300 0.10393 
-0.46939 1.90500 0.10459 
-0.35441 3.72900 0.20473 
-0.10393 3.82200 0.20984 
0.04625 3.87000 0.21248 
0.12868 3.92000 0.21522 
0.19254 3.97100 0.21802 
0.25638 3.99700 0.21945 
0.59509 4.33700 0.23812 
0.70714 4.13200 0.22686 
0.72103 3.97100 0.21802 
0.75269 3.92000 0.21522 
0.83502 3.97100 0.21802 
0.95732 4.05000 0.22236 
1.17527 3.79800 0.20852 
1.17141 3.66200 0.20106 
1.20488 3.61900 0.19869 
1.27459 3.68400 0.20226 
1.37934 3.87000 0.21248 
1.51748 4.05000 0.22236 
1.51848 3.99700 0.21945 
1.50053 3.87000 0.21248 
1.41175 3.45500 0.18969 
1.47492 3.21900 0.17673 
1.70612 3.36000 0.18447 
1.58506 2.96900 0.16301 
1.70440 3.05800 0.16789 
1.79595 3.12000 0.17130 
1.80294 3.10400 0.17042 
1.84608 3.13600 0.17218 
1.88017 3.15200 0.17305 
1.89662 3.15200 0.17305 
1.98520 3.20200 0.17580 
2.11574 3.28800 0.18052 
2.32420 3.37900 0.18552 
2.33302 3.37900 0.18552 
2.35066 3.37900 0.18552 
2.78123 3.70600 0.20347 
3.10446 3.97100 0.21802 
-1.75538 2.50600 0.13105 
-1.75243 2.55900 0.13382 
-1.74587 2.56900 0.13434 
-1.74662 2.58000 0.13492 
-1.46850 2.78000 0.14538 
-1.44673 2.78000 0.14538 
-1.38740 2.79200 0.14600 
-0.69776 1.96000 0.10250 
-0.65857 1.93500 0.10119 
-0.60171 1.89900 0.09931 
-0.45591 1.91100 0.09993 
-0.39207 1.96600 0.10281 
-0.38434 1.97900 0.10349 
-0.29289 2.10100 0.10987 
0.00593 3.92000 0.20499 
0.18217 3.97100 0.20766 
0.40796 4.16000 0.21754 
0.45453 4.18900 0.21906 
0.49058 4.21700 0.22052 
0.56849 4.30700 0.22523 
0.94480 3.99700 0.20902 
1.16884 3.68400 0.19265 
1.27459 3.68400 0.19265 
1.42666 3.94500 0.20630 
1.39833 3.37900 0.17670 
1.72678 3.43600 0.17968 
1.57725 2.94000 0.15374 
1.94973 3.18500 0.16655 
2.14458 3.30600 0.17288 
2.33302 3.37900 0.17670 
2.56065 3.53500 0.18486 
3.60860 4.36800 0.22842 
3.59431 4.33700 0.22680 
-1.75061 2.53700 0.12605 
-1.69321 2.59100 0.12873 
-1.66764 2.64700 0.13151 
-1.59179 2.69400 0.13385 
-1.58457 2.73000 0.13564 
-1.55576 2.74200 0.13623 
-1.51999 2.75500 0.13688 
-1.38654 2.80500 0.13936 
-1.20731 2.83100 0.14066 
-1.19992 2.83100 0.14066 
-0.63743 1.91700 0.09524 
-0.58993 1.89300 0.09405 
-0.51583 1.89300 0.09405 
-0.49607 1.89300 0.09405 
-0.46442 1.90500 0.09465 
-0.38597 3.75200 0.18641 
-0.22087 3.77500 0.18756 
-0.14383 3.82200 0.18989 
-0.03477 3.89500 0.19352 
0.11846 3.92000 0.19476 
0.24595 3.99700 0.19859 
0.33599 4.07700 0.20256 
0.37287 4.13200 0.20529 
0.64951 4.39900 0.21856 
0.69503 4.18900 0.20813 
0.70234 4.10400 0.20390 
1.06301 4.05000 0.20122 
1.14322 4.18900 0.20813 
1.17388 3.64000 0.18085 
1.39923 3.36000 0.16694 
1.44407 3.34200 0.16604 
1.47099 3.32400 0.16515 
1.47597 3.18500 0.15824 
1.67876 3.01200 0.14965 
1.75392 3.08900 0.15347 
1.80409 3.12000 0.15501 
1.85550 3.15200 0.15660 
1.87195 3.15200 0.15660 
2.16183 3.30600 0.16426 
2.31538 3.37900 0.16788 
2.33302 3.37900 0.16788 
2.55143 3.53500 0.17563 
2.56988 3.53500 0.17563 
2.98406 3.89500 0.19352 
3.40889 4.24700 0.21101 
3.47953 4.30700 0.21399 
3.57441 4.36800 0.21702 
-1.36681 1.84800 0.08699 
-1.76021 2.47600 0.11656 
-1.75488 2.49600 0.11750 
-1.75538 2.50600 0.11797 
-1.43112 2.79200 0.13143 
-1.10947 2.71800 0.12795 
-0.60667 1.89900 0.08939 
-0.48619 1.89300 0.08911 
-0.45092 1.91100 0.08996 
-0.44593 1.91100 0.08996 
-0.42629 1.93500 0.09109 
-0.40233 1.96600 0.09255 
-0.29474 2.03800 0.09594 
-0.42705 3.68400 0.17342 
-0.35660 3.75200 0.17662 
-0.19131 3.77500 0.17771 
-0.14292 3.79800 0.17879 
0.09800 3.92000 0.18453 
0.12868 3.92000 0.18453 
0.21466 3.99700 0.18816 
0.41882 4.16000 0.19583 
0.57973 4.30700 0.20275 
0.85499 3.92000 0.18453 
1.18009 3.84600 0.18105 
1.18599 3.61900 0.17036 
1.44725 3.94500 0.18571 
1.40046 3.34200 0.15732 
1.43535 3.34200 0.15732 
1.74638 3.47500 0.16358 
1.56983 2.91200 0.13708 
1.72036 3.05800 0.14395 
1.83789 3.13600 0.14763 
2.34545 3.39700 0.15991 
2.64008 3.55500 0.16735 
2.68066 3.59700 0.16933 
-1.72026 2.59100 0.11521 
-1.66122 2.67000 0.11872 
-1.59888 2.71800 0.12086 
-1.49773 2.76700 0.12303 
-1.46885 2.76700 0.12303 
-0.60171 1.89900 0.08444 
-0.35857 2.03800 0.09062 
-0.42450 3.66200 0.16283 
-0.29420 3.70600 0.16479 
0.13980 3.94500 0.17541 
0.21466 3.99700 0.17773 
0.41882 4.16000 0.18497 
0.46224 4.16000 0.18497 
0.59097 4.30700 0.19151 
0.62214 4.36800 0.19422 
0.77863 3.84600 0.17101 
0.83937 3.89500 0.17319 
1.09472 4.05000 0.18008 
1.19772 3.97100 0.17657 
1.29187 3.70600 0.16479 
1.39215 3.82200 0.16994 
1.41894 3.32400 0.14780 
1.83789 3.13600 0.13944 
2.00628 3.23600 0.14389 
2.15006 3.28800 0.14620 
2.16722 3.28800 0.14620 
2.51865 3.51500 0.15629 
3.38481 4.21700 0.18751 
3.68378 4.43100 0.19702 
-1.42168 1.92900 0.08074 
-1.76021 2.47600 0.10363 
-1.71441 2.61300 0.10937 
-1.49773 2.76700 0.11581 
-1.48300 2.78000 0.11636 
-1.46850 2.78000 0.11636 
-1.30726 2.79200 0.11686 
-1.16500 2.81800 0.11795 
-0.55041 1.89300 0.07923 
-0.41898 1.94800 0.08153 
-0.42386 3.57600 0.14967 
-0.33288 3.70600 0.15512 
0.50919 4.18900 0.17533 
0.57556 4.27600 0.17897 
0.63354 4.36800 0.18282 
0.76859 3.84600 0.16098 
1.11586 4.05000 0.16951 
1.18713 4.07700 0.17064 
1.40046 3.34200 0.13988 
1.56690 3.25300 0.13615 
1.56958 2.94000 0.12305 
2.18772 3.30600 0.13837 
2.55143 3.53500 0.14796 
2.98510 3.87000 0.16198 
3.11482 3.97100 0.16621 
3.17661 4.02300 0.16838 
-1.28484 1.71300 0.06723 
-1.67691 2.30800 0.09058 
-1.75720 2.43600 0.09560 
-1.75375 2.47600 0.09717 
-1.74338 2.51700 0.09878 
-1.68822 2.63600 0.10345 
-1.61270 2.68200 0.10526 
-1.49773 2.76700 0.10859 
-1.46885 2.76700 0.10859 
-1.29997 2.79200 0.10957 
-1.21883 2.85800 0.11216 
-0.71529 1.96600 0.07716 
-0.71016 1.96600 0.07716 
-0.50101 1.89300 0.07429 
-0.43870 1.92300 0.07547 
-0.42254 1.94100 0.07618 
-0.41898 1.94800 0.07645 
-0.39068 1.98500 0.07790 
-0.30765 2.01800 0.07920 
-0.37157 3.70600 0.14544 
-0.27486 3.70600 0.14544 
0.12951 3.94500 0.15482 
0.16039 3.94500 0.15482 
0.38365 4.13200 0.16216 
0.39443 4.13200 0.16216 
0.64494 4.36800 0.17142 
0.66773 4.36800 0.17142 
0.69053 4.36800 0.17142 
1.17211 3.92000 0.15384 
1.18123 3.57600 0.14034 
1.19285 3.55500 0.13952 
1.20213 3.55500 0.13952 
1.26916 3.53500 0.13873 
1.33962 3.45500 0.13559 
1.38069 3.37900 0.13261 
1.43856 3.27000 0.12833 
1.47427 3.23600 0.12700 
1.64475 3.36000 0.13187 
1.69988 3.43600 0.13485 
1.70718 3.39700 0.13332 
1.89154 3.18500 0.12500 
2.02531 3.25300 0.12767 
2.11870 3.30600 0.12975 
3.17661 4.02300 0.15789 
3.38481 4.21700 0.16550 
3.77385 4.49700 0.17649 
-1.28931 1.71300 0.06276 
-1.74399 2.53700 0.09295 
-1.72077 2.60200 0.09533 
-1.72122 2.61300 0.09573 
-1.60594 2.73000 0.10002 
-1.57032 2.75500 0.10093 
-1.51281 2.75500 0.10093 
-1.44673 2.78000 0.10185 
-1.41046 2.78000 0.10185 
-1.40320 2.78000 0.10185 
-1.29268 2.79200 0.10229 
-1.23686 2.83100 0.10372 
-0.74584 1.97900 0.07250 
-0.72555 1.96600 0.07203 
-0.72042 1.96600 0.07203 
-0.44950 1.90500 0.06979 
-0.43000 1.92900 0.07067 
-0.37742 2.02500 0.07419 
-0.29520 2.00500 0.07346 
-0.41951 3.61900 0.13259 
-0.41245 3.64000 0.13335 
-0.27486 3.70600 0.13577 
0.19254 3.97100 0.14548 
0.33821 4.10400 0.15035 
0.42678 4.13200 0.15138 
0.46224 4.16000 0.15241 
1.01217 3.89500 0.14270 
1.23362 3.43600 0.12588 
1.30133 3.37900 0.12379 
1.47492 3.21900 0.11793 
1.52493 3.23600 0.11855 
1.58376 3.28800 0.12046 
1.60106 3.30600 0.12112 
1.64475 3.36000 0.12310 
1.68826 3.34200 0.12244 
1.60022 3.04200 0.11145 
1.73682 3.07300 0.11258 
1.89986 3.18500 0.11669 
2.10421 3.32400 0.12178 
2.11288 3.32400 0.12178 
2.13891 3.32400 0.12178 
2.49113 3.51500 0.12878 
2.50030 3.51500 0.12878 
2.55143 3.53500 0.12951 
2.62434 3.59700 0.13178 
2.90818 3.82200 0.14002 
3.00439 3.89500 0.14270 
3.17661 4.02300 0.14739 
-1.74399 2.53700 0.08633 
-1.73240 2.55900 0.08707 
-1.72642 2.58000 0.08779 
-1.72804 2.61300 0.08891 
-1.70198 2.63600 0.08969 
-1.59153 2.74200 0.09330 
-1.58438 2.74200 0.09330 
-1.47607 2.76700 0.09415 
-1.39664 2.76700 0.09415 
-1.34026 2.75500 0.09374 
-1.29997 2.79200 0.09500 
-1.27811 2.79200 0.09500 
-1.21883 2.85800 0.09725 
-0.71822 1.96000 0.06669 
-0.65554 1.94100 0.06605 
-0.64847 1.93500 0.06584 
-0.63243 1.91700 0.06523 
-0.43870 1.92300 0.06543 
-0.29417 1.99800 0.06798 
-0.41052 3.12000 0.10616 
-0.32893 3.66200 0.12460 
-0.31168 3.68400 0.12535 
-0.22791 3.72900 0.12688 
-0.21818 3.72900 0.12688 
-0.12310 3.79800 0.12923 
0.21466 3.99700 0.13600 
0.53460 4.21700 0.14349 
0.71305 4.10400 0.13964 
0.80888 3.89500 0.13253 
0.83453 3.92000 0.13338 
0.89720 3.97100 0.13512 
1.15648 3.70600 0.12610 
1.15488 3.64000 0.12386 
1.44132 3.21900 0.10953 
1.45042 3.20200 0.10895 
1.45878 3.20200 0.10895 
1.55802 3.27000 0.11127 
1.61845 3.32400 0.11310 
1.63593 3.34200 0.11372 
1.58501 2.92600 0.09956 
1.85550 3.15200 0.10725 
1.99784 3.23600 0.11011 
2.12733 3.30600 0.11249 
2.16493 3.32400 0.11310 
2.50530 3.53500 0.12028 
2.62434 3.59700 0.12239 
3.44214 4.24700 0.14451 
3.71121 4.46400 0.15189 
-1.72804 2.61300 0.08209 
-1.70217 2.64700 0.08316 
-1.56313 2.75500 0.08655 
-1.34026 2.75500 0.08655 
-1.26210 2.80500 0.08812 
-1.24254 2.84400 0.08935 
-0.80019 2.08000 0.06535 
-0.61853 1.90500 0.05985 
-0.47973 1.88700 0.05928 
-0.33630 2.03200 0.06384 
-0.30369 1.99200 0.06258 
-0.43656 3.45500 0.10854 
-0.40758 3.59700 0.11301 
-0.34595 3.64000 0.11436 
-0.20844 3.72900 0.11715 
0.02673 3.97100 0.12476 
0.94480 3.99700 0.12557 
0.98010 3.97100 0.12476 
1.02516 3.94500 0.12394 
1.16001 3.59700 0.11301 
1.17691 3.53500 0.11106 
1.21480 3.28800 0.10330 
1.23375 3.27000 0.10273 
1.42535 3.20200 0.10060 
1.64330 3.25300 0.10220 
1.60851 3.07300 0.09654 
1.60032 2.98300 0.09372 
1.91000 3.20200 0.10060 
2.08419 3.30600 0.10386 
2.13023 3.32400 0.10443 
2.45918 3.53500 0.11106 
2.54369 3.57600 0.11235 
2.56236 3.57600 0.11235 
2.55659 3.55500 0.11169 
2.58102 3.57600 0.11235 
3.14565 3.99700 0.12557 
3.29502 4.13200 0.12981 
3.52449 4.30700 0.13531 
-1.52723 2.08700 0.06012 
-1.74994 2.51700 0.07251 
-1.73637 2.63600 0.07594 
-1.67446 2.63600 0.07594 
-1.61288 2.69400 0.07761 
-1.49773 2.76700 0.07971 
-1.46124 2.78000 0.08008 
-1.25325 2.81800 0.08118 
-0.59676 1.89900 0.05471 
-0.47480 1.88700 0.05436 
-0.43368 1.92300 0.05540 
-0.41619 1.93500 0.05574 
-0.29329 1.99200 0.05738 
-0.44252 3.57600 0.10301 
-0.41453 3.57600 0.10301 
-0.38880 3.59700 0.10362 
-0.37941 3.59700 0.10362 
-0.08504 3.87000 0.11148 
-0.02492 3.94500 0.11364 
0.02673 3.97100 0.11439 
0.35963 4.10400 0.11822 
0.42967 4.16000 0.11984 
0.58672 4.27600 0.12318 
0.61345 4.30700 0.12407 
0.70337 4.30700 0.12407 
0.89845 4.02300 0.11589 
1.03192 3.97100 0.11439 
1.18860 3.51500 0.10126 
1.20861 3.41600 0.09841 
1.20208 3.32400 0.09576 
1.24432 3.25300 0.09371 
1.54944 3.28800 0.09472 
1.61696 3.15200 0.09080 
1.61693 3.13600 0.09034 
2.42692 3.51500 0.10126 
3.57168 4.33700 0.12494 
3.60860 4.36800 0.12583 
3.75781 4.46400 0.12860 
-1.75803 2.44600 0.06408 
-1.75881 2.45600 0.06434 
-1.62619 2.64700 0.06935 
-1.59888 2.71800 0.07121 
-1.57744 2.73000 0.07152 
-1.52662 2.76700 0.07249 
-1.41108 2.76700 0.07249 
-0.59864 1.90500 0.04991 
-0.53559 1.89300 0.04959 
-0.44233 1.91700 0.05022 
-0.31090 2.00500 0.05253 
-0.39586 3.57600 0.09368 
-0.31746 3.64000 0.09536 
0.14164 3.99700 0.10471 
0.23864 4.05000 0.10610 
0.69695 4.33700 0.11362 
0.73364 4.16000 0.10898 
0.80936 4.05000 0.10610 
0.84596 4.02300 0.10539 
0.95732 4.05000 0.10610 
1.14430 3.89500 0.10204 
1.19062 3.49400 0.09153 
1.27487 3.28800 0.08614 
1.40357 3.28800 0.08614 
1.62694 3.30600 0.08661 
1.61696 3.15200 0.08258 
1.62497 3.12000 0.08174 
1.62460 3.05800 0.08011 
1.70342 3.04200 0.07969 
1.87377 3.16900 0.08302 
2.18538 3.34200 0.08755 
2.48237 3.55500 0.09313 
2.64039 3.61900 0.09481 
2.78876 3.72900 0.09769 
2.84287 3.77500 0.09890 
3.09410 3.97100 0.10403 
3.13522 3.99700 0.10471 
3.52449 4.30700 0.11283 
-1.29378 1.71300 0.04041 
-1.27663 1.70800 0.04029 
-1.67691 2.30800 0.05444 
-1.75803 2.44600 0.05770 
-1.76021 2.47600 0.05840 
-1.74371 2.52700 0.05961 
-1.62619 2.64700 0.06244 
-1.58470 2.71800 0.06411 
-1.49751 2.78000 0.06557 
-1.43948 2.78000 0.06557 
-1.24866 2.85800 0.06741 
-1.24120 2.85800 0.06741 
-1.18899 2.85800 0.06741 
-0.60859 1.90500 0.04494 
-0.56882 1.90500 0.04494 
-0.55887 1.90500 0.04494 
-0.47846 1.88200 0.04439 
-0.43368 1.92300 0.04536 
-0.34379 2.04500 0.04824 
-0.36787 3.57600 0.08435 
-0.25551 3.70600 0.08742 
-0.16377 3.82200 0.09015 
0.06818 3.97100 0.09367 
0.17523 4.05000 0.09553 
0.37287 4.13200 0.09747 
0.48733 4.18900 0.09881 
0.65634 4.36800 0.10303 
0.79873 4.10400 0.09681 
0.88923 4.07700 0.09617 
1.02443 4.02300 0.09489 
1.17655 3.61900 0.08537 
1.17878 3.59700 0.08485 
1.19974 3.49400 0.08242 
1.21135 3.47500 0.08197 
1.27487 3.28800 0.07756 
1.61726 3.18500 0.07513 
1.67167 3.04200 0.07176 
1.77054 3.10400 0.07322 
1.79595 3.12000 0.07359 
2.02994 3.28800 0.07756 
2.14177 3.34200 0.07883 
3.44214 4.24700 0.10018 
3.62000 4.36800 0.10303 
-1.76021 2.47600 0.05194 
-1.64001 2.64700 0.05553 
-1.60585 2.69400 0.05652 
-1.48300 2.78000 0.05832 
-1.28707 2.84400 0.05966 
-1.27103 2.85800 0.05996 
-1.25434 2.87100 0.06023 
-0.70799 1.96000 0.04112 
-0.61356 1.90500 0.03996 
-0.41114 1.93500 0.04059 
-0.43573 3.59700 0.07546 
-0.40520 3.57600 0.07502 
-0.37720 3.57600 0.07502 
-0.27323 3.68400 0.07728 
-0.17375 3.82200 0.08018 
-0.14473 3.84600 0.08068 
-0.07542 3.89500 0.08171 
0.20694 4.05000 0.08496 
0.27035 4.05000 0.08496 
0.33821 4.10400 0.08610 
0.72782 4.18900 0.08788 
0.73876 4.18900 0.08788 
0.82015 4.10400 0.08610 
0.82540 4.07700 0.08553 
0.86795 4.07700 0.08553 
0.88923 4.07700 0.08553 
1.13696 3.87000 0.08119 
1.16365 3.72900 0.07823 
1.20815 3.27000 0.06860 
1.37430 3.34200 0.07011 
1.54905 3.32400 0.06973 
1.72078 3.07300 0.06447 
1.91835 3.20200 0.06717 
2.56065 3.53500 0.07416 
2.88823 3.82200 0.08018 
3.04295 3.94500 0.08276 
-1.68273 2.31600 0.04254 
-1.73240 2.55900 0.04701 
-1.65383 2.63600 0.04842 
-1.52757 2.73000 0.05015 
-1.40496 2.75500 0.05061 
-1.33165 2.76700 0.05083 
-1.25434 2.87100 0.05274 
-0.77903 2.02500 0.03720 
-0.74584 1.97900 0.03635 
-0.70799 1.96000 0.03600 
-0.14473 3.84600 0.07065 
-0.10458 3.84600 0.07065 
0.08949 3.99700 0.07342 
0.10057 4.02300 0.07390 
0.11107 4.02300 0.07390 
0.19637 4.05000 0.07439 
0.58794 4.36800 0.08024 
0.66099 4.39900 0.08080 
0.67913 4.36800 0.08024 
0.72168 4.21700 0.07746 
0.97435 4.07700 0.07489 
0.98903 4.05000 0.07439 
1.02443 4.02300 0.07390 
1.12811 3.94500 0.07247 
1.20694 3.59700 0.06607 
1.23446 3.51500 0.06457 
1.25935 3.27000 0.06007 
1.31485 3.32400 0.06106 
1.38641 3.28800 0.06040 
1.43371 3.20200 0.05882 
1.45042 3.20200 0.05882 
1.63471 3.23600 0.05944 
1.65096 3.20200 0.05882 
1.72974 3.08900 0.05674 
1.74586 3.08900 0.05674 
1.79595 3.12000 0.05731 
2.15666 3.37900 0.06207 
3.62827 4.33700 0.07967 
-1.77080 2.44600 0.03855 
-1.64007 2.63600 0.04154 
-1.63319 2.63600 0.04154 
-1.61238 2.64700 0.04171 
-1.58476 2.69400 0.04246 
-1.54239 2.70600 0.04264 
-1.48300 2.78000 0.04381 
-1.37687 2.74200 0.04321 
-1.32678 2.81800 0.04441 
-1.31074 2.83100 0.04461 
-1.30192 2.84400 0.04482 
-1.26046 2.88500 0.04547 
-1.09780 2.74200 0.04321 
-0.72814 1.97300 0.03109 
-0.67824 1.94800 0.03070 
-0.61853 1.90500 0.03002 
-0.61549 1.91100 0.03012 
-0.58373 1.90500 0.03002 
-0.55390 1.90500 0.03002 
-0.52571 1.89300 0.02983 
-0.44950 1.90500 0.03002 
-0.44095 1.91100 0.03012 
-0.37369 2.00500 0.03160 
-0.32544 2.37900 0.03749 
-0.26683 3.72900 0.05877 
-0.18257 3.79800 0.05985 
-0.16377 3.82200 0.06023 
-0.07494 3.87000 0.06099 
0.06863 3.99700 0.06299 
0.46858 4.21700 0.06646 
0.56113 4.33700 0.06835 
0.67913 4.36800 0.06884 
0.73364 4.16000 0.06556 
0.87277 4.05000 0.06383 
1.24229 3.27000 0.05153 
1.29047 3.30600 0.05210 
1.42535 3.20200 0.05046 
1.65133 3.21900 0.05073 
1.70038 3.18500 0.05019 
2.05216 3.32400 0.05238 
2.07200 3.34200 0.05267 
2.30961 3.43600 0.05415 
2.37648 3.45500 0.05445 
2.72910 3.66200 0.05771 
3.58069 4.30700 0.06788 
-1.29511 1.70300 0.02239 
-1.72413 2.53700 0.03336 
-1.69233 2.55900 0.03365 
-1.67969 2.59100 0.03407 
-1.65985 2.61300 0.03436 
-1.64695 2.63600 0.03466 
-1.59179 2.69400 0.03543 
-1.56358 2.70600 0.03558 
-1.54945 2.70600 0.03558 
-1.31074 2.83100 0.03723 
-1.26798 2.88500 0.03794 
-1.13968 2.79200 0.03671 
-1.08339 2.70600 0.03558 
-1.02183 2.56900 0.03378 
-0.48337 1.88200 0.02475 
-0.46988 1.88700 0.02481 
-0.46643 1.89300 0.02489 
-0.45448 1.90500 0.02505 
-0.37369 2.00500 0.02637 
-0.35151 2.05900 0.02708 
-0.32778 2.04500 0.02689 
-0.31602 2.03800 0.02680 
-0.29245 3.68400 0.04844 
-0.07494 3.87000 0.05089 
-0.04522 3.92000 0.05155 
0.19767 4.07700 0.05361 
0.94676 4.05000 0.05326 
1.03131 4.05000 0.05326 
1.09722 3.94500 0.05188 
1.27459 3.68400 0.04844 
1.25779 3.55500 0.04675 
1.25281 3.51500 0.04622 
1.24229 3.27000 0.04300 
1.26629 3.28800 0.04324 
1.32352 3.32400 0.04371 
1.41700 3.20200 0.04211 
1.44132 3.21900 0.04233 
1.62721 3.34200 0.04395 
1.65973 3.21900 0.04233 
1.69274 3.20200 0.04211 
1.73895 3.12000 0.04103 
1.76244 3.10400 0.04082 
1.91000 3.20200 0.04211 
2.08316 3.36000 0.04418 
2.09193 3.36000 0.04418 
2.12139 3.37900 0.04443 
-1.75488 2.49600 0.02631 
-1.73711 2.52700 0.02663 
-1.63310 2.64700 0.02790 
-1.58476 2.69400 0.02840 
-1.54945 2.70600 0.02852 
-1.49751 2.78000 0.02930 
-1.32183 2.79200 0.02943 
-1.31334 2.80500 0.02957 
-1.27103 2.85800 0.03012 
-1.24540 2.88500 0.03041 
-0.60362 1.90500 0.02008 
-0.57379 1.90500 0.02008 
-0.49810 1.88200 0.01984 
-0.39118 3.61900 0.03814 
-0.26683 3.72900 0.03930 
-0.16377 3.82200 0.04028 
-0.12388 3.82200 0.04028 
0.10057 4.02300 0.04240 
0.24023 4.07700 0.04297 
0.53477 4.30700 0.04540 
0.56113 4.33700 0.04571 
0.62655 4.39900 0.04637 
0.69967 4.21700 0.04445 
0.84049 3.99700 0.04213 
1.06300 3.97100 0.04185 
1.24348 3.34200 0.03523 
1.52370 3.28800 0.03466 
1.54944 3.28800 0.03466 
1.65133 3.21900 0.03393 
1.68493 3.21900 0.03393 
2.01517 3.30600 0.03485 
2.04349 3.32400 0.03504 
2.12139 3.37900 0.03562 
2.15042 3.39700 0.03580 
2.37648 3.45500 0.03642 
2.53095 3.49400 0.03683 
2.84287 3.77500 0.03979 
-1.30409 1.75700 0.01393 
-1.35793 1.83600 0.01456 
-1.54846 2.11600 0.01678 
-1.75538 2.50600 0.01987 
-1.72392 2.52700 0.02004 
-1.72413 2.53700 0.02012 
-1.65383 2.63600 0.02090 
-1.65382 2.64700 0.02099 
-1.63335 2.67000 0.02117 
-1.61942 2.67000 0.02117 
-1.59179 2.69400 0.02136 
-1.55651 2.70600 0.02146 
-1.52795 2.71800 0.02156 
-1.51998 2.74200 0.02175 
-1.26932 2.87100 0.02277 
-1.11739 2.75500 0.02185 
-0.37514 1.98500 0.01574 
-0.36103 2.05200 0.01627 
-0.29778 2.05900 0.01633 
-0.41696 3.59700 0.02853 
-0.41007 3.61900 0.02870 
-0.39118 3.61900 0.02870 
-0.21102 3.77500 0.02994 
0.23864 4.05000 0.03212 
0.25978 4.05000 0.03212 
0.49407 4.24700 0.03368 
0.59934 4.36800 0.03464 
0.63803 4.39900 0.03489 
0.72481 4.05000 0.03212 
0.73538 4.05000 0.03212 
0.75652 4.05000 0.03212 
0.85015 3.94500 0.03129 
0.87074 3.94500 0.03129 
0.88103 3.94500 0.03129 
0.99047 3.97100 0.03149 
1.06634 3.94500 0.03129 
1.10666 3.87000 0.03069 
1.13167 3.75200 0.02976 
1.19041 3.75200 0.02976 
1.26249 3.82200 0.03031 
1.30412 3.79800 0.03012 
1.25318 3.41600 0.02709 
1.35322 3.27000 0.02593 
1.38863 3.25300 0.02580 
1.58380 3.30600 0.02622 
1.61831 3.30600 0.02622 
1.64330 3.25300 0.02580 
1.75800 3.16900 0.02513 
1.79595 3.12000 0.02474 
1.93872 3.23600 0.02566 
2.06328 3.34200 0.02650 
2.25680 3.39700 0.02694 
3.01540 3.87000 0.03069 
3.58299 4.33700 0.03439 
3.59431 4.33700 0.03439 
3.60317 4.30700 0.03416 
-1.27943 1.69400 0.00901 
-1.30037 1.75200 0.00932 
-1.79327 2.48600 0.01323 
-1.65382 2.64700 0.01408 
-1.59882 2.69400 0.01433 
-1.58476 2.69400 0.01433 
-1.51999 2.75500 0.01466 
-1.49843 2.75500 0.01466 
-1.49124 2.75500 0.01466 
-1.35464 2.75500 0.01466 
-1.28858 2.83100 0.01506 
-1.26481 2.84400 0.01513 
-0.72519 1.97900 0.01053 
-0.66362 1.93500 0.01030 
-0.61853 1.90500 0.01014 
-0.48337 1.88200 0.01001 
-0.33114 2.06600 0.01099 
-0.30419 2.06600 0.01099 
-0.31924 2.29000 0.01218 
-0.20117 3.77500 0.02009 
-0.18146 3.77500 0.02009 
-0.16275 3.79800 0.02021 
0.15409 4.05000 0.02155 
0.17406 4.02300 0.02141 
0.25978 4.05000 0.02155 
0.35726 4.07700 0.02169 
0.40522 4.13200 0.02199 
0.42967 4.16000 0.02214 
0.58377 4.33700 0.02308 
0.78822 4.05000 0.02155 
0.91052 3.89500 0.02072 
1.08332 3.89500 0.02072 
1.30239 3.82200 0.02034 
1.28204 3.59700 0.01914 
1.26210 3.41600 0.01818 
1.26280 3.32400 0.01769 
1.54086 3.28800 0.01750 
1.56660 3.28800 0.01750 
1.60110 3.32400 0.01769 
1.75434 3.10400 0.01652 
2.11257 3.37900 0.01798 
2.35845 3.45500 0.01838 
2.36341 3.43600 0.01828 
2.35857 3.41600 0.01818 
2.35497 3.36000 0.01788 
2.38128 3.36000 0.01788 
2.40356 3.37900 0.01798 
2.46204 3.43600 0.01828 
2.60297 3.55500 0.01892 
2.79849 3.72900 0.01984 
-1.26547 1.69900 0.00461 
-1.73711 2.52700 0.00685 
-1.65792 2.53700 0.00688 
-1.59882 2.69400 0.00730 
-1.56367 2.69400 0.00730 
-1.55664 2.69400 0.00730 
-1.49124 2.75500 0.00747 
-1.35464 2.75500 0.00747 
-1.27380 2.83100 0.00768 
-0.72814 1.97300 0.00535 
-0.70969 1.97900 0.00537 
-0.58189 1.89900 0.00515 
-0.57694 1.89900 0.00515 
-0.40373 1.94800 0.00528 
-0.35810 2.06600 0.00560 
-0.33324 2.43600 0.00660 
-0.34915 2.60200 0.00705 
-0.41245 3.64000 0.00987 
-0.40538 3.66200 0.00993 
-0.36716 3.66200 0.00993 
-0.32129 3.68400 0.00999 
-0.23072 3.77500 0.01024 
-0.14206 3.77500 0.01024 
0.03615 3.87000 0.01049 
0.04655 3.89500 0.01056 
0.24921 4.05000 0.01098 
0.33599 4.07700 0.01105 
0.39176 4.10400 0.01113 
0.64036 4.33700 0.01176 
0.69163 4.10400 0.01113 
0.86896 3.84600 0.01043 
0.88448 3.87000 0.01049 
1.18786 3.77500 0.01024 
1.27835 3.87000 0.01049 
1.26749 3.45500 0.00937 
1.31777 3.28800 0.00891 
1.33616 3.27000 0.00887 
1.40442 3.27000 0.00887 
1.44647 3.28800 0.00891 
1.61831 3.30600 0.00896 
1.67653 3.21900 0.00873 
1.78674 3.10400 0.00842 
1.80409 3.12000 0.00846 
1.95740 3.25300 0.00882 
2.15626 3.32400 0.00901 
2.30508 3.41600 0.00926 
2.37711 3.37900 0.00916 
2.41637 3.39700 0.00921 
2.48467 3.45500 0.00937 
3.09528 3.92000 0.01063 
3.31659 4.13200 0.01120 
3.40682 4.21700 0.01143 
3.44214 4.24700 0.01151 
-1.71751 2.53700 0.00026 
-1.69764 2.53700 0.00026 
-1.54214 2.71800 0.00028 
-1.46163 2.76700 0.00028 
-1.41046 2.78000 0.00028 
-1.29997 2.79200 0.00028 
-1.21883 2.85800 0.00029 
-0.79467 2.03800 0.00021 
-0.59864 1.90500 0.00019 
-0.51284 1.88200 0.00019 
-0.47973 1.88700 0.00019 
-0.44233 1.91700 0.00020 
-0.42496 1.92900 0.00020 
-0.39478 1.95400 0.00020 
-0.37671 3.66200 0.00037 
-0.30207 3.68400 0.00037 
-0.21952 3.75200 0.00038 
-0.07401 3.82200 0.00039 
0.21605 4.02300 0.00041 
0.71177 3.92000 0.00040 
0.76779 3.94500 0.00040 
1.00200 3.89500 0.00040 
1.02233 3.89500 0.00040 
1.31874 3.87000 0.00039 
1.27483 3.47500 0.00035 
1.39589 3.27000 0.00033 
1.50512 3.34200 0.00034 
1.62613 3.21900 0.00033 
1.72617 3.20200 0.00033 
1.73211 3.15200 0.00032 
1.99562 3.28800 0.00033 
2.20830 3.32400 0.00034 
2.94471 3.87000 0.00039 
3.58581 4.36800 0.00044 
3.59721 4.36800 0.00044 
-1.37663 1.80400 -0.00452 
-1.33447 1.77300 -0.00445 
-1.32984 1.77300 -0.00445 
-1.41340 1.91100 -0.00479 
-1.77668 2.52700 -0.00634 
-1.75030 2.52700 -0.00634 
-1.72413 2.53700 -0.00636 
-1.68440 2.53700 -0.00636 
-1.61288 2.69400 -0.00676 
-1.57773 2.69400 -0.00676 
-1.28406 2.80500 -0.00703 
-1.26641 2.83100 -0.00710 
-1.20543 2.84400 -0.00713 
-1.17235 2.81800 -0.00707 
-0.57511 1.89300 -0.00475 
-0.55359 1.88700 -0.00473 
-0.53882 1.88700 -0.00473 
-0.52405 1.88700 -0.00473 
-0.36578 2.78000 -0.00697 
0.02589 3.84600 -0.00965 
0.09927 3.97100 -0.00996 
0.15207 3.99700 -0.01002 
0.66223 4.18900 -0.01051 
0.67479 4.13200 -0.01036 
0.77339 3.87000 -0.00971 
0.78867 3.84600 -0.00965 
0.98547 3.87000 -0.00971 
1.30693 3.89500 -0.00977 
1.27488 3.37900 -0.00847 
1.58362 3.27000 -0.00820 
1.60094 3.23600 -0.00812 
1.68376 3.18500 -0.00799 
1.71566 3.15200 -0.00790 
1.71453 3.12000 -0.00782 
2.10069 3.36000 -0.00843 
2.43514 3.43600 -0.00862 
3.02367 3.92000 -0.00983 
3.54904 4.33700 -0.01088 
-1.43620 1.93500 -0.00990 
-1.66582 2.58000 -0.01320 
-1.54971 2.68200 -0.01373 
-1.54961 2.69400 -0.01379 
-1.52757 2.73000 -0.01397 
-1.50620 2.73000 -0.01397 
-1.43948 2.78000 -0.01423 
-1.37418 2.78000 -0.01423 
-1.32183 2.79200 -0.01429 
-0.51775 1.88200 -0.00963 
-0.51284 1.88200 -0.00963 
-0.45092 1.91100 -0.00978 
-0.35931 2.07300 -0.01061 
-0.30183 2.08700 -0.01068 
-0.11250 3.77500 -0.01932 
-0.10265 3.77500 -0.01932 
-0.04464 3.87000 -0.01980 
0.12078 3.99700 -0.02045 
0.14164 3.99700 -0.02045 
0.16251 3.99700 -0.02045 
0.22655 4.02300 -0.02059 
0.28279 4.07700 -0.02086 
0.34892 4.10400 -0.02100 
0.63365 4.21700 -0.02158 
0.65130 4.18900 -0.02144 
0.67479 4.13200 -0.02115 
0.71393 3.82200 -0.01956 
0.86277 3.77500 -0.01932 
0.90343 3.82200 -0.01956 
1.07636 3.87000 -0.01980 
1.25035 3.84600 -0.01968 
1.36176 3.27000 -0.01673 
1.54944 3.28800 -0.01683 
1.60057 3.13600 -0.01605 
1.70555 3.08900 -0.01581 
1.72723 3.04200 -0.01557 
1.89031 3.16900 -0.01622 
1.91835 3.20200 -0.01639 
2.21360 3.30600 -0.01692 
2.65250 3.59700 -0.01841 
2.97389 3.89500 -0.01993 
3.32821 4.16000 -0.02129 
3.61695 4.33700 -0.02219 
-1.43997 1.88700 -0.01458 
-1.81351 2.49600 -0.01929 
-1.80965 2.52700 -0.01953 
-1.67292 2.59100 -0.02002 
-1.65426 2.67000 -0.02063 
-1.47058 2.73000 -0.02109 
-1.38869 2.78000 -0.02148 
-1.30602 2.80500 -0.02167 
-1.28406 2.80500 -0.02167 
-1.25903 2.83100 -0.02188 
-1.23374 2.85800 -0.02208 
-0.73581 1.96600 -0.01519 
-0.59180 1.89900 -0.01467 
-0.49450 1.88700 -0.01458 
-0.40889 3.23600 -0.02500 
-0.43840 3.61900 -0.02796 
-0.32893 3.66200 -0.02830 
-0.18898 3.72900 -0.02881 
-0.17925 3.72900 -0.02881 
0.18217 3.97100 -0.03068 
0.29537 4.10400 -0.03171 
0.31679 4.10400 -0.03171 
0.32974 4.13200 -0.03193 
0.50159 4.21700 -0.03259 
0.70944 3.79800 -0.02935 
0.82336 3.77500 -0.02917 
1.06626 3.87000 -0.02990 
1.17527 3.79800 -0.02935 
1.19510 3.79800 -0.02935 
1.26825 3.87000 -0.02990 
1.29054 3.39700 -0.02625 
1.29940 3.39700 -0.02625 
1.36925 3.28800 -0.02541 
2.14139 3.23600 -0.02500 
2.16962 3.25300 -0.02514 
2.21871 3.28800 -0.02541 
2.39422 3.41600 -0.02640 
2.61495 3.59700 -0.02779 
2.89821 3.82200 -0.02953 
3.16611 4.02300 -0.03109 
3.53772 4.33700 -0.03351 
3.56036 4.33700 -0.03351 
3.57168 4.33700 -0.03351 
-1.46744 1.92300 -0.01988 
-1.81681 2.53700 -0.02622 
-1.77150 2.54800 -0.02634 
-1.72642 2.58000 -0.02667 
-1.70719 2.60200 -0.02690 
-1.70040 2.60200 -0.02690 
-1.67292 2.59100 -0.02678 
-1.53505 2.71800 -0.02810 
-1.40320 2.78000 -0.02874 
-1.23374 2.85800 -0.02954 
-1.21883 2.85800 -0.02954 
-1.17575 2.84400 -0.02940 
-1.15029 2.81800 -0.02913 
-0.59864 1.90500 -0.01969 
-0.52266 1.88200 -0.01945 
-0.50435 1.88700 -0.01951 
-0.49450 1.88700 -0.01951 
-0.48958 1.88700 -0.01951 
-0.41241 1.94100 -0.02006 
-0.38950 1.97900 -0.02046 
-0.37342 2.03200 -0.02100 
-0.35629 2.08700 -0.02157 
-0.33734 2.46600 -0.02549 
-0.32129 3.68400 -0.03808 
-0.26519 3.70600 -0.03831 
-0.18898 3.72900 -0.03855 
0.18217 3.97100 -0.04105 
0.29537 4.10400 -0.04242 
0.56385 4.18900 -0.04330 
0.74909 3.79800 -0.03926 
0.86277 3.77500 -0.03902 
0.99943 3.84600 -0.03975 
1.29016 3.72900 -0.03855 
1.35822 3.32400 -0.03436 
1.40263 3.30600 -0.03417 
1.51216 3.39700 -0.03511 
1.55952 3.16900 -0.03276 
1.64913 3.08900 -0.03193 
1.67248 3.05800 -0.03161 
1.67167 3.04200 -0.03144 
1.71020 3.01200 -0.03113 
1.75821 3.02700 -0.03129 
2.05831 3.30600 -0.03417 
2.06693 3.30600 -0.03417 
2.18362 3.23600 -0.03345 
2.29505 3.32400 -0.03436 
3.18736 4.05000 -0.04186 
3.54697 4.30700 -0.04452 
3.53081 4.24700 -0.04390 
-1.79809 2.54800 -0.03299 
-1.75258 2.56900 -0.03326 
-1.66667 2.61300 -0.03383 
-1.64101 2.69400 -0.03488 
-1.61991 2.69400 -0.03488 
-1.35464 2.75500 -0.03567 
-1.32911 2.79200 -0.03615 
-1.07594 2.67000 -0.03457 
-0.63441 1.92300 -0.02490 
-0.30625 2.08000 -0.02693 
-0.36716 3.66200 -0.04741 
-0.26519 3.70600 -0.04798 
-0.05509 3.89500 -0.05043 
0.09862 3.94500 -0.05107 
0.67936 4.16000 -0.05386 
0.69310 4.05000 -0.05243 
0.71393 3.82200 -0.04948 
0.80369 3.82200 -0.04948 
1.22483 3.79800 -0.04917 
1.26447 3.79800 -0.04917 
1.28389 3.47500 -0.04499 
1.36558 3.34200 -0.04327 
1.41027 3.32400 -0.04303 
1.50329 3.39700 -0.04398 
1.53875 3.39700 -0.04398 
1.68662 3.01200 -0.03899 
1.86108 3.12000 -0.04039 
1.92479 3.18500 -0.04123 
2.03589 3.27000 -0.04233 
2.08271 3.18500 -0.04123 
2.67817 3.61900 -0.04685 
2.71270 3.64000 -0.04712 
3.26199 4.10400 -0.05313 
3.51325 4.30700 -0.05576 
3.49756 4.24700 -0.05498 
-1.83603 2.52700 -0.03931 
-1.76599 2.56900 -0.03996 
-1.74587 2.56900 -0.03996 
-1.63398 2.69400 -0.04191 
-1.59155 2.67000 -0.04153 
-1.54214 2.71800 -0.04228 
-1.52086 2.71800 -0.04228 
-1.49958 2.71800 -0.04228 
-1.33888 2.76700 -0.04304 
-1.17764 2.88500 -0.04488 
-0.63441 1.92300 -0.02991 
-0.61549 1.91100 -0.02973 
-0.53248 1.88200 -0.02928 
-0.51284 1.88200 -0.02928 
-0.47287 1.89900 -0.02954 
-0.42866 1.92300 -0.02991 
-0.30625 2.08000 -0.03236 
-0.41104 3.25300 -0.05060 
-0.39345 3.64000 -0.05662 
-0.30387 3.70600 -0.05765 
0.15207 3.99700 -0.06218 
0.16145 3.97100 -0.06177 
0.19254 3.97100 -0.06177 
0.41355 4.21700 -0.06560 
0.49826 4.18900 -0.06516 
0.51652 4.16000 -0.06471 
0.90343 3.82200 -0.05945 
1.00947 3.84600 -0.05983 
1.01951 3.84600 -0.05983 
1.03597 3.87000 -0.06020 
1.09656 3.87000 -0.06020 
1.15278 3.82200 -0.05945 
1.27253 3.70600 -0.05765 
1.27459 3.68400 -0.05731 
1.26707 3.55500 -0.05530 
1.34233 3.41600 -0.05314 
1.36558 3.34200 -0.05199 
1.39292 3.32400 -0.05171 
1.46151 3.34200 -0.05199 
1.53076 3.36000 -0.05227 
1.53242 3.27000 -0.05087 
1.51943 3.10400 -0.04829 
1.99784 3.23600 -0.05034 
2.27877 3.28800 -0.05115 
2.33364 3.34200 -0.05199 
2.50030 3.51500 -0.05468 
2.71270 3.64000 -0.05662 
-1.96983 2.49600 -0.04534 
-1.70797 2.20800 -0.04011 
-1.62576 2.11600 -0.03844 
-1.56578 2.06600 -0.03753 
-1.59790 2.12300 -0.03857 
-1.78610 2.56900 -0.04667 
-1.75928 2.56900 -0.04667 
-1.75406 2.59100 -0.04707 
-1.73598 2.62500 -0.04768 
-1.47830 2.71800 -0.04937 
-1.31943 2.81800 -0.05119 
-1.30335 2.83100 -0.05143 
-1.17538 2.89800 -0.05264 
-0.68903 1.97900 -0.03595 
-0.68180 1.97300 -0.03584 
-0.67425 1.96600 -0.03571 
-0.66708 1.96000 -0.03560 
-0.59180 1.89900 -0.03450 
-0.56686 1.88200 -0.03419 
-0.55213 1.88200 -0.03419 
-0.46442 1.90500 -0.03461 
-0.42124 1.93500 -0.03515 
-0.40110 1.96000 -0.03560 
-0.36472 2.07300 -0.03766 
-0.34110 2.09400 -0.03804 
-0.30183 2.08700 -0.03791 
-0.17057 3.75200 -0.06816 
-0.02492 3.94500 -0.07166 
0.32974 4.13200 -0.07506 
0.38894 4.18900 -0.07610 
0.92918 3.84600 -0.06986 
1.21231 3.72900 -0.06774 
1.26522 3.57600 -0.06496 
1.45364 3.32400 -0.06038 
1.50323 3.10400 -0.05639 
1.79868 3.04200 -0.05526 
1.81612 3.05800 -0.05555 
2.09000 3.28800 -0.05973 
2.18574 3.20200 -0.05817 
2.21415 3.21900 -0.05847 
2.66872 3.61900 -0.06574 
2.73170 3.64000 -0.06612 
3.41998 4.24700 -0.07715 
3.47681 4.27600 -0.07768 
-1.74968 2.62500 -0.05453 
-1.54923 2.71800 -0.05647 
-1.44208 2.73000 -0.05672 
-1.33522 2.73000 -0.05672 
-1.32340 2.78000 -0.05775 
-1.26358 2.85800 -0.05938 
-0.69112 1.98500 -0.04124 
-0.50792 1.88200 -0.03910 
-0.50301 1.88200 -0.03910 
-0.45800 1.89900 -0.03945 
-0.41619 1.93500 -0.04020 
-0.33460 2.44600 -0.05082 
-0.37445 3.64000 -0.07562 
-0.20716 3.70600 -0.07699 
-0.12236 3.77500 -0.07843 
-0.03521 3.94500 -0.08196 
-0.00438 3.99700 -0.08304 
0.13980 3.94500 -0.08196 
0.29149 4.05000 -0.08414 
0.51652 4.16000 -0.08642 
0.55618 4.13200 -0.08584 
0.90468 3.87000 -0.08040 
0.91478 3.87000 -0.08040 
1.13414 3.89500 -0.08092 
1.14706 3.87000 -0.08040 
1.16002 3.84600 -0.07990 
1.16275 3.82200 -0.07940 
1.19285 3.72900 -0.07747 
1.19516 3.70600 -0.07699 
1.20008 3.66200 -0.07608 
1.50512 3.34200 -0.06943 
1.62512 3.13600 -0.06515 
1.64163 3.15200 -0.06548 
1.94973 3.18500 -0.06617 
2.09322 3.25300 -0.06758 
2.09706 3.16900 -0.06584 
2.55303 3.57600 -0.07429 
2.68421 3.64000 -0.07562 
2.76020 3.64000 -0.07562 
2.79599 3.66200 -0.07608 
3.47285 4.21700 -0.08761 
3.44762 4.16000 -0.08642 
3.43520 4.13200 -0.08584 
-1.94759 2.47600 -0.05790 
-1.85266 2.37900 -0.05563 
-1.78765 2.41700 -0.05652 
-1.75013 2.63600 -0.06164 
-1.74325 2.63600 -0.06164 
-1.64769 2.68200 -0.06272 
-1.51377 2.71800 -0.06356 
-1.47830 2.71800 -0.06356 
-1.44208 2.73000 -0.06384 
-1.33054 2.70600 -0.06328 
-1.28858 2.83100 -0.06620 
-1.25612 2.85800 -0.06683 
-1.24685 2.87100 -0.06714 
-1.23426 2.91200 -0.06810 
-0.70969 1.97900 -0.04628 
-0.70453 1.97900 -0.04628 
-0.56195 1.88200 -0.04401 
-0.54722 1.88200 -0.04401 
-0.47631 1.89300 -0.04427 
-0.41619 1.93500 -0.04525 
-0.39720 1.96600 -0.04597 
-0.18898 3.72900 -0.08720 
-0.01481 3.99700 -0.09347 
0.31471 4.07700 -0.09534 
0.47958 4.21700 -0.09861 
0.53461 4.13200 -0.09663 
0.89019 3.89500 -0.09108 
1.36907 3.41600 -0.07988 
1.41988 3.30600 -0.07731 
1.48028 3.30600 -0.07731 
1.61683 3.12000 -0.07296 
1.88551 3.12000 -0.07296 
2.10218 3.20200 -0.07488 
2.10765 3.18500 -0.07448 
2.21415 3.21900 -0.07528 
2.86827 3.70600 -0.08666 
2.91367 3.75200 -0.08774 
-1.64857 2.15300 -0.05597 
-1.78099 2.40800 -0.06259 
-1.81351 2.49600 -0.06488 
-1.81804 2.54800 -0.06623 
-1.79918 2.55900 -0.06652 
-1.61288 2.69400 -0.07003 
-1.59882 2.69400 -0.07003 
-1.54895 2.73000 -0.07096 
-1.35879 2.70600 -0.07034 
-1.30934 2.84400 -0.07393 
-1.26481 2.84400 -0.07393 
-1.26358 2.85800 -0.07429 
-0.67425 1.96600 -0.05110 
-0.66708 1.96000 -0.05095 
-0.50792 1.88200 -0.04892 
-0.42364 1.92300 -0.04999 
-0.38471 2.98300 -0.07754 
-0.33702 3.75200 -0.09753 
-0.32722 3.75200 -0.09753 
-0.29785 3.75200 -0.09753 
-0.20844 3.72900 -0.09693 
-0.17925 3.72900 -0.09693 
-0.02508 3.97100 -0.10322 
0.20157 3.94500 -0.10255 
0.50919 4.18900 -0.10889 
0.63365 4.21700 -0.10962 
0.66032 4.24700 -0.11040 
0.76197 4.02300 -0.10458 
0.84476 3.92000 -0.10190 
0.86522 3.92000 -0.10190 
1.04935 3.92000 -0.10190 
1.13119 3.92000 -0.10190 
1.14142 3.92000 -0.10190 
1.18337 3.64000 -0.09462 
1.23621 3.49400 -0.09082 
1.25444 3.49400 -0.09082 
1.28552 3.45500 -0.08981 
1.33060 3.45500 -0.08981 
1.37032 3.39700 -0.08830 
1.47597 3.18500 -0.08279 
1.45972 2.99800 -0.07793 
1.54465 3.04200 -0.07907 
1.61683 3.12000 -0.08110 
1.89365 3.12000 -0.08110 
2.10218 3.20200 -0.08323 
2.10765 3.18500 -0.08279 
2.19735 3.21900 -0.08368 
2.25776 3.27000 -0.08500 
3.29411 4.10400 -0.10668 
-1.80624 2.48600 -0.07111 
-1.74568 2.68200 -0.07672 
-1.72468 2.68200 -0.07672 
-1.67569 2.68200 -0.07672 
-1.66210 2.69400 -0.07706 
-1.36585 2.70600 -0.07740 
-1.27965 2.84400 -0.08135 
-1.24866 2.85800 -0.08175 
-1.24685 2.87100 -0.08212 
-0.75451 1.93500 -0.05535 
-0.74441 1.93500 -0.05535 
-0.73431 1.93500 -0.05535 
-0.70799 1.96000 -0.05606 
-0.69990 1.96600 -0.05624 
-0.35271 2.06600 -0.05910 
-0.33460 2.44600 -0.06997 
-0.33908 3.77500 -0.10798 
-0.24890 3.75200 -0.10732 
-0.23911 3.75200 -0.10732 
-0.12087 3.72900 -0.10666 
-0.02508 3.97100 -0.11359 
0.21186 3.94500 -0.11284 
0.36208 4.13200 -0.11819 
0.50919 4.18900 -0.11982 
0.76105 4.13200 -0.11819 
0.76156 4.07700 -0.11662 
1.03912 3.92000 -0.11213 
1.25669 3.47500 -0.09940 
1.36812 3.43600 -0.09828 
1.41027 3.32400 -0.09508 
1.42149 3.27000 -0.09353 
1.68068 3.07300 -0.08790 
1.72487 2.98300 -0.08533 
1.74823 2.98300 -0.08533 
1.98520 3.20200 -0.09159 
2.13841 3.16900 -0.09065 
2.32492 3.34200 -0.09559 
2.43959 3.45500 -0.09883 
2.60261 3.61900 -0.10352 
2.67176 3.66200 -0.10475 
2.68980 3.53500 -0.10112 
2.88009 3.68400 -0.10538 
-1.83865 2.36100 -0.07369 
-1.78237 2.42700 -0.07576 
-1.79145 2.54800 -0.07953 
-1.74114 2.60200 -0.08122 
-1.75013 2.63600 -0.08228 
-1.62713 2.70600 -0.08446 
-1.59888 2.71800 -0.08484 
-1.44284 2.71800 -0.08484 
-1.38609 2.71800 -0.08484 
-1.34467 2.70600 -0.08446 
-1.32066 2.80500 -0.08755 
-1.31676 2.84400 -0.08877 
-0.64847 1.93500 -0.06040 
-0.63943 1.92300 -0.06002 
-0.33460 2.44600 -0.07635 
0.21186 3.94500 -0.12314 
0.25638 3.99700 -0.12476 
0.36208 4.13200 -0.12897 
0.75470 4.21700 -0.13163 
0.92660 3.92000 -0.12236 
1.22529 3.51500 -0.10972 
1.28552 3.45500 -0.10784 
1.36551 3.47500 -0.10847 
1.37918 3.39700 -0.10603 
1.40442 3.27000 -0.10207 
1.42259 3.25300 -0.10154 
1.44224 3.02700 -0.09448 
1.69059 3.13600 -0.09789 
1.68662 3.01200 -0.09401 
1.69373 2.98300 -0.09311 
1.74777 2.96900 -0.09267 
2.00191 3.20200 -0.09995 
2.07974 3.21900 -0.10048 
2.39422 3.41600 -0.10663 
2.55303 3.57600 -0.11162 
2.66791 3.55500 -0.11096 
2.91663 3.70600 -0.11568 
2.96262 3.75200 -0.11711 
3.29167 3.99700 -0.12476 
3.29099 3.97100 -0.12395 
-1.63172 2.15300 -0.07282 
-1.65585 2.20000 -0.07441 
-1.79646 2.52700 -0.08547 
-1.74662 2.58000 -0.08726 
-1.74968 2.62500 -0.08879 
-1.75153 2.65900 -0.08994 
-1.51998 2.74200 -0.09274 
-1.47058 2.73000 -0.09234 
-1.46346 2.73000 -0.09234 
-1.45633 2.73000 -0.09234 
-1.32183 2.79200 -0.09443 
-1.31813 2.83100 -0.09575 
-1.30192 2.84400 -0.09619 
-1.26481 2.84400 -0.09619 
-0.57821 1.88700 -0.06382 
-0.43368 1.92300 -0.06504 
-0.42124 1.93500 -0.06545 
-0.41390 1.94800 -0.06589 
-0.40622 1.96000 -0.06629 
-0.33324 2.43600 -0.08239 
-0.34620 2.58000 -0.08726 
-0.42635 3.59700 -0.12166 
-0.17057 3.75200 -0.12690 
0.10823 3.92000 -0.13259 
0.19128 3.94500 -0.13343 
0.23399 3.97100 -0.13431 
0.27904 4.02300 -0.13607 
0.28954 4.02300 -0.13607 
0.81446 4.02300 -0.13607 
0.87545 3.92000 -0.13259 
0.89591 3.92000 -0.13259 
0.93683 3.92000 -0.13259 
1.10365 3.89500 -0.13174 
1.15447 3.89500 -0.13174 
1.26356 3.49400 -0.11818 
1.42610 3.18500 -0.10773 
1.45103 3.18500 -0.10773 
1.43994 2.92600 -0.09897 
1.53013 2.99800 -0.10140 
1.68579 2.96900 -0.10042 
2.07225 3.16900 -0.10719 
2.25303 3.28800 -0.11121 
3.19757 3.92000 -0.13259 
3.34383 3.99700 -0.13519 
-1.87292 2.38900 -0.08704 
-1.83074 2.34300 -0.08536 
-1.65419 2.15300 -0.07844 
-1.63818 2.16900 -0.07902 
-1.78605 2.47600 -0.09021 
-1.77009 2.52700 -0.09207 
-1.73908 2.55900 -0.09323 
-1.67656 2.70600 -0.09859 
-1.63435 2.71800 -0.09902 
-1.47770 2.73000 -0.09946 
-1.34026 2.75500 -0.10037 
-1.27223 2.84400 -0.10361 
-1.24120 2.85800 -0.10412 
-1.23374 2.85800 -0.10412 
-1.08539 2.65900 -0.09687 
-0.73936 1.93500 -0.07050 
-0.72926 1.93500 -0.07050 
-0.72421 1.93500 -0.07050 
-0.71633 1.94100 -0.07072 
-0.70583 1.95400 -0.07119 
-0.58499 1.89300 -0.06897 
-0.47087 1.91100 -0.06962 
-0.45234 1.91700 -0.06984 
-0.27349 3.82200 -0.13925 
-0.13140 3.75200 -0.13670 
-0.09224 3.75200 -0.13670 
-0.04493 3.89500 -0.14191 
0.23399 3.97100 -0.14467 
0.43267 4.18900 -0.15262 
0.51259 4.21700 -0.15364 
0.76526 4.27600 -0.15579 
0.80936 4.05000 -0.14755 
0.86044 3.94500 -0.14373 
1.02587 3.87000 -0.14099 
1.04607 3.87000 -0.14099 
1.11381 3.89500 -0.14191 
1.13119 3.92000 -0.14282 
1.16726 3.87000 -0.14099 
1.17005 3.84600 -0.14012 
1.18786 3.77500 -0.13753 
1.19041 3.75200 -0.13670 
1.19756 3.59700 -0.13105 
1.20694 3.59700 -0.13105 
1.22304 3.53500 -0.12879 
1.44760 3.08900 -0.11254 
1.43059 2.95400 -0.10762 
1.43994 2.92600 -0.10660 
1.45584 2.91200 -0.10609 
1.72302 2.94000 -0.10711 
1.76139 2.94000 -0.10711 
1.80200 2.96900 -0.10817 
2.05649 3.12000 -0.11367 
2.10795 3.13600 -0.11425 
2.14920 3.18500 -0.11604 
2.49608 3.53500 -0.12879 
2.59317 3.61900 -0.13185 
2.69293 3.51500 -0.12806 
3.30135 3.97100 -0.14467 
-1.63173 2.13100 -0.08320 
-1.76872 2.41700 -0.09437 
-1.78029 2.48600 -0.09706 
-1.30934 2.84400 -0.11104 
-0.75451 1.93500 -0.07555 
-0.70874 1.94800 -0.07605 
-0.70583 1.95400 -0.07629 
-0.57821 1.88700 -0.07367 
-0.47586 1.91100 -0.07461 
-0.45734 1.91700 -0.07484 
-0.44233 1.91700 -0.07484 
-0.43368 1.92300 -0.07508 
-0.40622 1.96000 -0.07652 
-0.30316 2.05900 -0.08039 
-0.38131 2.89800 -0.11314 
-0.40295 3.64000 -0.14211 
-0.38859 3.68400 -0.14383 
-0.25354 3.82200 -0.14922 
-0.06404 3.82200 -0.14922 
-0.05440 3.84600 -0.15016 
0.09862 3.94500 -0.15402 
0.16039 3.94500 -0.15402 
0.19254 3.97100 -0.15504 
0.23552 3.99700 -0.15605 
0.24595 3.99700 -0.15605 
0.25638 3.99700 -0.15605 
0.80412 4.07700 -0.15918 
0.89591 3.92000 -0.15305 
1.00200 3.89500 -0.15207 
1.00567 3.87000 -0.15109 
1.01951 3.84600 -0.15016 
1.17005 3.84600 -0.15016 
1.18270 3.82200 -0.14922 
1.37798 3.41600 -0.13337 
1.37918 3.39700 -0.13263 
1.44374 3.16900 -0.12373 
1.42288 2.95400 -0.11533 
1.42466 2.92600 -0.11424 
1.96351 3.08900 -0.12060 
2.02800 3.08900 -0.12060 
2.10795 3.13600 -0.12244 
2.65265 3.66200 -0.14297 
2.72670 3.53500 -0.13801 
2.85760 3.61900 -0.14129 
-1.55550 2.76700 -0.11525 
-1.41934 2.75500 -0.11475 
-1.23512 2.84400 -0.11846 
-0.73431 1.93500 -0.08060 
-0.67219 1.96000 -0.08164 
-0.52405 1.88700 -0.07860 
-0.51583 1.89300 -0.07885 
-0.48084 1.91100 -0.07960 
-0.40110 1.96000 -0.08164 
-0.36920 2.03800 -0.08489 
-0.30014 2.15300 -0.08968 
-0.28702 3.87000 -0.16119 
0.04715 3.94500 -0.16432 
0.31471 4.07700 -0.16982 
0.34892 4.10400 -0.17094 
0.42967 4.16000 -0.17327 
0.52360 4.21700 -0.17565 
0.85575 3.97100 -0.16540 
1.21000 3.75200 -0.15628 
1.22789 3.57600 -0.14895 
1.27116 3.51500 -0.14641 
1.39292 3.32400 -0.13845 
1.39285 3.18500 -0.13266 
1.45934 3.18500 -0.13266 
1.47864 2.91200 -0.12129 
1.49338 2.92600 -0.12187 
1.64056 3.05800 -0.12737 
1.66313 2.99800 -0.12487 
1.67727 2.95400 -0.12304 
1.76647 2.89800 -0.12071 
1.97572 3.05800 -0.12737 
2.21207 3.25300 -0.13549 
2.25674 3.30600 -0.13770 
2.67127 3.59700 -0.14982 
3.06053 3.75200 -0.15628 
3.10885 3.77500 -0.15724 
-1.59259 2.08700 -0.09237 
-1.59247 2.09400 -0.09268 
-1.66842 2.24000 -0.09915 
-1.66950 2.70600 -0.11977 
-1.62731 2.73000 -0.12083 
-1.54830 2.78000 -0.12305 
-1.51217 2.76700 -0.12247 
-1.46163 2.76700 -0.12247 
-1.43275 2.76700 -0.12247 
-1.38144 2.78000 -0.12305 
-1.31676 2.84400 -0.12588 
-1.28707 2.84400 -0.12588 
-1.22209 2.83100 -0.12530 
-1.20912 2.81800 -0.12473 
-0.71093 1.95400 -0.08649 
-0.68695 1.97300 -0.08733 
-0.55213 1.88200 -0.08330 
-0.40110 1.96000 -0.08675 
-0.36920 2.03800 -0.09020 
-0.36226 2.05900 -0.09113 
-0.30722 3.87000 -0.17129 
0.12951 3.94500 -0.17461 
0.62469 4.30700 -0.19063 
0.67913 4.36800 -0.19333 
0.76570 4.21700 -0.18665 
0.82466 3.97100 -0.17576 
1.01669 3.79800 -0.16811 
1.04643 3.79800 -0.16811 
1.08607 3.79800 -0.16811 
1.09598 3.79800 -0.16811 
1.28033 3.51500 -0.15558 
1.30785 3.51500 -0.15558 
1.34562 3.49400 -0.15465 
1.38365 3.47500 -0.15381 
1.44812 3.07300 -0.13602 
1.42381 2.94000 -0.13013 
1.42466 2.92600 -0.12951 
1.43305 2.91200 -0.12889 
1.46397 2.89800 -0.12827 
1.50102 2.92600 -0.12951 
1.61588 3.01200 -0.13332 
1.66254 2.96900 -0.13141 
1.71338 2.88500 -0.12769 
2.64309 3.66200 -0.16209 
2.93777 3.68400 -0.16306 
3.11870 3.77500 -0.16709 
3.14761 3.79800 -0.16811 
-1.69481 2.31600 -0.10855 
-1.71498 2.47600 -0.11605 
-1.73787 2.67000 -0.12515 
-1.72468 2.68200 -0.12571 
-1.69022 2.69400 -0.12627 
-1.63444 2.73000 -0.12796 
-1.43222 2.78000 -0.13030 
-1.28707 2.84400 -0.13330 
-1.17105 2.78000 -0.13030 
-1.14614 2.75500 -0.12913 
-0.74165 1.94100 -0.09098 
-0.58993 1.89300 -0.08873 
-0.57821 1.88700 -0.08845 
-0.52266 1.88200 -0.08821 
-0.48928 1.90500 -0.08929 
-0.44095 1.91100 -0.08957 
-0.41619 1.93500 -0.09070 
-0.20495 3.84600 -0.18027 
-0.01444 3.89500 -0.18256 
0.20423 3.99700 -0.18734 
0.50159 4.21700 -0.19766 
0.84954 3.89500 -0.18256 
0.89907 3.84600 -0.18027 
1.01054 3.77500 -0.17694 
1.04994 3.77500 -0.17694 
1.18518 3.79800 -0.17802 
1.21979 3.75200 -0.17586 
1.38365 3.47500 -0.16288 
1.38137 3.23600 -0.15168 
1.42610 3.18500 -0.14928 
1.45042 3.20200 -0.15008 
1.44903 3.05800 -0.14333 
1.44884 2.89800 -0.13583 
1.45641 2.89800 -0.13583 
1.96825 2.99800 -0.14052 
1.97608 2.99800 -0.14052 
2.87244 3.66200 -0.17164 
2.88200 3.66200 -0.17164 
2.90111 3.66200 -0.17164 
3.11870 3.77500 -0.17694 
3.20740 3.82200 -0.17914 
3.23758 3.84600 -0.18027 
-1.60394 2.16100 -0.10693 
-1.62141 2.20000 -0.10886 
-1.71608 2.37900 -0.11771 
-1.70753 2.45600 -0.12152 
-1.74283 2.62500 -0.12989 
-1.68269 2.68200 -0.13271 
-1.66869 2.68200 -0.13271 
-1.59153 2.74200 -0.13568 
-1.40118 2.80500 -0.13879 
-1.34029 2.83100 -0.14008 
-1.27223 2.84400 -0.14072 
-0.71016 1.96600 -0.09728 
-0.63743 1.91700 -0.09485 
-0.52589 1.87600 -0.09283 
-0.41993 1.92900 -0.09545 
-0.27871 3.89500 -0.19273 
-0.26855 3.89500 -0.19273 
-0.22643 3.87000 -0.19149 
-0.18603 3.87000 -0.19149 
-0.05440 3.84600 -0.19030 
0.17181 3.97100 -0.19649 
0.35490 4.05000 -0.20040 
0.75589 4.10400 -0.20307 
0.84408 3.87000 -0.19149 
0.86896 3.84600 -0.19030 
0.96327 3.82200 -0.18912 
1.30003 3.49400 -0.17289 
1.31827 3.49400 -0.17289 
1.35644 3.47500 -0.17195 
1.38454 3.18500 -0.15760 
1.40239 3.16900 -0.15680 
1.47597 3.18500 -0.15760 
1.60018 2.95400 -0.14617 
1.69142 2.91200 -0.14409 
1.98390 2.99800 -0.14834 
2.10534 3.12000 -0.15438 
2.62052 3.68400 -0.18229 
2.66858 3.68400 -0.18229 
2.87794 3.70600 -0.18338 
2.88762 3.70600 -0.18338 
2.98584 3.68400 -0.18229 
-1.54456 2.03800 -0.10616 
-1.57020 2.12300 -0.11059 
-1.67516 2.67000 -0.13908 
-1.59169 2.73000 -0.14221 
-1.56281 2.78000 -0.14481 
-1.49669 2.79200 -0.14544 
-1.45399 2.78000 -0.14481 
-1.40926 2.79200 -0.14544 
-1.40850 2.80500 -0.14611 
-1.24996 2.84400 -0.14815 
-1.16380 2.78000 -0.14481 
-0.76975 1.94800 -0.10147 
-0.67731 1.96000 -0.10210 
-0.65857 1.93500 -0.10080 
-0.58993 1.89300 -0.09861 
-0.56195 1.88200 -0.09803 
-0.54547 1.87600 -0.09772 
-0.42364 1.92300 -0.10017 
-0.42195 3.64000 -0.18961 
-0.36639 3.75200 -0.19544 
-0.35879 3.77500 -0.19664 
-0.30722 3.87000 -0.20159 
-0.25838 3.89500 -0.20289 
-0.13469 3.84600 -0.20034 
0.64494 4.36800 -0.22753 
0.67247 4.39900 -0.22915 
0.73613 4.36800 -0.22753 
0.92749 3.79800 -0.19784 
1.21000 3.75200 -0.19544 
1.36931 3.16900 -0.16507 
1.41779 3.18500 -0.16591 
1.46963 3.13600 -0.16336 
1.44463 2.98300 -0.15539 
1.53805 2.98300 -0.15539 
1.66932 2.94000 -0.15315 
1.90853 2.95400 -0.15388 
2.47763 3.53500 -0.18414 
2.69087 3.66200 -0.19075 
-1.52414 2.02500 -0.11077 
-1.52286 2.05900 -0.11263 
-1.54846 2.11600 -0.11575 
-1.73671 2.64700 -0.14479 
-1.73765 2.65900 -0.14545 
-1.60597 2.71800 -0.14867 
-1.57032 2.75500 -0.15070 
-1.55555 2.78000 -0.15207 
-1.46124 2.78000 -0.15207 
-1.41046 2.78000 -0.15207 
-0.76975 1.94800 -0.10656 
-0.71822 1.96000 -0.10721 
-0.71269 1.97300 -0.10792 
-0.68451 1.96600 -0.10754 
-0.55704 1.88200 -0.10295 
-0.42732 1.91700 -0.10486 
-0.38032 1.98500 -0.10858 
-0.37646 1.99200 -0.10896 
-0.30722 3.87000 -0.21169 
-0.28702 3.87000 -0.21169 
-0.18603 3.87000 -0.21169 
-0.04436 3.84600 -0.21038 
0.25805 4.02300 -0.22006 
0.30206 4.05000 -0.22153 
0.39982 4.07700 -0.22301 
0.43460 4.10400 -0.22449 
0.49058 4.21700 -0.23067 
0.64951 4.39900 -0.24063 
0.81379 3.87000 -0.21169 
1.24037 3.64000 -0.19911 
1.30535 3.43600 -0.18795 
1.36925 3.28800 -0.17985 
1.37165 3.25300 -0.17794 
1.45733 3.04200 -0.16640 
1.59230 3.01200 -0.16476 
1.66956 2.95400 -0.16158 
1.69757 2.87100 -0.15704 
1.69608 2.83100 -0.15486 
1.96043 2.99800 -0.16399 
2.91182 3.77500 -0.20649 
3.04095 3.75200 -0.20523 
-1.40099 1.79300 -0.10276 
-1.40017 1.80400 -0.10339 
-1.73637 2.63600 -0.15107 
-1.68213 2.67000 -0.15302 
-1.53312 2.79200 -0.16001 
-1.44673 2.78000 -0.15932 
-1.37723 2.83100 -0.16224 
-1.33903 2.84400 -0.16299 
-1.30833 2.85800 -0.16379 
-0.74672 1.94100 -0.11124 
-0.72112 1.95400 -0.11198 
-0.68451 1.96600 -0.11267 
-0.46791 1.89900 -0.10883 
-0.44095 1.91100 -0.10952 
-0.43596 1.91100 -0.10952 
-0.28995 1.93500 -0.11089 
-0.45044 3.64000 -0.20861 
-0.26855 3.89500 -0.22322 
-0.24822 3.89500 -0.22322 
-0.01417 3.82200 -0.21904 
0.11921 3.94500 -0.22609 
0.13036 3.97100 -0.22758 
0.20423 3.99700 -0.22907 
0.22509 3.99700 -0.22907 
0.23552 3.99700 -0.22907 
