ply
format ascii 1.0
comment pointcloud saved from Realsense Viewer
element vertex 1806
property float32 x
property float32 y
property float32 z
end_header
-0.89797 1.83600 -0.56039 
-0.87008 1.84800 -0.56405 
-0.86760 1.85300 -0.56558 
-0.70062 1.85900 -0.56741 
-0.54215 1.84800 -0.56405 
-0.55441 2.78000 -0.84852 
-0.50389 2.74200 -0.83692 
-0.46096 2.74200 -0.83692 
-0.43833 2.78000 -0.84852 
-0.41874 2.84400 -0.86805 
-0.27573 2.98300 -0.91048 
-0.17710 3.02700 -0.92391 
-0.04369 3.08900 -0.94283 
0.14538 3.16900 -0.96725 
0.27368 3.21900 -0.98251 
0.40825 3.28800 -1.00357 
0.46728 3.34200 -1.02005 
0.59909 2.78000 -0.84852 
0.71679 2.84400 -0.86805 
0.83284 2.62500 -0.80121 
1.16456 3.15200 -0.96206 
1.17922 3.10400 -0.94741 
1.27636 3.02700 -0.92391 
1.40913 3.05800 -0.93337 
1.46278 2.76700 -0.84455 
1.53852 2.60200 -0.79419 
1.55230 2.59100 -0.79083 
1.70007 2.55900 -0.78106 
1.70675 2.55900 -0.78106 
1.87505 2.63600 -0.80456 
1.86444 2.60200 -0.79419 
1.78892 2.34300 -0.71513 
1.78124 2.32500 -0.70964 
1.84523 2.19200 -0.66905 
-1.67780 2.16900 -0.66769 
-1.62686 2.16900 -0.66769 
-1.58682 2.18400 -0.67230 
-1.58112 2.18400 -0.67230 
-1.54687 2.19200 -0.67477 
-1.54087 2.20800 -0.67969 
-1.45062 2.26500 -0.69724 
-1.38784 2.24000 -0.68954 
-1.29600 2.14600 -0.66061 
-1.05471 1.80900 -0.55687 
-1.06807 2.03200 -0.62551 
-0.95545 1.86400 -0.57380 
-0.78772 1.87000 -0.57564 
-0.72254 1.85300 -0.57041 
-0.70547 1.85900 -0.57226 
-0.59928 1.83100 -0.56364 
-0.58779 1.82500 -0.56179 
-0.57827 1.82500 -0.56179 
-0.49674 2.74200 -0.84407 
-0.41874 2.84400 -0.87547 
-0.41334 2.85800 -0.87978 
-0.38887 2.89800 -0.89209 
-0.25483 3.01200 -0.92719 
-0.13629 2.99800 -0.92288 
-0.01150 3.10400 -0.95551 
0.15365 3.16900 -0.97552 
0.17019 3.16900 -0.97552 
0.19598 3.18500 -0.98044 
0.33072 3.20200 -0.98568 
0.45609 3.32400 -1.02323 
0.60355 3.32400 -1.02323 
0.60891 3.30600 -1.01769 
0.62980 3.23600 -0.99614 
0.61878 2.64700 -0.81483 
1.13166 3.15200 -0.97028 
1.16683 3.13600 -0.96536 
1.25751 3.05800 -0.94135 
1.40803 3.07300 -0.94596 
1.44105 3.05800 -0.94135 
1.68709 2.58000 -0.79420 
1.69383 2.58000 -0.79420 
1.70001 2.56900 -0.79082 
1.70675 2.55900 -0.78774 
1.74024 2.56900 -0.79082 
1.81927 2.62500 -0.80806 
1.86129 2.63600 -0.81144 
1.86817 2.63600 -0.81144 
1.86332 2.59100 -0.79759 
1.83409 2.49600 -0.76835 
1.78039 2.31600 -0.71294 
1.81024 2.24800 -0.69200 
-1.46835 2.26500 -0.70315 
-1.45138 2.25700 -0.70066 
-1.44549 2.25700 -0.70066 
-1.29250 2.13100 -0.66155 
-0.74913 1.85900 -0.57711 
-0.72737 1.85300 -0.57525 
-0.67060 1.87000 -0.58052 
-0.61050 1.83600 -0.56997 
-0.57827 1.82500 -0.56655 
-0.56398 1.82500 -0.56655 
-0.55000 1.84200 -0.57183 
-0.50069 1.82000 -0.56500 
-0.41897 1.64800 -0.51161 
-0.39547 1.60500 -0.49826 
-0.59068 2.78000 -0.86303 
-0.27573 2.98300 -0.92604 
-0.25483 3.01200 -0.93505 
-0.20180 3.04200 -0.94436 
-0.09021 3.02700 -0.93970 
-0.08231 3.02700 -0.93970 
0.00470 3.10400 -0.96361 
0.33072 3.20200 -0.99403 
0.34928 3.21900 -0.99931 
0.40825 3.28800 -1.02073 
0.48734 3.36000 -1.04308 
0.51364 3.36000 -1.04308 
0.52536 3.37900 -1.04898 
0.57502 3.36000 -1.04308 
0.59810 3.34200 -1.03749 
0.62537 3.08900 -0.95895 
0.59909 2.78000 -0.86303 
0.59897 2.68200 -0.83260 
1.27170 3.07300 -0.95398 
1.44284 2.87100 -0.89128 
1.49309 2.73000 -0.84750 
1.54531 2.60200 -0.80777 
1.62000 2.60200 -0.80777 
1.70001 2.56900 -0.79752 
1.85541 2.58000 -0.80094 
1.81483 2.23200 -0.69290 
-1.68912 2.16900 -0.67901 
-1.53489 2.21600 -0.69372 
-1.53432 2.23200 -0.69873 
-1.48608 2.26500 -0.70906 
-1.44559 2.24800 -0.70374 
-1.28466 2.10900 -0.66022 
-1.15531 2.09400 -0.65553 
-1.20382 2.22400 -0.69622 
-0.74913 1.85900 -0.58196 
-0.68524 1.87000 -0.58540 
-0.67548 1.87000 -0.58540 
-0.53251 1.84800 -0.57852 
-0.55441 2.78000 -0.87028 
-0.45596 2.75500 -0.86245 
-0.43495 2.80500 -0.87811 
-0.40773 2.87100 -0.89877 
0.11113 3.13600 -0.98173 
0.13568 3.13600 -0.98173 
0.28208 3.21900 -1.00771 
0.31401 3.20200 -1.00239 
0.46728 3.34200 -1.04621 
0.56625 3.36000 -1.05185 
0.62617 3.30600 -1.03494 
0.80529 2.64700 -0.82864 
1.32372 3.12000 -0.97672 
1.38311 3.08900 -0.96701 
1.43535 2.87100 -0.89877 
1.43669 2.84400 -0.89032 
1.51446 2.73000 -0.85463 
1.84667 2.62500 -0.82176 
1.78731 2.32500 -0.72784 
1.82413 2.20800 -0.69122 
-1.68346 2.16900 -0.68467 
-1.62086 2.16100 -0.68214 
-1.39682 2.20800 -0.69698 
-1.38028 2.20000 -0.69445 
-1.09143 1.83100 -0.57797 
-0.99291 1.70300 -0.53757 
-0.97958 1.70300 -0.53757 
-1.14674 2.05900 -0.64994 
-1.23034 2.27300 -0.71749 
-0.83431 1.87600 -0.59218 
-0.72196 1.86400 -0.58839 
-0.67548 1.87000 -0.59028 
-0.64240 1.85900 -0.58681 
-0.44157 1.68500 -0.53189 
-0.56891 2.78000 -0.87753 
-0.54715 2.78000 -0.87753 
-0.48243 2.74200 -0.86554 
-0.34847 2.94000 -0.92804 
-0.27573 2.98300 -0.94161 
-0.20080 3.02700 -0.95550 
-0.12064 2.99800 -0.94635 
0.00470 3.10400 -0.97981 
0.03710 3.10400 -0.97981 
0.04543 3.12000 -0.98486 
0.07840 3.13600 -0.98991 
0.15283 3.15200 -0.99496 
0.35957 3.23600 -1.02147 
0.36995 3.25300 -1.02684 
0.52536 3.37900 -1.06661 
0.67380 2.73000 -0.86175 
0.80272 3.08900 -0.97507 
0.84879 3.20200 -1.01074 
0.80585 2.84400 -0.89774 
0.97240 2.89800 -0.91478 
1.21162 3.10400 -0.97981 
1.43091 2.81800 -0.88953 
1.55889 2.60200 -0.82135 
1.55923 2.56900 -0.81093 
1.59945 2.56900 -0.81093 
1.68004 2.55900 -0.80777 
1.76115 2.58000 -0.81440 
1.82324 2.51700 -0.79452 
1.79626 2.29000 -0.72286 
1.80380 2.24000 -0.70708 
-1.60988 2.16900 -0.69033 
-1.38670 2.19200 -0.69765 
-1.04171 1.83600 -0.58434 
-1.21953 2.20000 -0.70019 
-0.92593 1.82500 -0.58084 
-0.84410 1.87600 -0.59707 
-0.71710 1.86400 -0.59325 
-0.71452 1.87000 -0.59516 
-0.63755 1.85900 -0.59166 
-0.62582 1.85300 -0.58975 
-0.58779 1.82500 -0.58084 
-0.57193 1.82000 -0.57925 
-0.39128 1.58800 -0.50541 
-0.59068 2.78000 -0.88479 
-0.53737 2.76700 -0.88065 
-0.53015 2.76700 -0.88065 
-0.41874 2.84400 -0.90516 
-0.23125 3.01200 -0.95863 
-0.19290 3.02700 -0.96340 
-0.15265 3.01200 -0.95863 
-0.14411 2.99800 -0.95417 
-0.12847 2.99800 -0.95417 
-0.08231 3.02700 -0.96340 
0.02900 3.10400 -0.98791 
0.40825 3.28800 -1.04647 
0.55182 3.37900 -1.07543 
0.58709 3.37900 -1.07543 
0.60546 2.84400 -0.90516 
0.59806 2.74200 -0.87269 
0.67380 2.73000 -0.86888 
0.85585 3.13600 -0.99809 
1.26503 3.13600 -0.99809 
1.33623 3.16900 -1.00860 
1.41536 3.08900 -0.98313 
1.42616 2.89800 -0.92234 
1.42668 2.76700 -0.88065 
1.47943 2.71800 -0.86506 
1.49362 2.71800 -0.86506 
1.55906 2.59100 -0.82464 
1.67881 2.52700 -0.80427 
1.81096 2.61300 -0.83164 
1.81778 2.61300 -0.83164 
1.79852 2.31600 -0.73711 
1.84718 2.20800 -0.70274 
-1.66543 2.15300 -0.69085 
-1.56972 2.18400 -0.70080 
-1.55802 2.21600 -0.71107 
-1.53463 2.22400 -0.71364 
-1.53432 2.23200 -0.71620 
-1.52813 2.24000 -0.71877 
-1.49261 2.25700 -0.72422 
-1.44630 2.24000 -0.71877 
-1.02989 1.97900 -0.63502 
-0.90384 1.84800 -0.59298 
-0.82411 1.86400 -0.59812 
-0.76574 1.86400 -0.59812 
-0.67276 1.87600 -0.60197 
-0.55445 1.82500 -0.58560 
-0.52444 1.82000 -0.58400 
-0.57137 2.79200 -0.89589 
-0.53990 2.78000 -0.89204 
-0.50127 2.76700 -0.88787 
-0.48472 2.75500 -0.88402 
-0.34681 2.92600 -0.93889 
-0.01145 3.08900 -0.99120 
0.02100 3.12000 -1.00114 
0.14460 3.15200 -1.01141 
0.25823 3.23600 -1.03836 
0.30046 3.23600 -1.03836 
0.30728 3.21900 -1.03291 
0.34268 3.23600 -1.03836 
0.36146 3.25300 -1.04382 
0.59806 2.74200 -0.87985 
1.23415 3.12000 -1.00114 
1.40603 3.10400 -0.99601 
1.42927 2.84400 -0.91258 
1.55690 2.74200 -0.87985 
1.56405 2.74200 -0.87985 
1.57121 2.74200 -0.87985 
1.58552 2.74200 -0.87985 
1.68531 2.51700 -0.80765 
1.80411 2.52700 -0.81086 
1.80354 2.51700 -0.80765 
1.78972 2.42700 -0.77877 
1.79851 2.24800 -0.72134 
1.79154 2.23200 -0.71620 
1.79947 2.19200 -0.70337 
-1.67121 2.14600 -0.69421 
-1.62610 2.15300 -0.69647 
-1.53463 2.22400 -0.71944 
-1.38226 2.17600 -0.70391 
-1.26269 2.03800 -0.65927 
-1.22467 1.98500 -0.64213 
-1.26147 2.26500 -0.73270 
-0.86580 1.87000 -0.60492 
-0.45410 1.69900 -0.54961 
-0.59323 2.79200 -0.90318 
-0.10500 2.99800 -0.96982 
0.00472 3.12000 -1.00928 
0.07880 3.15200 -1.01964 
0.10403 3.16900 -1.02514 
0.33424 3.23600 -1.04681 
0.51655 3.37900 -1.09307 
0.77125 2.99800 -0.96982 
0.80216 2.83100 -0.91580 
0.82601 2.64700 -0.85627 
0.83983 2.64700 -0.85627 
1.45242 2.98300 -0.96497 
1.43487 2.75500 -0.89121 
1.57291 2.53700 -0.82069 
1.63868 2.49600 -0.80743 
1.66455 2.48600 -0.80419 
1.78135 2.58000 -0.83460 
1.80785 2.28200 -0.73820 
-1.66498 2.13800 -0.69720 
-1.53398 2.24000 -0.73046 
-1.28041 2.29900 -0.74970 
-1.04706 2.01200 -0.65611 
-0.94497 1.85300 -0.60426 
-0.88694 1.85300 -0.60426 
-0.81438 1.86400 -0.60785 
-0.76088 1.87600 -0.61176 
-0.70132 1.88700 -0.61535 
-0.59133 1.83600 -0.59872 
-0.45961 1.70300 -0.55535 
-0.38516 1.59700 -0.52078 
-0.62402 2.76700 -0.90231 
-0.56408 2.79200 -0.91047 
-0.55680 2.79200 -0.91047 
-0.47961 2.76700 -0.90231 
-0.38887 2.89800 -0.94503 
-0.32546 2.94000 -0.95873 
-0.15194 2.99800 -0.97764 
-0.01961 3.10400 -1.01221 
0.03748 3.13600 -1.02264 
0.08749 3.16900 -1.03340 
0.23412 3.25300 -1.06080 
0.32750 3.25300 -1.06080 
0.45856 3.34200 -1.08982 
0.64495 3.27000 -1.06634 
0.61948 2.98300 -0.97275 
0.60165 2.69400 -0.87851 
0.84005 3.16900 -1.03340 
0.79835 2.67000 -0.87068 
1.19956 3.13600 -1.02264 
1.20775 3.13600 -1.02264 
1.36316 3.25300 -1.06080 
1.38863 3.25300 -1.06080 
1.39712 3.25300 -1.06080 
1.40416 3.13600 -1.02264 
1.45014 3.02700 -0.98710 
1.45335 2.96900 -0.96819 
1.44682 2.94000 -0.95873 
1.44397 2.71800 -0.88634 
1.75261 2.54800 -0.83090 
1.76685 2.55900 -0.83449 
1.77921 2.54800 -0.83090 
1.78198 2.49600 -0.81394 
1.81038 2.30800 -0.75263 
1.80932 2.29900 -0.74970 
-1.67614 2.13800 -0.70278 
-1.60988 2.16900 -0.71297 
-1.40899 2.20000 -0.72316 
-1.26823 2.34300 -0.77016 
-1.16212 2.20000 -0.72316 
-0.89178 1.85300 -0.60910 
-0.87068 1.87000 -0.61468 
-0.77556 1.87600 -0.61666 
-0.72825 1.89300 -0.62224 
-0.69367 1.89300 -0.62224 
-0.62785 1.85900 -0.61107 
-0.59327 1.84200 -0.60548 
-0.58654 1.83600 -0.60351 
-0.44093 1.66600 -0.54763 
-0.42523 1.63900 -0.53875 
-0.58135 2.80500 -0.92203 
-0.42616 2.84400 -0.93485 
-0.42080 2.85800 -0.93945 
-0.38131 2.89800 -0.95260 
-0.22339 3.01200 -0.99007 
-0.19105 2.99800 -0.98547 
0.02111 3.13600 -1.03083 
0.12057 3.16900 -1.04167 
0.13637 3.15200 -1.03609 
0.25242 3.27000 -1.07487 
0.38251 3.28800 -1.08079 
0.43240 3.34200 -1.09854 
0.46980 3.36000 -1.10446 
0.51043 3.39700 -1.11662 
0.60472 3.37900 -1.11070 
0.71679 2.84400 -0.93485 
0.81770 2.94000 -0.96640 
0.80894 2.65900 -0.87403 
0.90678 2.76700 -0.90953 
1.42223 3.10400 -1.02031 
1.45972 2.99800 -0.98547 
1.43091 2.81800 -0.92630 
1.43688 2.71800 -0.89343 
1.49309 2.73000 -0.89737 
1.59267 2.74200 -0.90132 
1.59982 2.68200 -0.88159 
1.58593 2.61300 -0.85891 
1.59968 2.48600 -0.81717 
1.64472 2.46600 -0.81059 
1.76056 2.46600 -0.81059 
1.76942 2.40800 -0.79153 
1.76793 2.38900 -0.78528 
1.81949 2.34300 -0.77016 
1.81665 2.31600 -0.76129 
1.78307 2.20000 -0.72316 
1.80430 2.18400 -0.71790 
-1.64841 2.13100 -0.70604 
-1.62081 2.14600 -0.71101 
-1.59822 2.18400 -0.72360 
-1.40386 2.19200 -0.72625 
-1.29519 2.07300 -0.68682 
-1.23121 2.30800 -0.76468 
-1.17057 2.21600 -0.73420 
-1.13167 2.15300 -0.71333 
-0.84140 1.87000 -0.61956 
-0.71569 1.89900 -0.62917 
-0.63440 1.86400 -0.61758 
-0.62954 1.86400 -0.61758 
-0.48517 1.74700 -0.57881 
-0.41993 1.63500 -0.54170 
-0.38926 1.61400 -0.53475 
-0.38084 1.61400 -0.53475 
-0.12181 3.02700 -1.00290 
-0.08316 3.05800 -1.01317 
0.09576 3.16900 -1.04994 
0.22564 3.25300 -1.07778 
0.62380 3.04200 -1.00787 
0.66082 2.70600 -0.89655 
0.83496 3.08900 -1.02344 
0.80235 2.85800 -0.94691 
0.78793 2.70600 -0.89655 
0.91104 2.78000 -0.92106 
1.21831 3.18500 -1.05525 
1.39826 3.23600 -1.07214 
1.40772 3.21900 -1.06651 
1.41066 3.16900 -1.04994 
1.42768 2.75500 -0.91278 
1.57121 2.74200 -0.90847 
1.59322 2.62500 -0.86971 
1.62542 2.46600 -0.81703 
1.74442 2.51700 -0.83393 
1.75546 2.38900 -0.79152 
1.82016 2.29000 -0.75872 
1.79736 2.23200 -0.73950 
1.78803 2.19200 -0.72625 
-1.64841 2.13100 -0.71160 
-1.63729 2.13100 -0.71160 
-1.60362 2.15300 -0.71895 
-1.59830 2.16100 -0.72162 
-1.43597 2.22400 -0.74265 
-1.03935 1.69900 -0.56734 
-0.97955 1.62200 -0.54163 
-0.96208 1.61400 -0.53896 
-0.94758 1.61800 -0.54029 
-1.29990 2.33400 -0.77939 
-1.29151 2.35200 -0.78540 
-1.06788 2.05200 -0.68522 
-0.97954 1.91100 -0.63813 
-0.79025 1.87600 -0.62645 
-0.77271 1.89300 -0.63212 
-0.74047 1.89900 -0.63413 
-0.64133 1.87000 -0.62444 
-0.53716 1.83100 -0.61142 
-0.45036 1.68500 -0.56267 
-0.38713 2.88500 -0.96338 
-0.25237 2.98300 -0.99610 
-0.22235 2.99800 -1.00111 
-0.16051 3.01200 -1.00579 
0.00474 3.13600 -1.04719 
0.02122 3.15200 -1.05254 
0.08749 3.16900 -1.05821 
0.27802 3.27000 -1.09194 
0.51043 3.39700 -1.13435 
0.52816 3.39700 -1.13435 
0.62763 3.36000 -1.12199 
0.93944 2.84400 -0.94969 
1.24048 3.13600 -1.04719 
1.34052 3.21900 -1.07491 
1.39193 3.20200 -1.06923 
1.58610 2.59100 -0.86521 
1.60616 2.48600 -0.83014 
1.69699 2.48600 -0.83014 
1.73819 2.41700 -0.80710 
1.81802 2.26500 -0.75634 
1.79532 2.20800 -0.73731 
1.78530 2.16100 -0.72162 
-1.56345 2.23200 -0.75115 
-1.45214 2.24000 -0.75384 
-0.95490 1.60900 -0.54149 
-0.91596 1.85300 -0.62360 
-0.89178 1.85300 -0.62360 
-0.73784 1.90500 -0.64110 
-0.67885 1.89300 -0.63706 
-0.55508 1.85900 -0.62562 
-0.52444 1.82000 -0.61250 
-0.42224 1.64400 -0.55327 
-0.40813 1.63900 -0.55158 
-0.48186 2.78000 -0.93557 
-0.46735 2.78000 -0.93557 
-0.06788 3.08900 -1.03956 
-0.03599 3.12000 -1.04999 
0.36735 3.30600 -1.11259 
0.60868 2.69400 -0.90663 
0.78433 2.71800 -0.91471 
0.87267 2.70600 -0.91067 
0.89143 2.74200 -0.92278 
1.13891 3.21900 -1.08331 
1.16181 3.23600 -1.08903 
1.17870 3.23600 -1.08903 
1.49309 2.73000 -0.91875 
1.57145 2.73000 -0.91875 
1.59291 2.69400 -0.90663 
1.59266 2.67000 -0.89855 
1.65158 2.48600 -0.83663 
1.73419 2.45600 -0.82653 
1.74060 2.45600 -0.82653 
1.83651 2.38900 -0.80399 
1.83875 2.35200 -0.79153 
1.84489 2.35200 -0.79153 
1.83686 2.33400 -0.78548 
-1.60948 2.13100 -0.72272 
-1.60392 2.13100 -0.72272 
-1.59281 2.14600 -0.72781 
-1.50912 2.27300 -0.77088 
-0.96208 1.61400 -0.54738 
-0.95839 1.62200 -0.55010 
-1.10454 1.92900 -0.65421 
-1.11455 2.13100 -0.72272 
-1.07880 2.07300 -0.70305 
-0.88982 1.85900 -0.63047 
-0.86858 1.87600 -0.63624 
-0.86369 1.87600 -0.63624 
-0.85879 1.87600 -0.63624 
-0.84410 1.87600 -0.63624 
-0.73019 1.91100 -0.64811 
-0.65035 1.88200 -0.63827 
-0.61597 1.88200 -0.63827 
-0.41897 1.64800 -0.55891 
-0.40867 1.71300 -0.58096 
-0.54715 2.78000 -0.94283 
-0.51813 2.78000 -0.94283 
-0.44022 2.79200 -0.94690 
-0.40389 2.84400 -0.96453 
-0.28993 2.96900 -1.00692 
-0.09158 3.07300 -1.04220 
-0.01991 3.15200 -1.06899 
0.04590 3.15200 -1.06899 
0.11993 3.15200 -1.06899 
0.14460 3.15200 -1.06899 
0.42837 3.37900 -1.14597 
0.43718 3.37900 -1.14597 
0.60472 3.37900 -1.14597 
0.68392 2.74200 -0.92994 
0.77167 2.94000 -0.99709 
1.18091 3.21900 -1.09171 
1.52159 2.73000 -0.92587 
1.57885 2.69400 -0.91366 
1.72294 2.48600 -0.84312 
1.74701 2.45600 -0.83294 
1.76314 2.40800 -0.81666 
1.78827 2.40800 -0.81666 
-1.53973 2.25700 -0.77134 
-1.30394 2.08700 -0.71324 
-0.97108 1.62200 -0.55433 
-1.11886 1.95400 -0.66779 
-1.24028 2.32500 -0.79458 
-1.19223 2.25700 -0.77134 
-0.97455 1.91100 -0.65310 
-0.96043 1.89300 -0.64694 
-0.86369 1.87600 -0.64113 
-0.77271 1.89300 -0.64694 
-0.73019 1.91100 -0.65310 
-0.68316 1.90500 -0.65105 
-0.41467 1.64800 -0.56321 
-0.61568 2.73000 -0.93299 
-0.46208 2.79200 -0.95418 
-0.17004 3.04200 -1.03962 
-0.14700 3.05800 -1.04509 
-0.09206 3.08900 -1.05568 
-0.01168 3.15200 -1.07721 
0.51043 3.39700 -1.16094 
0.68093 2.73000 -0.93299 
1.22662 3.18500 -1.08849 
1.34000 3.12000 -1.06628 
1.34814 3.12000 -1.06628 
1.44145 3.04200 -1.03962 
1.56470 2.70600 -0.92479 
1.56479 2.67000 -0.91249 
1.59323 2.55900 -0.87455 
1.63925 2.52700 -0.86362 
1.65244 2.52700 -0.86362 
1.85811 2.36100 -0.80689 
1.84224 2.27300 -0.77681 
-1.64776 2.12300 -0.73109 
-1.57548 2.20000 -0.75760 
-1.32758 2.11600 -0.72868 
-1.05216 2.03200 -0.69975 
-0.92378 1.85900 -0.64018 
-0.79981 1.88700 -0.64982 
-0.74515 1.91100 -0.65808 
-0.73748 1.91700 -0.66015 
-0.56891 2.78000 -0.95734 
-0.51571 2.76700 -0.95286 
-0.44751 2.79200 -0.96147 
-0.30244 2.94000 -1.01243 
-0.17004 3.04200 -1.04756 
-0.11624 3.08900 -1.06374 
0.09525 3.15200 -1.08544 
0.25110 3.25300 -1.12022 
0.38879 3.34200 -1.15087 
0.61886 3.36000 -1.15707 
1.32669 3.08900 -1.06374 
1.46493 2.88500 -0.99349 
1.47818 2.74200 -0.94425 
1.56433 2.73000 -0.94012 
1.56582 2.62500 -0.90396 
1.57319 2.55900 -0.88123 
1.71815 2.51700 -0.86677 
1.79605 2.42700 -0.83578 
-1.59790 2.12300 -0.73663 
-1.57548 2.20000 -0.76335 
-1.56365 2.22400 -0.77167 
-1.52154 2.26500 -0.78590 
-1.50912 2.27300 -0.78867 
-1.36709 2.16100 -0.74981 
-1.24370 2.19200 -0.76057 
-1.05527 2.03800 -0.70714 
-0.91892 1.85900 -0.64503 
-0.86154 1.88200 -0.65301 
-0.84680 1.88200 -0.65301 
-0.84189 1.88200 -0.65301 
-0.77231 1.92900 -0.66932 
-0.75388 1.97300 -0.68458 
-0.74584 1.97900 -0.68666 
-0.63022 1.94100 -0.67348 
-0.58741 1.91700 -0.66515 
-0.47196 1.73200 -0.60096 
-0.42686 1.66200 -0.57667 
-0.14772 3.07300 -1.06625 
-0.00346 3.15200 -1.09366 
0.02944 3.15200 -1.09366 
0.07057 3.15200 -1.09366 
0.22564 3.25300 -1.12871 
0.30362 3.27000 -1.13461 
0.33103 3.28800 -1.14085 
0.35872 3.30600 -1.14710 
0.44838 3.39700 -1.17867 
0.57827 3.37900 -1.17243 
0.61657 2.96900 -1.03017 
0.62696 2.68200 -0.93059 
0.63809 2.67000 -0.92642 
0.73624 2.80500 -0.97326 
0.77344 2.75500 -0.95592 
0.78087 2.70600 -0.93891 
1.03407 3.05800 -1.06105 
1.19139 3.20200 -1.11101 
1.31444 3.04200 -1.05550 
1.44224 3.02700 -1.05029 
1.45804 3.02700 -1.05029 
1.47246 2.88500 -1.00102 
1.48444 2.76700 -0.96008 
1.49888 2.76700 -0.96008 
1.55776 2.69400 -0.93475 
1.77343 2.46600 -0.85564 
1.80373 2.44600 -0.84870 
1.76499 2.12300 -0.73663 
-1.59245 2.13800 -0.74741 
-1.58677 2.15300 -0.75266 
-1.53398 2.24000 -0.78307 
-1.53359 2.24800 -0.78587 
-0.96609 1.65700 -0.57926 
-1.30599 2.33400 -0.81593 
-1.29990 2.33400 -0.81593 
-0.90437 1.85900 -0.64988 
-0.76538 2.04500 -0.71490 
-0.75987 2.05900 -0.71979 
-0.69158 2.03200 -0.71036 
-0.58240 1.91700 -0.67015 
-0.56702 1.89900 -0.66386 
-0.41485 1.66600 -0.58241 
-0.40639 1.68500 -0.58905 
-0.40986 1.71800 -0.60059 
-0.46555 1.97300 -0.68973 
-0.60407 2.74200 -0.95856 
-0.19386 3.04200 -1.06344 
-0.10871 3.10400 -1.08511 
0.09525 3.15200 -1.10189 
0.31215 3.27000 -1.14314 
0.59591 3.37900 -1.18125 
0.63330 3.16900 -1.10783 
0.69518 2.73000 -0.95437 
0.74011 2.79200 -0.97604 
0.76595 2.78000 -0.97185 
1.01568 3.02700 -1.05819 
1.25155 3.18500 -1.11343 
1.35900 2.98300 -1.04281 
1.39713 2.99800 -1.04805 
1.53494 2.78000 -0.97185 
1.53897 2.58000 -0.90193 
1.67363 2.58000 -0.90193 
1.68753 2.59100 -0.90577 
1.75811 2.63600 -0.92151 
1.77187 2.63600 -0.92151 
1.75166 2.53700 -0.88690 
1.78630 2.46600 -0.86208 
1.76986 2.10900 -0.73727 
-1.47493 2.24800 -0.79173 
-1.44695 2.23200 -0.78610 
-0.97768 1.66200 -0.58535 
-1.30599 2.33400 -0.82202 
-1.25727 2.33400 -0.82202 
-0.97761 1.91700 -0.67516 
-0.96347 1.89900 -0.66882 
-0.89508 1.87000 -0.65860 
-0.81832 1.99200 -0.70157 
-0.48336 1.75700 -0.61881 
-0.42354 1.66600 -0.58676 
-0.57463 2.54800 -0.89739 
-0.57545 2.74200 -0.96572 
-0.48394 2.79200 -0.98333 
-0.47665 2.79200 -0.98333 
-0.44227 2.80500 -0.98790 
-0.43495 2.80500 -0.98790 
-0.42031 2.80500 -0.98790 
-0.35528 2.87100 -1.01115 
-0.34948 2.88500 -1.01608 
-0.32996 2.91200 -1.02559 
-0.31011 2.94000 -1.03545 
-0.22450 3.02700 -1.06609 
-0.18690 3.05800 -1.07701 
-0.00348 3.16900 -1.11610 
0.04590 3.15200 -1.11012 
0.05412 3.15200 -1.11012 
0.60472 3.37900 -1.19006 
0.78087 2.70600 -0.95304 
0.79506 2.65900 -0.93648 
0.94545 2.88500 -1.01608 
1.02072 3.04200 -1.07137 
1.17467 3.20200 -1.12773 
1.21645 3.20200 -1.12773 
1.36679 2.98300 -1.05059 
1.50483 2.80500 -0.98790 
1.55782 2.68200 -0.94459 
1.63297 2.56900 -0.90479 
1.77153 2.53700 -0.89352 
1.78849 2.49600 -0.87908 
1.84542 2.41700 -0.85125 
1.91132 2.38900 -0.84139 
-1.61504 2.13100 -0.75609 
-1.58687 2.13800 -0.75857 
-1.55826 2.20000 -0.78057 
-1.55240 2.20800 -0.78341 
-1.53489 2.21600 -0.78625 
-1.00478 1.67100 -0.59288 
-1.23916 2.18400 -0.77489 
-1.20068 2.27300 -0.80647 
-0.93599 1.86400 -0.66135 
-0.89707 1.86400 -0.66135 
-0.87151 1.89300 -0.67164 
-0.84254 2.03800 -0.72309 
-0.84009 2.04500 -0.72557 
-0.68302 2.13800 -0.75857 
-0.41834 1.68000 -0.59607 
-0.41435 1.71800 -0.60955 
-0.58718 2.73000 -0.96861 
-0.54683 2.74200 -0.97287 
-0.36678 2.84400 -1.00906 
-0.34350 2.89800 -1.02822 
-0.33154 2.92600 -1.03816 
-0.27711 2.99800 -1.06370 
0.00479 3.16900 -1.12437 
0.03767 3.15200 -1.11834 
0.08702 3.15200 -1.11834 
0.32921 3.27000 -1.16021 
0.36535 3.28800 -1.16659 
0.42368 3.34200 -1.18575 
0.56063 3.37900 -1.19888 
0.60472 3.37900 -1.19888 
0.62117 2.95400 -1.04809 
0.61696 2.89800 -1.02822 
0.61681 2.73000 -0.96861 
0.62551 2.70600 -0.96010 
0.76959 2.76700 -0.98174 
0.84393 2.68200 -0.95158 
1.13289 3.20200 -1.13608 
1.27649 3.18500 -1.13005 
1.30614 2.96900 -1.05341 
1.39793 2.98300 -1.05838 
1.48974 2.81800 -0.99984 
1.60039 2.85800 -1.01403 
1.56479 2.69400 -0.95584 
1.54033 2.52700 -0.89659 
1.61326 2.55900 -0.90794 
1.79139 2.53700 -0.90014 
1.80874 2.50600 -0.88914 
1.84542 2.41700 -0.85756 
1.87391 2.38900 -0.84763 
-1.50426 2.24800 -0.80347 
-1.46968 2.24000 -0.80061 
-1.05163 1.82000 -0.65049 
-1.23548 2.31600 -0.82777 
-0.94691 1.87600 -0.67051 
-0.86913 2.03800 -0.72841 
-0.87076 2.08000 -0.74342 
-0.84136 2.24800 -0.80347 
-0.83295 2.25700 -0.80668 
-0.82706 2.25700 -0.80668 
-0.74484 2.24000 -0.80061 
-0.73899 2.24000 -0.80061 
-0.55156 2.73000 -0.97574 
-0.34948 2.88500 -1.03114 
-0.06104 3.15200 -1.12657 
0.07922 3.16900 -1.13264 
0.08749 3.16900 -1.13264 
0.22446 3.23600 -1.15659 
0.28506 3.25300 -1.16267 
0.32921 3.27000 -1.16874 
0.37393 3.28800 -1.17517 
0.41272 3.32400 -1.18804 
0.44984 3.34200 -1.19448 
0.62977 2.69400 -0.96287 
0.79838 2.64700 -0.94607 
0.84771 2.69400 -0.96287 
1.23971 3.21900 -1.15051 
1.29489 3.16900 -1.13264 
1.44560 2.96900 -1.06116 
1.49709 2.81800 -1.00719 
1.54059 2.84400 -1.01648 
1.55564 2.85800 -1.02149 
1.61481 2.84400 -1.01648 
1.60024 2.78000 -0.99361 
1.54486 2.63600 -0.94214 
1.51989 2.54800 -0.91069 
1.70282 2.62500 -0.93821 
1.73091 2.64700 -0.94607 
1.77921 2.54800 -0.91069 
1.84295 2.51700 -0.89961 
1.83651 2.38900 -0.85386 
1.81914 2.16100 -0.77237 
-1.65419 2.15300 -0.77513 
-1.59239 2.15300 -0.77513 
-1.55259 2.19200 -0.78917 
-1.41855 2.22400 -0.80069 
-1.40767 2.21600 -0.79781 
-1.33520 2.14600 -0.77261 
-1.00238 1.68900 -0.60808 
-1.09232 1.89900 -0.68368 
-1.29241 2.29900 -0.82769 
-1.03295 2.00500 -0.72185 
-0.91653 1.86400 -0.67108 
-0.88829 2.24800 -0.80933 
-0.86681 2.31600 -0.83381 
-0.83411 2.34300 -0.84353 
-0.71963 2.29000 -0.82445 
-0.41958 1.68500 -0.60664 
-0.57751 2.71800 -0.97854 
-0.52785 2.75500 -0.99186 
-0.27189 3.02700 -1.08979 
-0.20286 3.05800 -1.10095 
-0.03656 3.16900 -1.14091 
0.01299 3.15200 -1.13479 
0.06268 3.16900 -1.14091 
0.30204 3.25300 -1.17115 
0.31215 3.27000 -1.17727 
0.42140 3.32400 -1.19672 
0.65203 2.67000 -0.96126 
0.77320 2.78000 -1.00086 
0.77354 2.73000 -0.98286 
0.79838 2.64700 -0.95298 
0.82622 2.67000 -0.96126 
0.83693 2.68200 -0.96558 
0.93792 2.88500 -1.03867 
1.09112 3.20200 -1.15279 
1.24152 3.20200 -1.15279 
1.27649 3.18500 -1.14667 
1.40686 2.96900 -1.06891 
1.75291 2.67000 -0.96126 
1.77376 2.56900 -0.92490 
1.78433 2.52700 -0.90978 
1.85608 2.51700 -0.90618 
1.85065 2.46600 -0.88782 
1.89090 2.37900 -0.85649 
1.83850 2.18400 -0.78629 
1.84420 2.18400 -0.78629 
-1.67162 2.16100 -0.78365 
-1.64295 2.15300 -0.78075 
-1.59239 2.15300 -0.78075 
-1.51754 2.21600 -0.80359 
-1.51722 2.22400 -0.80650 
-1.51060 2.24000 -0.81230 
-1.42436 2.22400 -0.80650 
-1.31101 2.11600 -0.76733 
-1.02257 1.70800 -0.61938 
-1.00029 1.70800 -0.61938 
-1.02562 1.76700 -0.64077 
-0.93599 1.86400 -0.67595 
-0.92626 1.86400 -0.67595 
-0.90814 1.88700 -0.68429 
-0.92500 2.16900 -0.78655 
-0.92456 2.26500 -0.82136 
-0.76608 2.39800 -0.86959 
-0.42255 1.75200 -0.63533 
-0.58202 2.70600 -0.98128 
-0.56332 2.71800 -0.98564 
-0.54443 2.73000 -0.98999 
-0.47592 2.83100 -1.02661 
-0.19583 3.07300 -1.11437 
0.01299 3.15200 -1.14302 
0.29508 3.27000 -1.18581 
0.35677 3.28800 -1.19234 
0.63042 2.99800 -1.08717 
0.76197 2.79200 -1.01247 
0.88928 2.78000 -1.00812 
1.22291 3.21900 -1.16731 
1.31056 3.08900 -1.12017 
1.47555 2.80500 -1.01718 
1.51139 2.83100 -1.02661 
1.57033 2.88500 -1.04619 
1.54527 2.62500 -0.95191 
1.61286 2.56900 -0.93160 
1.76779 2.68200 -0.97258 
1.84395 2.34300 -0.84965 
1.85771 2.20000 -0.79779 
-1.64906 2.16100 -0.78929 
-1.58668 2.17600 -0.79477 
-1.52955 2.20000 -0.80353 
-1.47608 2.23200 -0.81522 
-1.36954 2.19200 -0.80061 
-1.02562 1.76700 -0.64538 
-1.24635 2.32500 -0.84919 
-0.91103 1.89300 -0.69140 
-0.92906 2.01800 -0.73706 
-0.95411 2.26500 -0.82727 
-0.90448 2.48600 -0.90799 
-0.89800 2.48600 -0.90799 
-0.87853 2.48600 -0.90799 
-0.82345 2.49600 -0.91164 
-0.70976 2.39800 -0.87585 
-0.54937 2.43600 -0.88973 
-0.58385 2.68200 -0.97958 
-0.55623 2.71800 -0.99273 
-0.48331 2.83100 -1.03400 
-0.45376 2.83100 -1.03400 
-0.35615 2.94000 -1.07381 
-0.33642 2.96900 -1.08440 
-0.26670 3.05800 -1.11691 
-0.16376 3.07300 -1.12239 
-0.05281 3.15200 -1.15124 
0.09576 3.16900 -1.15745 
0.35677 3.28800 -1.20092 
0.41272 3.32400 -1.21406 
0.62763 3.36000 -1.22721 
0.64171 3.34200 -1.22064 
0.63680 2.69400 -0.98396 
0.77320 2.78000 -1.01537 
0.94215 2.89800 -1.05847 
0.96806 2.95400 -1.07893 
1.07160 3.16900 -1.15745 
1.29489 3.16900 -1.15745 
1.42236 2.96900 -1.08440 
1.44824 2.91200 -1.06358 
1.57319 2.55900 -0.93465 
1.70967 2.62500 -0.95876 
1.76490 2.53700 -0.92662 
1.79566 2.50600 -0.91530 
1.85451 2.50600 -0.91530 
1.83450 2.43600 -0.88973 
-1.60362 2.15300 -0.79199 
-1.58668 2.17600 -0.80045 
-1.55826 2.20000 -0.80927 
-1.55251 2.20000 -0.80927 
-1.52935 2.20800 -0.81222 
-1.43016 2.22400 -0.81810 
-1.31475 2.13100 -0.78389 
-1.15423 2.02500 -0.74490 
-1.29592 2.31600 -0.85195 
-1.26945 2.33400 -0.85857 
-0.92091 1.89300 -0.69634 
-0.98215 2.24800 -0.82693 
-0.98971 2.45600 -0.90344 
-0.95100 2.50600 -0.92184 
-0.87635 2.51700 -0.92588 
-0.80731 2.56900 -0.94501 
-0.79081 2.55900 -0.94133 
-0.41740 1.69400 -0.62314 
-0.57496 2.70600 -0.99541 
-0.42616 2.84400 -1.04617 
-0.37555 2.91200 -1.07118 
-0.23478 3.05800 -1.12489 
-0.06042 3.12000 -1.14770 
0.06268 3.16900 -1.16572 
0.20648 3.21900 -1.18411 
0.27802 3.27000 -1.20288 
0.29508 3.27000 -1.20288 
0.31215 3.27000 -1.20288 
0.34819 3.28800 -1.20950 
0.50539 3.30600 -1.21612 
0.51401 3.30600 -1.21612 
0.59256 3.36000 -1.23598 
0.61886 3.36000 -1.23598 
0.65205 3.30600 -1.21612 
0.68601 2.69400 -0.99099 
0.70943 2.73000 -1.00424 
0.78087 2.70600 -0.99541 
1.13648 3.23600 -1.19037 
1.31262 3.15200 -1.15947 
1.32372 3.12000 -1.14770 
1.42236 2.96900 -1.09215 
1.43830 2.95400 -1.08663 
1.51139 2.83100 -1.04139 
1.75795 2.52700 -0.92956 
1.84060 2.49600 -0.91816 
1.84711 2.49600 -0.91816 
1.84620 2.48600 -0.91448 
1.83674 2.45600 -0.90344 
1.86732 2.33400 -0.85857 
1.86618 2.32500 -0.85526 
1.86931 2.29900 -0.84569 
1.84694 2.25700 -0.83024 
1.84809 2.21600 -0.81516 
-1.68346 2.16900 -0.80353 
-1.66034 2.16100 -0.80057 
-1.64906 2.16100 -0.80057 
-1.60362 2.15300 -0.79760 
-1.55831 2.19200 -0.81205 
-1.49355 2.23200 -0.82687 
-1.45918 2.22400 -0.82391 
-1.41275 2.22400 -0.82391 
-1.39032 2.21600 -0.82094 
-0.95141 2.03200 -0.75278 
-0.86720 2.54800 -0.94394 
-0.43358 2.84400 -1.05359 
-0.39466 2.88500 -1.06878 
-0.12306 3.05800 -1.13287 
0.02111 3.13600 -1.16177 
0.22328 3.21900 -1.19251 
0.29508 3.27000 -1.21141 
0.32921 3.27000 -1.21141 
0.45362 3.30600 -1.22475 
0.56886 3.32400 -1.23141 
0.65086 2.69400 -0.99802 
1.17251 3.21900 -1.19251 
1.24324 3.18500 -1.17992 
1.30142 3.18500 -1.17992 
1.33869 3.13600 -1.16177 
1.44601 2.95400 -1.09434 
1.57866 2.75500 -1.02062 
1.62650 2.58000 -0.95579 
1.80279 2.68200 -0.99358 
1.80120 2.65900 -0.98506 
1.75756 2.51700 -0.93245 
1.76835 2.48600 -0.92097 
1.79732 2.29900 -0.85169 
1.85405 2.32500 -0.86132 
-1.67214 2.16900 -0.80919 
-1.64906 2.16100 -0.80621 
-1.63214 2.16100 -0.80621 
-1.56400 2.20000 -0.82076 
-1.46498 2.22400 -0.82971 
-1.41855 2.22400 -0.82971 
-1.22131 2.00500 -0.74801 
-1.08005 1.80400 -0.67302 
-1.20353 2.13100 -0.79501 
-1.24326 2.30800 -0.86105 
-0.93172 1.90500 -0.71070 
-0.92836 1.92900 -0.71965 
-1.01443 2.21600 -0.82673 
-1.03502 2.42700 -0.90544 
-1.00661 2.46600 -0.91999 
-0.98882 2.48600 -0.92745 
-0.95754 2.50600 -0.93492 
-0.82113 2.61300 -0.97483 
-0.41395 1.68000 -0.62676 
-0.14623 3.04200 -1.13488 
-0.13829 3.04200 -1.13488 
-0.13035 3.04200 -1.13488 
-0.06011 3.10400 -1.15801 
-0.04413 3.12000 -1.16398 
-0.01162 3.13600 -1.16995 
0.17019 3.16900 -1.18226 
0.41911 3.30600 -1.23337 
0.43637 3.30600 -1.23337 
0.48547 3.28800 -1.22666 
0.79506 2.65900 -0.99200 
1.47555 2.80500 -1.04646 
1.57934 2.59100 -0.96663 
1.81939 2.47600 -0.92372 
1.77332 2.29900 -0.85769 
1.78998 2.28200 -0.85135 
-1.59801 2.15300 -0.80884 
-1.57542 2.18400 -0.82049 
-1.56975 2.19200 -0.82349 
-1.31349 2.13800 -0.80321 
-1.19243 1.96600 -0.73859 
-1.02768 1.74700 -0.65631 
-1.26455 2.32500 -0.87346 
-1.20828 2.26500 -0.85092 
-0.92907 1.94100 -0.72920 
-0.93305 1.96000 -0.73633 
-1.02322 2.24800 -0.84453 
-1.05402 2.42700 -0.91178 
-0.40856 1.69400 -0.63640 
-0.52765 2.79200 -1.04890 
-0.38499 2.92600 -1.09924 
-0.32719 3.02700 -1.13718 
0.05412 3.15200 -1.18414 
0.07057 3.15200 -1.18414 
0.08702 3.15200 -1.18414 
0.25959 3.25300 -1.22209 
0.26808 3.25300 -1.22209 
0.29355 3.25300 -1.22209 
0.53696 3.28800 -1.23524 
0.73030 2.75500 -1.03500 
0.79138 2.67000 -1.00307 
0.87790 2.76700 -1.03951 
1.21391 3.15200 -1.18414 
1.25354 3.16900 -1.19053 
1.40913 3.05800 -1.14883 
1.43510 3.01200 -1.13155 
1.44682 2.94000 -1.10450 
1.47503 2.81800 -1.05867 
1.48974 2.81800 -1.05867 
1.57247 2.60200 -0.97752 
1.70056 2.58000 -0.96926 
1.76124 2.47600 -0.93019 
1.76056 2.46600 -0.92643 
1.77517 2.32500 -0.87346 
1.77699 2.27300 -0.85392 
1.83631 2.27300 -0.85392 
-1.64342 2.16100 -0.81749 
-1.60362 2.15300 -0.81446 
-1.54664 2.20800 -0.83526 
-1.53511 2.20800 -0.83526 
-1.48820 2.22400 -0.84132 
-1.45338 2.22400 -0.84132 
-1.24441 2.29900 -0.86969 
-1.14152 2.16100 -0.81749 
-0.93760 1.84800 -0.69908 
-0.95141 2.03200 -0.76869 
-0.93085 2.32500 -0.87952 
-0.40639 1.68500 -0.63742 
-0.40294 1.68900 -0.63893 
-0.53990 2.78000 -1.05165 
-0.49809 2.83100 -1.07094 
-0.48331 2.83100 -1.07094 
-0.45376 2.83100 -1.07094 
-0.19290 3.02700 -1.14508 
-0.13761 3.02700 -1.14508 
-0.08356 3.07300 -1.16249 
-0.06011 3.10400 -1.17421 
-0.00344 3.13600 -1.18632 
0.21488 3.21900 -1.21772 
0.25823 3.23600 -1.22415 
0.57128 3.28800 -1.24382 
0.73030 2.75500 -1.04219 
0.78779 2.73000 -1.03273 
0.93792 2.88500 -1.09137 
0.95889 2.92600 -1.10688 
1.39412 3.16900 -1.19880 
1.44903 3.05800 -1.15681 
1.45641 2.89800 -1.09628 
1.45229 2.83100 -1.07094 
1.51947 2.80500 -1.06110 
1.52871 2.73000 -1.03273 
1.51047 2.63600 -0.99717 
1.53173 2.60200 -0.98431 
1.53877 2.59100 -0.98015 
1.55210 2.60200 -0.98431 
1.61321 2.61300 -0.98847 
1.70729 2.58000 -0.97599 
1.82393 2.26500 -0.85683 
1.84694 2.25700 -0.85380 
1.85561 2.23200 -0.84434 
-1.53529 2.20000 -0.83798 
-1.51206 2.20800 -0.84103 
-1.50019 2.21600 -0.84407 
-1.03357 1.75700 -0.66924 
-1.02676 1.97300 -0.75152 
-0.99883 1.92900 -0.73476 
-0.92509 1.95400 -0.74428 
-0.86358 2.20000 -0.83798 
-0.72267 2.20800 -0.84103 
-0.62933 2.18400 -0.83189 
-0.46237 1.74700 -0.66543 
-0.42481 1.67100 -0.63648 
-0.41050 1.66600 -0.63458 
-0.51547 2.80500 -1.06842 
-0.47592 2.83100 -1.07833 
-0.21767 3.04200 -1.15870 
-0.00344 3.13600 -1.19450 
0.26528 3.21900 -1.22612 
0.33248 3.21900 -1.22612 
0.37844 3.25300 -1.23907 
0.64669 3.23600 -1.23259 
0.64984 3.16900 -1.20707 
0.68503 2.71800 -1.03529 
0.73030 2.75500 -1.04938 
0.89727 2.80500 -1.06842 
1.29311 3.18500 -1.21317 
1.40239 3.16900 -1.20707 
1.43033 3.10400 -1.18231 
1.43954 3.08900 -1.17660 
1.45014 3.02700 -1.15298 
1.45967 2.83100 -1.07833 
1.51396 2.74200 -1.04443 
1.53877 2.59100 -0.98691 
1.57911 2.61300 -0.99529 
1.61377 2.62500 -0.99986 
1.75983 2.45600 -0.93549 
1.80713 2.40800 -0.91721 
1.79098 2.37000 -0.90273 
1.77517 2.32500 -0.88559 
1.86304 2.24800 -0.85626 
-1.59281 2.14600 -0.82301 
-1.56397 2.17600 -0.83452 
-1.44177 2.22400 -0.85293 
-1.41275 2.22400 -0.85293 
-1.06410 1.79300 -0.68763 
-1.00820 1.73700 -0.66616 
-1.07491 2.04500 -0.78428 
-0.91326 1.92900 -0.73979 
-0.96955 2.31600 -0.88821 
-0.91034 2.21600 -0.84986 
-0.89150 2.18400 -0.83758 
-0.75882 2.11600 -0.81151 
-0.40957 1.68000 -0.64430 
-0.52765 2.79200 -1.07076 
-0.46638 2.81800 -1.08073 
-0.06788 3.08900 -1.18466 
0.02122 3.15200 -1.20882 
0.03767 3.15200 -1.20882 
0.05385 3.13600 -1.20269 
0.07021 3.13600 -1.20269 
0.11113 3.13600 -1.20269 
0.20430 3.18500 -1.22148 
0.32237 3.20200 -1.22800 
0.41239 3.25300 -1.24756 
0.46333 3.25300 -1.24756 
0.61291 3.23600 -1.24104 
0.64481 3.18500 -1.22148 
0.65666 2.71800 -1.04238 
0.88202 2.78000 -1.06616 
1.07923 3.07300 -1.17852 
1.22601 3.12000 -1.19655 
1.35960 3.18500 -1.22148 
1.38454 3.18500 -1.22148 
1.45335 2.96900 -1.13864 
1.48653 2.71800 -1.04238 
1.49362 2.71800 -1.04238 
1.59275 2.61300 -1.00211 
1.60633 2.54800 -0.97718 
1.74334 2.50600 -0.96107 
1.75983 2.45600 -0.94190 
-1.67162 2.16100 -0.83440 
-1.65470 2.16100 -0.83440 
-1.60401 2.14600 -0.82861 
-1.56460 2.16900 -0.83749 
-1.36801 2.20800 -0.85255 
-1.01808 1.77800 -0.68652 
-1.16080 2.17600 -0.84020 
-0.91112 1.85300 -0.71548 
-0.81875 2.04500 -0.78961 
-0.77112 2.03200 -0.78459 
-0.63308 1.99800 -0.77147 
-0.49254 1.82500 -0.70467 
-0.39740 1.70300 -0.65756 
-0.60855 2.73000 -1.05410 
-0.58537 2.75500 -1.06376 
-0.51051 2.81800 -1.08808 
-0.26670 3.05800 -1.18075 
-0.17623 3.01200 -1.16299 
-0.09158 3.07300 -1.18654 
-0.02799 3.13600 -1.21087 
0.06986 3.12000 -1.20469 
0.20430 3.18500 -1.22979 
0.22923 3.18500 -1.22979 
0.30403 3.18500 -1.22979 
0.38288 3.21900 -1.24292 
0.47780 3.23600 -1.24948 
0.50889 3.21900 -1.24292 
0.60969 3.21900 -1.24292 
0.63515 2.84400 -1.09812 
0.73348 2.76700 -1.06839 
0.79492 2.73000 -1.05410 
0.79499 2.70600 -1.04484 
1.04728 3.02700 -1.16878 
1.21162 3.10400 -1.19851 
1.33623 3.16900 -1.22361 
1.43600 3.15200 -1.21705 
1.45868 3.01200 -1.16299 
1.46531 2.87100 -1.10855 
1.46638 2.84400 -1.09812 
1.48444 2.76700 -1.06839 
1.62000 2.60200 -1.00468 
1.61265 2.48600 -0.95989 
1.75905 2.44600 -0.94445 
1.82288 2.44600 -0.94445 
1.79716 2.37000 -0.91510 
1.78431 2.29000 -0.88421 
1.81976 2.28200 -0.88112 
1.88590 2.29000 -0.88421 
1.90980 2.29000 -0.88421 
1.91504 2.28200 -0.88112 
-1.59281 2.14600 -0.83421 
-1.56397 2.17600 -0.84587 
-1.48863 2.21600 -0.86142 
-1.17459 2.10900 -0.81983 
-1.24813 2.27300 -0.88358 
-1.20815 2.23200 -0.86764 
-0.89797 1.83600 -0.71371 
-0.89318 1.83600 -0.71371 
-0.71093 1.95400 -0.75958 
-0.69858 1.94800 -0.75724 
-0.63243 1.91700 -0.74519 
-0.50315 2.81800 -1.09544 
-0.42616 2.84400 -1.10554 
-0.01991 3.15200 -1.22527 
0.16842 3.13600 -1.21905 
0.22092 3.18500 -1.23810 
0.36040 3.16900 -1.23188 
0.59494 3.18500 -1.23810 
0.65666 2.71800 -1.05656 
1.27149 3.15200 -1.22527 
1.35277 3.16900 -1.23188 
1.44374 3.16900 -1.23188 
1.45242 2.98300 -1.15958 
1.46120 2.65900 -1.03363 
1.60007 2.62500 -1.02041 
1.73129 2.51700 -0.97843 
1.78731 2.32500 -0.90379 
1.78629 2.30800 -0.89719 
1.88918 2.31600 -0.90030 
1.93149 2.31600 -0.90030 
-1.62641 2.14600 -0.83981 
-1.59281 2.14600 -0.83981 
-1.49441 2.21600 -0.86721 
-1.19780 1.99200 -0.77955 
-1.01344 1.77800 -0.69580 
-1.21979 2.23200 -0.87347 
-0.92469 1.80400 -0.70597 
-0.87823 1.81500 -0.71028 
-0.68964 1.88200 -0.73650 
-0.56718 1.82000 -0.71224 
-0.52761 1.83100 -0.71654 
-0.45519 1.73700 -0.67975 
-0.44806 1.72700 -0.67584 
-0.52765 2.79200 -1.09262 
-0.16131 3.02700 -1.18458 
-0.12971 3.02700 -1.18458 
-0.05254 3.13600 -1.22724 
0.14171 3.08900 -1.20884 
0.21154 3.16900 -1.24015 
0.35846 3.15200 -1.23350 
0.64123 3.01200 -1.17871 
0.64284 2.98300 -1.16736 
0.66375 2.71800 -1.06366 
0.69823 2.74200 -1.07305 
0.77320 2.78000 -1.08792 
1.00870 2.98300 -1.16736 
1.06308 3.02700 -1.18458 
1.14339 3.07300 -1.20258 
1.20577 3.08900 -1.20884 
1.24230 3.12000 -1.22097 
1.31414 3.13600 -1.22724 
1.39412 3.16900 -1.24015 
1.44584 3.12000 -1.22097 
1.45014 3.02700 -1.18458 
1.44987 2.88500 -1.12901 
1.45984 2.68200 -1.04957 
1.46231 2.63600 -1.03157 
1.50296 2.64700 -1.03587 
1.51677 2.64700 -1.03587 
1.56550 2.63600 -1.03157 
1.57926 2.63600 -1.03157 
1.62563 2.50600 -0.98069 
1.70532 2.53700 -0.99283 
1.74476 2.52700 -0.98891 
1.79423 2.33400 -0.91338 
1.84652 2.30800 -0.90321 
1.94041 2.33400 -0.91338 
1.94650 2.33400 -0.91338 
-1.65441 2.14600 -0.84541 
-1.48240 2.22400 -0.87614 
-1.19103 2.16900 -0.85447 
-0.89531 1.78300 -0.70241 
-0.79258 1.82500 -0.71895 
-0.68403 1.81500 -0.71502 
-0.67642 1.82000 -0.71699 
-0.58423 1.75700 -0.69217 
-0.51708 1.74700 -0.68823 
-0.50772 1.76200 -0.69414 
-0.47554 1.76200 -0.69414 
-0.59068 2.78000 -1.09517 
-0.53011 2.80500 -1.10502 
-0.49580 2.81800 -1.11014 
-0.45903 2.81800 -1.11014 
-0.31623 2.99800 -1.18106 
-0.01156 3.12000 -1.22912 
0.18384 3.12000 -1.22912 
0.30597 3.12000 -1.22912 
0.51182 3.18500 -1.25472 
0.56410 3.15200 -1.24172 
0.64284 2.98300 -1.17515 
0.82324 2.70600 -1.06602 
0.90559 2.83100 -1.11527 
0.93792 2.88500 -1.13654 
0.99119 2.95400 -1.16372 
1.14339 3.07300 -1.21060 
1.30595 3.13600 -1.23542 
1.47172 2.73000 -1.07548 
1.55834 2.65900 -1.04751 
1.57222 2.65900 -1.04751 
1.65903 2.52700 -0.99551 
1.76835 2.48600 -0.97935 
1.86012 2.32500 -0.91593 
1.89897 2.34300 -0.92302 
-1.55894 2.16900 -0.86013 
-1.55829 2.17600 -0.86291 
-1.44630 2.24000 -0.88829 
-1.32121 2.16900 -0.86013 
-0.95451 1.82500 -0.72372 
-0.84798 1.76200 -0.69873 
-0.82785 1.77800 -0.70508 
-0.81164 1.77300 -0.70310 
-0.78597 1.75700 -0.69675 
-0.75889 1.73700 -0.68882 
-0.70544 1.76200 -0.69873 
-0.64120 1.78800 -0.70904 
-0.54742 1.74200 -0.69080 
-0.47554 1.76200 -0.69873 
-0.44741 1.74200 -0.69080 
-0.41440 1.73700 -0.68882 
-0.53011 2.80500 -1.11234 
-0.51786 2.81800 -1.11750 
-0.48109 2.81800 -1.11750 
-0.47374 2.81800 -1.11750 
-0.38131 2.89800 -1.14922 
-0.27055 3.01200 -1.19443 
-0.13829 3.04200 -1.20633 
-0.03599 3.12000 -1.23726 
0.03692 3.08900 -1.22497 
0.24770 3.10400 -1.23091 
0.30597 3.12000 -1.23726 
0.36483 3.13600 -1.24360 
0.65841 2.75500 -1.09252 
0.72626 2.76700 -1.09727 
0.79851 2.71800 -1.07784 
0.92169 2.85800 -1.13336 
1.34814 3.12000 -1.23726 
1.41764 3.04200 -1.20633 
1.45984 2.68200 -1.06357 
1.50905 2.67000 -1.05881 
1.62062 2.62500 -1.04096 
1.76296 2.50600 -0.99377 
1.77820 2.44600 -0.96998 
1.81011 2.44600 -0.96998 
1.91940 2.31600 -0.91843 
-1.66561 2.14600 -0.85661 
-1.57026 2.16900 -0.86579 
-1.51827 2.19200 -0.87497 
-0.82946 1.75200 -0.69934 
-0.60888 1.76200 -0.70333 
-0.49711 1.75700 -0.70134 
-0.44287 1.74200 -0.69535 
-0.58594 2.79200 -1.11447 
-0.51786 2.81800 -1.12485 
-0.41334 2.85800 -1.14082 
-0.40023 2.87100 -1.14601 
-0.29276 2.99800 -1.19670 
-0.24030 3.02700 -1.20828 
-0.12241 3.04200 -1.21427 
0.00470 3.10400 -1.23901 
0.03673 3.07300 -1.22664 
0.05223 3.04200 -1.21427 
0.08357 3.02700 -1.20828 
0.14677 3.02700 -1.20828 
0.48185 3.15200 -1.25817 
0.55023 3.12000 -1.24540 
0.80911 2.70600 -1.08015 
1.13537 3.07300 -1.22664 
1.20754 3.07300 -1.22664 
1.21556 3.07300 -1.22664 
1.36699 3.08900 -1.23303 
1.53667 2.69400 -1.07536 
1.65979 2.56900 -1.02546 
1.69331 2.56900 -1.02546 
1.74769 2.58000 -1.02985 
1.74596 2.54800 -1.01708 
1.78972 2.42700 -0.96878 
1.80266 2.36100 -0.94243 
-1.63151 2.13800 -0.85900 
-1.56460 2.16900 -0.87145 
-1.45733 2.24800 -0.90319 
-1.45146 2.24800 -0.90319 
-1.41015 2.25700 -0.90681 
-1.13269 1.91700 -0.77021 
-1.08357 1.84200 -0.74007 
-1.01401 1.74700 -0.70190 
-1.05933 1.91100 -0.76780 
-1.09383 1.99200 -0.80034 
-0.90459 1.74700 -0.70190 
-0.88128 1.73700 -0.69789 
-0.77694 1.74700 -0.70190 
-0.74551 1.72700 -0.69387 
-0.67401 1.75200 -0.70391 
-0.65617 1.77800 -0.71436 
-0.42468 1.74200 -0.69990 
-0.35275 2.91200 -1.16997 
-0.24030 3.02700 -1.21618 
-0.21084 3.05800 -1.22863 
-0.18592 3.04200 -1.22220 
-0.15417 3.04200 -1.22220 
-0.06753 3.07300 -1.23466 
0.24523 3.07300 -1.23466 
0.43030 3.13600 -1.25997 
0.53395 3.12000 -1.25354 
0.55551 3.10400 -1.24711 
0.62862 3.02700 -1.21618 
0.64999 2.84400 -1.14265 
0.71592 2.75500 -1.10689 
0.73348 2.76700 -1.11172 
1.09216 3.04200 -1.22220 
1.28774 3.07300 -1.23466 
1.31981 3.07300 -1.23466 
1.32933 3.05800 -1.22863 
1.33731 3.05800 -1.22863 
1.42616 2.89800 -1.16435 
1.46842 2.64700 -1.06350 
1.56470 2.70600 -1.08721 
1.57176 2.70600 -1.08721 
1.59266 2.67000 -1.07274 
1.62679 2.60200 -1.04542 
1.68790 2.60200 -1.04542 
1.75135 2.52700 -1.01529 
1.79910 2.38900 -0.95984 
1.79503 2.34300 -0.94136 
1.88375 2.37000 -0.95221 
-1.64824 2.13800 -0.86458 
-1.49478 2.20800 -0.89288 
-1.44549 2.25700 -0.91270 
-0.96614 1.82000 -0.73598 
-0.88072 1.72700 -0.69838 
-0.81782 1.73700 -0.70242 
-0.39193 1.71800 -0.69474 
-0.47374 2.81800 -1.13956 
-0.46638 2.81800 -1.13956 
-0.39842 2.85800 -1.15574 
-0.34948 2.88500 -1.16665 
0.01267 3.07300 -1.24268 
0.31905 3.08900 -1.24915 
0.38739 3.12000 -1.26168 
0.50395 3.13600 -1.26815 
0.56361 3.10400 -1.25521 
0.58204 3.07300 -1.24268 
0.69823 2.74200 -1.10883 
0.76236 2.76700 -1.11894 
0.81979 2.71800 -1.09912 
1.08678 3.02700 -1.22408 
1.20165 3.05800 -1.23661 
1.32238 3.04200 -1.23014 
1.36679 2.98300 -1.20628 
1.40470 2.88500 -1.16665 
1.46638 2.84400 -1.15007 
1.59304 2.65900 -1.07526 
1.62679 2.60200 -1.05221 
1.66094 2.61300 -1.05666 
1.68912 2.62500 -1.06151 
1.70282 2.62500 -1.06151 
1.75538 2.48600 -1.00530 
1.92343 2.34300 -0.94748 
-1.59804 2.17600 -0.88562 
-1.56972 2.18400 -0.88888 
-1.50133 2.18400 -0.88888 
-1.49539 2.19200 -0.89213 
-1.41515 2.26500 -0.92185 
-1.40333 2.26500 -0.92185 
-1.36347 2.24800 -0.91493 
-1.33730 2.22400 -0.90516 
-1.01958 1.84800 -0.75213 
-0.90587 1.73200 -0.70492 
-0.89406 1.71800 -0.69922 
-0.81095 1.73200 -0.70492 
-0.69030 1.71300 -0.69718 
-0.65464 1.73700 -0.70695 
-0.61000 1.75200 -0.71306 
-0.58211 1.73700 -0.70695 
-0.56975 1.72700 -0.70288 
-0.50554 1.70800 -0.69515 
-0.58867 2.80500 -1.14162 
-0.55207 2.80500 -1.14162 
-0.31779 2.94000 -1.19657 
-0.26929 2.99800 -1.22017 
-0.07518 3.05800 -1.24459 
0.07457 2.98300 -1.21407 
0.33518 3.08900 -1.25721 
0.34324 3.08900 -1.25721 
0.43401 3.10400 -1.26331 
0.49324 3.12000 -1.26983 
1.19367 3.05800 -1.24459 
1.21761 3.05800 -1.24459 
1.22712 3.04200 -1.23808 
1.29361 3.01200 -1.22587 
1.36358 2.92600 -1.19087 
1.47555 2.80500 -1.14162 
1.69620 2.63600 -1.07284 
1.74959 2.61300 -1.06348 
1.74769 2.46600 -1.00365 
1.78124 2.32500 -0.94627 
1.84489 2.35200 -0.95725 
-1.62650 2.16100 -0.88516 
-1.58112 2.18400 -0.89458 
-1.52413 2.18400 -0.89458 
-1.47659 2.22400 -0.91096 
-0.99405 1.75200 -0.71763 
-0.85947 1.69400 -0.69387 
-0.82412 1.68500 -0.69019 
-0.81285 1.68900 -0.69182 
-0.75728 1.72300 -0.70575 
-0.62925 1.74200 -0.71353 
-0.55619 1.71300 -0.70165 
-0.48019 1.71300 -0.70165 
-0.40986 1.71800 -0.70370 
-0.58135 2.80500 -1.14894 
-0.50815 2.80500 -1.14894 
-0.39096 2.85800 -1.17065 
-0.19290 3.02700 -1.23988 
-0.14551 3.02700 -1.23988 
-0.08272 3.04200 -1.24602 
0.27451 3.04200 -1.24602 
0.32542 3.07300 -1.25872 
0.34146 3.07300 -1.25872 
0.41579 3.08900 -1.26527 
0.48261 3.10400 -1.27141 
0.50952 3.12000 -1.27797 
0.53931 3.10400 -1.27141 
0.54741 3.10400 -1.27141 
0.57122 3.05800 -1.25257 
0.65713 2.78000 -1.13870 
1.02973 2.95400 -1.20997 
1.03744 2.95400 -1.20997 
1.19737 3.02700 -1.23988 
1.48184 2.83100 -1.15959 
1.45934 2.69400 -1.10348 
1.48895 2.65900 -1.08914 
1.73747 2.63600 -1.07972 
1.75282 2.35200 -0.96339 
1.79338 2.32500 -0.95233 
1.87122 2.21600 -0.90769 
-1.64267 2.13800 -0.88132 
-1.62120 2.16900 -0.89409 
-1.52413 2.18400 -0.90028 
-0.88860 1.69900 -0.70035 
-0.80213 1.68500 -0.69458 
-0.67822 1.69400 -0.69829 
-0.59679 1.72700 -0.71190 
-0.44032 1.73200 -0.71396 
-0.40867 1.71300 -0.70612 
-0.42825 2.85800 -1.17811 
-0.12181 3.02700 -1.24777 
-0.08231 3.02700 -1.24777 
0.11839 2.91200 -1.20037 
0.26525 3.02700 -1.24777 
0.46415 3.08900 -1.27333 
0.67794 2.71800 -1.12040 
0.77694 2.74200 -1.13029 
0.91423 2.85800 -1.17811 
1.04020 2.94000 -1.21191 
1.06057 2.95400 -1.21768 
1.15213 3.01200 -1.24159 
1.22287 3.01200 -1.24159 
1.26559 2.98300 -1.22964 
1.29183 2.95400 -1.21768 
1.37459 2.88500 -1.18924 
1.41287 2.87100 -1.18347 
1.43535 2.87100 -1.18347 
1.44284 2.87100 -1.18347 
1.48105 2.85800 -1.17811 
1.48223 2.64700 -1.09113 
1.50905 2.67000 -1.10061 
1.58593 2.61300 -1.07712 
1.60639 2.61300 -1.07712 
1.72371 2.63600 -1.08660 
1.73059 2.63600 -1.08660 
1.75365 2.56900 -1.05898 
1.95054 2.44600 -1.00828 
1.83951 2.19200 -0.90358 
-1.64267 2.13800 -0.88690 
-1.62686 2.16900 -0.89975 
-1.52413 2.18400 -0.90598 
-1.51286 2.17600 -0.90266 
-1.35013 2.26500 -0.93958 
-1.32464 2.23200 -0.92589 
-0.84780 1.67100 -0.69317 
-0.84344 1.67100 -0.69317 
-0.80178 1.66600 -0.69110 
-0.79094 1.71800 -0.71267 
-0.76853 1.71800 -0.71267 
-0.73127 1.69400 -0.70271 
-0.63665 1.71300 -0.71059 
-0.61789 1.72300 -0.71474 
-0.61339 1.72300 -0.71474 
-0.51325 1.67500 -0.69483 
-0.39203 1.69900 -0.70479 
-0.58594 2.79200 -1.15819 
-0.53990 2.78000 -1.15321 
-0.42080 2.85800 -1.18557 
-0.30568 2.89800 -1.20216 
-0.29956 2.91200 -1.20797 
-0.28573 2.92600 -1.21378 
-0.27942 2.94000 -1.21958 
-0.25763 2.95400 -1.22539 
-0.12907 3.01200 -1.24945 
-0.02688 3.01200 -1.24945 
0.14119 2.91200 -1.20797 
0.43555 3.05800 -1.26853 
0.45949 3.05800 -1.26853 
0.54996 3.07300 -1.27476 
0.64840 2.80500 -1.16358 
0.67084 2.71800 -1.12749 
0.67794 2.71800 -1.12749 
0.68503 2.71800 -1.12749 
1.39039 2.87100 -1.19096 
1.47600 2.79200 -1.15819 
1.47081 2.75500 -1.14284 
1.46525 2.71800 -1.12749 
1.45331 2.67000 -1.10758 
1.52995 2.67000 -1.10758 
1.54382 2.68200 -1.11256 
1.57238 2.63600 -1.09348 
1.63367 2.61300 -1.08394 
1.66172 2.62500 -1.08891 
1.74442 2.51700 -1.04411 
1.74185 2.47600 -1.02711 
1.73052 2.38900 -0.99102 
1.81337 2.34300 -0.97193 
1.83280 2.18400 -0.90598 
-1.72360 2.18400 -0.91168 
-1.65441 2.14600 -0.89581 
-1.52413 2.18400 -0.91168 
-1.36622 2.28200 -0.95258 
-1.26652 2.15300 -0.89874 
-0.94832 1.72700 -0.72091 
-0.88042 1.67500 -0.69920 
-0.85396 1.66600 -0.69545 
-0.80847 1.65300 -0.69002 
-0.80415 1.65300 -0.69002 
-0.79745 1.65700 -0.69169 
-0.78663 1.69900 -0.70922 
-0.71432 1.67500 -0.69920 
-0.47592 2.83100 -1.18176 
-0.37249 2.83100 -1.18176 
-0.31782 2.87100 -1.19845 
-0.22124 2.98300 -1.24521 
-0.15194 2.99800 -1.25147 
-0.08935 2.99800 -1.25147 
-0.00330 3.01200 -1.25731 
0.09651 2.94000 -1.22726 
0.15639 2.91200 -1.21557 
0.31896 3.01200 -1.25731 
0.55753 3.02700 -1.26357 
0.59333 2.96900 -1.23936 
0.78433 2.71800 -1.13459 
1.12224 2.95400 -1.23310 
1.22866 2.96900 -1.23936 
1.36918 2.85800 -1.19303 
1.46387 2.74200 -1.14460 
1.46459 2.73000 -1.13959 
1.53059 2.65900 -1.10996 
1.61321 2.61300 -1.09076 
1.74442 2.51700 -1.05068 
1.92349 2.43600 -1.01687 
1.94570 2.45600 -1.02522 
1.82900 2.20000 -0.91836 
-1.72360 2.18400 -0.91738 
-1.60392 2.18400 -0.91738 
-1.55262 2.18400 -0.91738 
-1.42480 2.29000 -0.96190 
-1.40089 2.29000 -0.96190 
-1.36622 2.28200 -0.95854 
-1.32354 2.24000 -0.94090 
-1.22634 2.09400 -0.87957 
-0.97647 1.73700 -0.72962 
-0.95234 1.71800 -0.72164 
-0.90767 1.68500 -0.70777 
-0.63413 1.67100 -0.70189 
-0.50927 1.66200 -0.69811 
-0.40748 1.70800 -0.71744 
-0.38406 1.70300 -0.71533 
-0.37962 1.70300 -0.71533 
-0.58792 2.76700 -1.16226 
-0.38727 2.83100 -1.18914 
-0.36175 2.80500 -1.17822 
-0.17453 2.98300 -1.25299 
-0.15896 2.98300 -1.25299 
-0.05023 2.99800 -1.25929 
0.02018 2.99800 -1.25929 
0.04343 2.98300 -1.25299 
0.05098 2.96900 -1.24711 
0.09651 2.94000 -1.23493 
0.11133 2.92600 -1.22905 
