ply
format ascii 1.0
comment pointcloud saved from Realsense Viewer
element vertex 1877
property float32 x
property float32 y
property float32 z
end_header
1.47996 2.70600 1.01008 
1.48043 2.69400 1.00560 
1.72247 2.47600 0.92423 
1.77072 2.42700 0.90594 
1.78351 2.35200 0.87794 
-1.59790 2.12300 0.78692 
-1.39866 2.24800 0.83325 
-1.31309 2.32500 0.86179 
-1.21322 2.37900 0.88181 
-1.15734 2.37900 0.88181 
-1.12480 2.38900 0.88552 
-1.09836 2.42700 0.89960 
-1.06227 2.44600 0.90665 
-1.03886 2.43600 0.90294 
-1.01121 2.44600 0.90665 
-0.92938 2.46600 0.91406 
-0.82977 2.47600 0.91777 
-0.74955 2.62500 0.97299 
-0.66905 2.65900 0.98560 
-0.57545 2.74200 1.01636 
-0.56829 2.74200 1.01636 
-0.45168 2.81800 1.04453 
-0.29534 2.87100 1.06418 
-0.24637 2.91200 1.07938 
0.58709 3.37900 1.25248 
0.73072 3.47500 1.28806 
0.74886 3.47500 1.28806 
0.75793 3.47500 1.28806 
0.84004 3.51500 1.30289 
0.90127 3.57600 1.32550 
0.94989 3.61900 1.34144 
0.98984 3.66200 1.35737 
1.09845 3.70600 1.37368 
1.12077 3.68400 1.36553 
1.23177 3.72900 1.38221 
1.30617 3.32400 1.23209 
1.43714 3.30600 1.22542 
1.46594 3.02700 1.12200 
1.52099 2.50600 0.92889 
1.53407 2.50600 0.92889 
1.74014 2.55900 0.94853 
1.76830 2.31600 0.85846 
1.75443 2.29000 0.84882 
1.85965 2.21600 0.82139 
-1.60898 2.12300 0.78138 
-1.56499 2.13100 0.78432 
-1.52990 2.17600 0.80089 
-1.51286 2.17600 0.80089 
-1.45706 2.16900 0.79831 
-1.31723 2.29000 0.84285 
-1.15597 2.38900 0.87928 
-1.12118 2.40800 0.88628 
-1.08142 2.44600 0.90026 
-1.06866 2.44600 0.90026 
-1.04951 2.44600 0.90026 
-1.01979 2.43600 0.89658 
-0.96156 2.46600 0.90762 
-0.92295 2.46600 0.90762 
-0.51547 2.80500 1.03239 
-0.38727 2.83100 1.04196 
-0.32225 2.84400 1.04675 
-0.15976 2.99800 1.10343 
-0.09912 3.05800 1.12551 
0.16274 3.18500 1.17226 
0.36146 3.25300 1.19728 
0.43399 3.28800 1.21017 
0.78514 3.47500 1.27899 
1.20483 3.70600 1.36401 
1.32762 3.27000 1.20354 
1.34469 3.27000 1.20354 
1.48895 2.65900 0.97866 
1.49589 2.65900 0.97866 
1.49588 2.48600 0.91498 
1.71342 2.56900 0.94553 
1.70035 2.41700 0.88959 
1.77802 2.36100 0.86898 
1.73950 2.24000 0.82444 
1.73911 2.23200 0.82150 
1.75556 2.21600 0.81561 
1.83516 2.25700 0.83070 
-1.57020 2.12300 0.77584 
-1.51286 2.17600 0.79521 
-1.47311 2.17600 0.79521 
-1.43818 2.19200 0.80106 
-1.42291 2.24000 0.81860 
-1.41040 2.24800 0.82152 
-1.31125 2.29000 0.83687 
-1.30702 2.32500 0.84966 
-1.29029 2.36100 0.86282 
-1.20080 2.37900 0.86939 
-1.17467 2.38900 0.87305 
-0.89998 2.45600 0.89753 
-0.72900 2.62500 0.95929 
-0.60588 2.71800 0.99328 
-0.51547 2.80500 1.02507 
-0.47155 2.80500 1.02507 
-0.45168 2.81800 1.02983 
-0.40204 2.83100 1.03458 
-0.35194 2.84400 1.03933 
-0.25274 2.89800 1.05906 
-0.19695 2.96900 1.08501 
-0.18231 2.98300 1.09012 
0.25823 3.23600 1.18258 
0.31901 3.25300 1.18879 
0.89598 3.55500 1.29916 
0.98984 3.66200 1.33826 
1.09193 3.68400 1.34630 
1.19768 3.68400 1.34630 
1.30667 3.41600 1.24836 
1.31636 3.30600 1.20816 
1.32762 3.27000 1.19501 
1.38014 3.25300 1.18879 
1.42259 3.25300 1.18879 
1.44374 3.16900 1.15810 
1.47577 2.98300 1.09012 
1.49166 2.76700 1.01119 
1.52143 2.49600 0.91215 
1.52795 2.49600 0.91215 
1.62587 2.53700 0.92713 
1.65333 2.55900 0.93517 
1.72013 2.56900 0.93883 
1.70030 2.40800 0.87999 
1.77124 2.35200 0.85953 
1.73950 2.24000 0.81860 
1.73911 2.23200 0.81567 
1.73770 2.20800 0.80690 
1.77351 2.22400 0.81275 
1.81611 2.24800 0.82152 
-1.61452 2.12300 0.77030 
-1.51286 2.17600 0.78953 
-1.45608 2.17600 0.78953 
-1.43531 2.23200 0.80985 
-1.20244 2.37000 0.85992 
-1.20080 2.37900 0.86319 
-1.18217 2.37900 0.86319 
-0.84230 2.45600 0.89112 
-0.73585 2.62500 0.95244 
-0.66485 2.67000 0.96877 
-0.43697 2.81800 1.02247 
-0.39466 2.83100 1.02719 
-0.07594 3.08900 1.12080 
-0.03581 3.10400 1.12624 
-0.02771 3.10400 1.12624 
0.36146 3.25300 1.18031 
0.36995 3.25300 1.18031 
0.51980 3.28800 1.19300 
0.74455 3.45500 1.25360 
0.85838 3.51500 1.27537 
1.07585 3.66200 1.32871 
1.14538 3.64000 1.32072 
1.24364 3.51500 1.27537 
1.26576 3.47500 1.26085 
1.31155 3.36000 1.21913 
1.31325 3.34200 1.21260 
1.32762 3.27000 1.18647 
1.43208 3.07300 1.11499 
1.50277 2.87100 1.04170 
1.49309 2.73000 0.99054 
1.50183 2.68200 0.97313 
1.50137 2.50600 0.90927 
1.61962 2.54800 0.92451 
1.63329 2.55900 0.92850 
1.71201 2.39800 0.87008 
1.74330 2.39800 0.87008 
1.77517 2.32500 0.84359 
1.75327 2.27300 0.82473 
1.74535 2.24000 0.81275 
1.86226 2.24000 0.81275 
1.86446 2.20800 0.80114 
-1.59790 2.12300 0.76476 
-1.59236 2.12300 0.76476 
-1.45535 2.19200 0.78962 
-1.44113 2.23200 0.80402 
-1.40333 2.26500 0.81591 
-1.39151 2.26500 0.81591 
-1.24241 2.35200 0.84725 
-0.96407 2.45600 0.88472 
-0.95125 2.45600 0.88472 
-0.93202 2.45600 0.88472 
-0.76325 2.62500 0.94559 
-0.53264 2.78000 1.00143 
-0.51308 2.79200 1.00575 
-0.49851 2.79200 1.00575 
-0.26667 2.88500 1.03925 
-0.23228 2.92600 1.05402 
-0.15976 2.99800 1.07996 
0.15443 3.18500 1.14732 
0.31901 3.25300 1.17182 
0.62918 3.41600 1.23053 
0.84921 3.51500 1.26620 
1.17388 3.64000 1.31122 
1.25669 3.47500 1.25179 
1.28552 3.45500 1.24458 
1.31909 3.27000 1.17794 
1.35604 3.23600 1.16569 
1.40028 3.20200 1.15344 
1.42406 3.07300 1.10698 
1.43434 3.02700 1.09041 
1.45190 2.99800 1.07996 
1.49338 2.92600 1.05402 
1.50021 2.73000 0.98342 
1.51309 2.55900 0.92182 
1.63968 2.56900 0.92542 
1.68036 2.58000 0.92938 
1.70559 2.38900 0.86058 
1.77802 2.36100 0.85049 
1.76824 2.23200 0.80402 
1.81611 2.24800 0.80979 
1.86810 2.24000 0.80691 
-1.57020 2.12300 0.75922 
-1.47283 2.18400 0.78103 
-1.44177 2.22400 0.79534 
-1.38560 2.26500 0.81000 
-1.32181 2.25700 0.80714 
-1.30072 2.28200 0.81608 
-1.29489 2.32500 0.83146 
-1.27434 2.34300 0.83790 
-1.10507 2.45600 0.87831 
-0.99844 2.44600 0.87473 
-0.87994 2.43600 0.87115 
-0.84815 2.43600 0.87115 
-0.82642 2.46600 0.88188 
-0.79731 2.60200 0.93052 
-0.43697 2.81800 1.00776 
-0.21805 2.94000 1.05139 
-0.10012 3.08900 1.10468 
0.07021 3.13600 1.12149 
0.08702 3.15200 1.12721 
0.12118 3.18500 1.13901 
0.13780 3.18500 1.13901 
0.83502 3.49400 1.24951 
0.96878 3.61900 1.29421 
0.98390 3.64000 1.30172 
1.00289 3.64000 1.30172 
1.10099 3.61900 1.29421 
1.22948 3.47500 1.24272 
1.23855 3.47500 1.24272 
1.38137 3.23600 1.15725 
1.41711 3.05800 1.09359 
1.50514 2.79200 0.99847 
1.51989 2.54800 0.91121 
1.67400 2.59100 0.92658 
1.69621 2.46600 0.88188 
1.70466 2.37900 0.85077 
1.72328 2.37900 0.85077 
1.81749 2.25700 0.80714 
1.87050 2.25700 0.80714 
-1.67681 2.14600 0.76184 
-1.57020 2.12300 0.75368 
-1.39151 2.26500 0.80409 
-1.26945 2.33400 0.82859 
-1.20709 2.34300 0.83178 
-1.17939 2.36100 0.83817 
-1.11857 2.38900 0.84811 
-1.11275 2.41700 0.85805 
-1.05380 2.45600 0.87190 
-1.01759 2.44600 0.86835 
-1.00483 2.44600 0.86835 
-0.98568 2.44600 0.86835 
-0.94986 2.43600 0.86480 
-0.83212 2.40800 0.85486 
-0.82065 2.54800 0.90456 
-0.78380 2.62500 0.93189 
-0.74955 2.62500 0.93189 
-0.69766 2.63600 0.93580 
-0.67182 2.67000 0.94787 
-0.53737 2.76700 0.98230 
-0.50362 2.78000 0.98692 
-0.25914 2.88500 1.02420 
0.04543 3.12000 1.10762 
0.16448 3.21900 1.14277 
0.32750 3.25300 1.15484 
0.34448 3.25300 1.15484 
0.49135 3.27000 1.16087 
0.51695 3.27000 1.16087 
0.58066 3.34200 1.18643 
0.59256 3.36000 1.19282 
0.64700 3.41600 1.21270 
0.73554 3.45500 1.22655 
0.95933 3.61900 1.28477 
1.08839 3.64000 1.29223 
1.15415 3.49400 1.24040 
1.27101 3.41600 1.21270 
1.55978 2.54800 0.90456 
1.70148 2.60200 0.92373 
1.72683 2.56900 0.91201 
1.71676 2.37000 0.84137 
-1.50807 2.16100 0.76153 
-1.47214 2.20000 0.77527 
-1.43460 2.24000 0.78937 
-1.43386 2.24800 0.79219 
-1.41015 2.25700 0.79536 
-1.37969 2.26500 0.79818 
-1.36892 2.25700 0.79536 
-1.25117 2.33400 0.82250 
-1.22072 2.33400 0.82250 
-1.21463 2.33400 0.82250 
-1.20709 2.34300 0.82567 
-1.15296 2.37000 0.83518 
-1.11857 2.38900 0.84188 
-1.11102 2.42700 0.85527 
-1.04312 2.44600 0.86196 
-0.81355 2.46600 0.86901 
-0.72518 2.63600 0.92892 
-0.56581 2.73000 0.96204 
-0.54223 2.75500 0.97085 
-0.48186 2.78000 0.97966 
-0.29401 2.85800 1.00715 
-0.20367 2.95400 1.04098 
-0.03636 3.15200 1.11076 
-0.02813 3.15200 1.11076 
0.21601 3.23600 1.14036 
0.60472 3.37900 1.19075 
0.82590 3.49400 1.23128 
0.93473 3.59700 1.26757 
0.94989 3.61900 1.27533 
0.95933 3.61900 1.27533 
1.25508 3.39700 1.19709 
1.31015 3.37900 1.19075 
1.42452 3.21900 1.13437 
1.41955 3.15200 1.11076 
1.51091 2.84400 1.00222 
1.51395 2.75500 0.97085 
1.55140 2.65900 0.93702 
1.70282 2.62500 0.92504 
1.73489 2.36100 0.83201 
1.74105 2.36100 0.83201 
1.78256 2.26500 0.79818 
-1.59236 2.12300 0.74260 
-1.51373 2.15300 0.75309 
-1.45918 2.22400 0.77793 
-1.39151 2.26500 0.79227 
-1.31592 2.25700 0.78947 
-1.28641 2.29900 0.80416 
-1.27940 2.30800 0.80731 
-1.24635 2.32500 0.81326 
-1.24508 2.33400 0.81640 
-1.16429 2.34300 0.81955 
-0.96768 2.41700 0.84544 
-0.72518 2.63600 0.92204 
-0.69766 2.63600 0.92204 
-0.33710 2.84400 0.99480 
-0.30741 2.84400 0.99480 
-0.27287 2.87100 1.00424 
-0.10818 3.08900 1.08049 
-0.00346 3.15200 1.10253 
0.10456 3.18500 1.11407 
0.15607 3.21900 1.12597 
0.27512 3.23600 1.13191 
0.43399 3.28800 1.15010 
0.54283 3.32400 1.16270 
0.99340 3.64000 1.27323 
1.28167 3.39700 1.18823 
1.30278 3.36000 1.17529 
1.34619 3.25300 1.13786 
1.43292 3.21900 1.12597 
1.49338 2.92600 1.02348 
1.51010 2.88500 1.00914 
1.52159 2.73000 0.95492 
1.55866 2.61300 0.91400 
1.63429 2.63600 0.92204 
1.73180 2.53700 0.88741 
1.77242 2.37000 0.82900 
1.78629 2.30800 0.80731 
1.78403 2.28200 0.79822 
1.87061 2.30800 0.80731 
1.86810 2.24000 0.78352 
-1.53666 2.13800 0.74227 
-1.48423 2.18400 0.75824 
-1.47823 2.19200 0.76101 
-1.39837 2.25700 0.78358 
-1.31653 2.24800 0.78046 
-1.28881 2.28200 0.79226 
-1.26570 2.31600 0.80406 
-1.11162 2.36100 0.81969 
-1.10768 2.37900 0.82594 
-0.80387 2.53700 0.88079 
-0.73206 2.63600 0.91516 
-0.68293 2.65900 0.92315 
-0.60320 2.70600 0.93946 
-0.56829 2.74200 0.95196 
-0.54715 2.78000 0.96516 
-0.49637 2.78000 0.96516 
-0.48911 2.78000 0.96516 
-0.48186 2.78000 0.96516 
-0.38163 2.84400 0.98737 
-0.10762 3.07300 1.06688 
-0.05281 3.15200 1.09431 
-0.03656 3.16900 1.10021 
0.00477 3.15200 1.09431 
0.01299 3.15200 1.09431 
0.23290 3.23600 1.12347 
0.36146 3.25300 1.12937 
0.52264 3.30600 1.14777 
0.67769 3.43600 1.19290 
0.97440 3.64000 1.26373 
1.10099 3.61900 1.25644 
1.11160 3.47500 1.20644 
1.17788 3.37900 1.17312 
1.19302 3.39700 1.17936 
1.23079 3.37900 1.17312 
1.26606 3.37900 1.17312 
1.42452 3.21900 1.11757 
1.44884 2.89800 1.00612 
1.45641 2.89800 1.00612 
1.49785 2.79200 0.96932 
1.52199 2.71800 0.94363 
1.73595 2.61300 0.90718 
1.73931 2.54800 0.88461 
1.72336 2.49600 0.86656 
1.74811 2.37900 0.82594 
1.79910 2.38900 0.82941 
1.80266 2.36100 0.81969 
1.80193 2.35200 0.81656 
1.79479 2.27300 0.78914 
1.87783 2.27300 0.78914 
-1.64824 2.13800 0.73669 
-1.54831 2.13100 0.73428 
-1.50249 2.15300 0.74186 
-1.49015 2.17600 0.74978 
-1.41040 2.24800 0.77459 
-1.41015 2.25700 0.77769 
-1.36303 2.25700 0.77769 
-1.34000 2.24800 0.77459 
-1.31653 2.24800 0.77459 
-1.26735 2.30800 0.79526 
-1.25361 2.31600 0.79802 
-1.20854 2.33400 0.80422 
-1.18418 2.33400 0.80422 
-1.10610 2.38900 0.82317 
-1.07700 2.43600 0.83937 
-0.85309 2.24800 0.77459 
-0.75893 2.10100 0.72394 
-0.71415 2.13100 0.73428 
-0.75269 2.63600 0.90828 
-0.64271 2.69400 0.92827 
-0.35194 2.84400 0.97995 
-0.32967 2.84400 0.97995 
-0.29999 2.84400 0.97995 
-0.18921 2.96900 1.02302 
-0.13761 3.02700 1.04301 
-0.10012 3.08900 1.06437 
0.01299 3.15200 1.08608 
0.79420 3.47500 1.19738 
1.07889 3.64000 1.25423 
1.31909 3.27000 1.12674 
1.32921 3.25300 1.12088 
1.37293 3.23600 1.11502 
1.42535 3.20200 1.10331 
1.41614 2.94000 1.01303 
1.50343 2.85800 0.98478 
1.49709 2.81800 0.97099 
1.49250 2.74200 0.94481 
1.51558 2.69400 0.92827 
1.62773 2.65900 0.91621 
1.68431 2.69400 0.92827 
1.73875 2.65900 0.91621 
1.74959 2.61300 0.90036 
1.79028 2.29000 0.78906 
1.80189 2.28200 0.78631 
-1.47879 2.17600 0.74410 
-1.45971 2.21600 0.75778 
-1.44757 2.22400 0.76052 
-1.35714 2.25700 0.77180 
-1.32827 2.24800 0.76872 
-1.29559 2.27300 0.77727 
-1.20709 2.34300 0.80121 
-1.11352 2.35200 0.80429 
-1.10967 2.37000 0.81044 
-1.08336 2.43600 0.83301 
-0.99762 2.39800 0.82002 
-0.93910 2.36100 0.80737 
-0.89644 2.29900 0.78616 
-0.76325 2.62500 0.89764 
-0.74581 2.63600 0.90140 
-0.73206 2.63600 0.90140 
-0.65677 2.69400 0.92124 
-0.62865 2.69400 0.92124 
-0.59169 2.71800 0.92944 
-0.58976 2.74200 0.93765 
-0.49637 2.78000 0.95065 
-0.22357 2.91200 0.99578 
0.02122 3.15200 1.07786 
0.10456 3.18500 1.08914 
0.13018 3.20200 1.09495 
0.21601 3.23600 1.10658 
0.25959 3.25300 1.11239 
0.26808 3.25300 1.11239 
0.35297 3.25300 1.11239 
0.43637 3.30600 1.13052 
0.49079 3.32400 1.13667 
0.74886 3.47500 1.18831 
0.86327 3.53500 1.20883 
1.05674 3.66200 1.25225 
1.07585 3.66200 1.25225 
1.10369 3.59700 1.23003 
1.21510 3.36000 1.14898 
1.32226 3.23600 1.10658 
1.41328 3.12000 1.06691 
1.39485 3.02700 1.03511 
1.47246 2.88500 0.98655 
1.50277 2.87100 0.98176 
1.64881 2.68200 0.91713 
1.72005 2.42700 0.82993 
1.71287 2.40800 0.82344 
1.80266 2.36100 0.80737 
1.79423 2.33400 0.79813 
1.89470 2.30800 0.78924 
1.87308 2.23200 0.76325 
-1.63114 2.12300 0.72044 
-1.54241 2.14600 0.72824 
-1.49102 2.16900 0.73605 
-1.26942 2.29000 0.77711 
-1.15981 2.33400 0.79204 
-1.11585 2.37000 0.80426 
-1.11388 2.37900 0.80731 
-1.10610 2.38900 0.81071 
-1.10014 2.41700 0.82021 
-1.00011 2.38900 0.81071 
-0.80585 2.10900 0.71569 
-0.67876 1.93500 0.65664 
-0.66299 1.94800 0.66105 
-0.43571 2.85800 0.96986 
-0.12971 3.02700 1.02721 
-0.01168 3.15200 1.06963 
0.04590 3.15200 1.06963 
0.23412 3.25300 1.10390 
0.26668 3.23600 1.09814 
0.32750 3.25300 1.10390 
0.33599 3.25300 1.10390 
0.37188 3.27000 1.10967 
0.56063 3.37900 1.14666 
0.73979 3.47500 1.17924 
0.74886 3.47500 1.17924 
0.81678 3.49400 1.18569 
1.14754 3.34200 1.13411 
1.29525 3.25300 1.10390 
1.35015 3.20200 1.08660 
1.39923 3.08900 1.04825 
1.38545 2.94000 0.99769 
1.38211 2.88500 0.97902 
1.49505 2.88500 0.97902 
1.76259 2.60200 0.88299 
1.74429 2.40800 0.81715 
1.77604 2.41700 0.82021 
1.79132 2.29900 0.78016 
1.79732 2.29900 0.78016 
1.89470 2.30800 0.78322 
-1.55361 2.14600 0.72264 
-1.46066 2.20000 0.74083 
-1.42502 2.21600 0.74622 
-1.42436 2.22400 0.74891 
-1.25531 2.30800 0.77720 
-1.14154 2.33400 0.78595 
-0.96375 2.36100 0.79504 
-0.92044 2.29900 0.77416 
-0.85730 2.18400 0.73544 
-0.66403 1.89300 0.63745 
-0.75589 2.44600 0.82367 
-0.77014 2.60200 0.87620 
-0.69272 2.67000 0.89910 
-0.66380 2.69400 0.90718 
-0.60588 2.71800 0.91526 
-0.44317 2.85800 0.96240 
-0.35194 2.84400 0.95769 
-0.02813 3.15200 1.06140 
0.07922 3.16900 1.06713 
0.13018 3.20200 1.07824 
0.24261 3.25300 1.09542 
0.37393 3.28800 1.10720 
0.60596 3.43600 1.15704 
1.08839 3.64000 1.22573 
1.15372 3.36000 1.13145 
1.24432 3.25300 1.09542 
1.31532 3.21900 1.08397 
1.37905 3.02700 1.01931 
1.48083 2.68200 0.90314 
1.81419 2.29000 0.77113 
-1.58129 2.13800 0.71437 
-1.56481 2.14600 0.71704 
-1.49680 2.16100 0.72206 
-1.31931 2.27300 0.75948 
-1.30745 2.27300 0.75948 
-1.21172 2.35200 0.78587 
-1.17040 2.34300 0.78287 
-1.11585 2.37000 0.79189 
-1.11233 2.38900 0.79824 
-1.07091 2.40800 0.80459 
-1.01258 2.38900 0.79824 
-0.69234 1.87600 0.62683 
-0.66541 2.06600 0.69031 
-0.76409 2.55900 0.85504 
-0.38350 2.85800 0.95494 
-0.26538 2.87100 0.95929 
0.15525 3.20200 1.06989 
0.22446 3.23600 1.08125 
0.25959 3.25300 1.08693 
0.43007 3.32400 1.11065 
0.47601 3.34200 1.11666 
0.54589 3.39700 1.13504 
0.57906 3.43600 1.14807 
0.70737 3.49400 1.16745 
0.91061 3.57600 1.19485 
0.92534 3.59700 1.20187 
0.96490 3.64000 1.21623 
1.08541 3.66200 1.22359 
1.30537 3.23600 1.08125 
1.37623 3.18500 1.06421 
1.37457 2.98300 0.99671 
1.42036 2.87100 0.95929 
1.64181 2.68200 0.89614 
1.74055 2.69400 0.90015 
1.75365 2.56900 0.85838 
1.74334 2.50600 0.83733 
1.79423 2.33400 0.77986 
1.85254 2.30800 0.77117 
-1.53058 2.15300 0.71376 
-1.49102 2.16900 0.71907 
-1.47970 2.16900 0.71907 
-1.47879 2.17600 0.72139 
-1.37520 2.24800 0.74526 
-1.27690 2.28200 0.75653 
-0.95882 2.33400 0.77377 
-0.71610 1.88700 0.62558 
-0.64033 1.85300 0.61431 
-0.63045 1.91100 0.63354 
-0.72897 2.37900 0.78869 
-0.70666 2.67000 0.88516 
-0.69192 2.69400 0.89312 
-0.58537 2.75500 0.91334 
-0.43571 2.85800 0.94749 
-0.33130 2.85800 0.94749 
-0.25914 2.88500 0.95644 
-0.13761 3.02700 1.00351 
0.06235 3.15200 1.04495 
0.24261 3.25300 1.07844 
0.31215 3.27000 1.08407 
0.40186 3.30600 1.09601 
0.59128 3.45500 1.14540 
0.68913 3.49400 1.15833 
0.93473 3.59700 1.19248 
1.08231 3.68400 1.22132 
1.09235 3.36000 1.11391 
1.21315 3.37900 1.12021 
1.22387 3.36000 1.11391 
1.29693 3.23600 1.07280 
1.36104 3.16900 1.05059 
1.46397 2.89800 0.96075 
1.47607 2.63600 0.87389 
1.77906 2.45600 0.81421 
1.82016 2.29000 0.75918 
1.89122 2.28200 0.75653 
-1.63139 2.10900 0.69367 
-1.59280 2.13100 0.70091 
-1.45573 2.18400 0.71834 
-1.23899 2.33400 0.76768 
-1.21786 2.35200 0.77360 
-1.19945 2.35200 0.77360 
-0.99834 2.37000 0.77952 
-0.75217 1.92900 0.63447 
-0.64692 2.02500 0.66604 
-0.75416 2.54800 0.83807 
-0.44842 2.84400 0.93542 
-0.42271 2.87100 0.94430 
-0.38350 2.85800 0.94003 
-0.32384 2.85800 0.94003 
-0.31638 2.85800 0.94003 
-0.29534 2.87100 0.94430 
-0.13761 3.02700 0.99561 
-0.09251 3.10400 1.02094 
0.15525 3.20200 1.05317 
0.38460 3.30600 1.08738 
0.60377 3.47500 1.14297 
0.82169 3.51500 1.15612 
0.89598 3.55500 1.16928 
0.97440 3.64000 1.19724 
1.09496 3.66200 1.20447 
1.10734 3.37900 1.11139 
1.14261 3.37900 1.11139 
1.17529 3.39700 1.11731 
1.19078 3.41600 1.12356 
1.24432 3.25300 1.06995 
1.31382 3.23600 1.06436 
1.36324 3.13600 1.03147 
1.37001 3.04200 1.00055 
1.38211 2.88500 0.94891 
1.52525 2.87100 0.94430 
1.48783 2.68200 0.88214 
1.79274 2.46600 0.81109 
1.78731 2.32500 0.76472 
1.80932 2.29900 0.75617 
-1.57575 2.16100 0.70514 
-1.22400 2.35200 0.76746 
-1.18103 2.35200 0.76746 
-1.13807 2.35200 0.76746 
-1.03517 2.39800 0.78247 
-1.02505 2.38900 0.77953 
-0.66875 1.82500 0.59550 
-0.75640 2.62500 0.85654 
-0.71363 2.67000 0.87122 
-0.33875 2.85800 0.93257 
-0.28036 2.87100 0.93681 
-0.06856 3.12000 1.01806 
-0.01156 3.12000 1.01806 
0.56113 3.43600 1.12117 
0.88670 3.55500 1.16000 
0.98390 3.64000 1.18774 
1.08231 3.68400 1.20210 
1.33071 3.23600 1.05591 
1.36812 2.96900 0.96879 
1.54440 2.64700 0.86372 
1.62741 2.63600 0.86013 
1.80907 2.43600 0.79487 
-1.63681 2.11600 0.68493 
-1.51371 2.16100 0.69950 
-1.39176 2.20000 0.71212 
-1.35959 2.23200 0.72248 
-1.32649 2.26500 0.73316 
-1.27094 2.28200 0.73866 
-1.09775 2.39800 0.77621 
-1.05834 2.40800 0.77945 
-1.02505 2.38900 0.77330 
-0.68592 1.82000 0.58912 
-0.66692 1.82000 0.58912 
-0.62692 1.84200 0.59624 
-0.64264 2.04500 0.66195 
-0.72468 2.42700 0.78560 
-0.73844 2.65900 0.86070 
-0.61026 2.70600 0.87591 
-0.43358 2.84400 0.92058 
-0.39096 2.85800 0.92511 
-0.35367 2.85800 0.92511 
-0.33280 2.87100 0.92932 
-0.21138 2.95400 0.95619 
0.02930 3.13600 1.01510 
0.34819 3.28800 1.06430 
0.44984 3.34200 1.08178 
0.54003 3.41600 1.10573 
0.68410 3.51500 1.13778 
0.70644 3.53500 1.14425 
0.78024 3.53500 1.14425 
0.94411 3.59700 1.16432 
1.06309 3.68400 1.19248 
1.10099 3.61900 1.17144 
1.17295 3.41600 1.10573 
1.36436 3.01200 0.97496 
1.39505 2.91200 0.94259 
1.46217 2.94000 0.95165 
1.52112 2.74200 0.88756 
1.51047 2.63600 0.85325 
1.62062 2.62500 0.84969 
1.68822 2.61300 0.84581 
1.72195 2.46600 0.79822 
1.78814 2.33400 0.75550 
1.85131 2.29900 0.74417 
1.85731 2.29900 0.74417 
-1.57592 2.16900 0.69643 
-1.54196 2.16900 0.69643 
-1.47970 2.16900 0.69643 
-1.46176 2.17600 0.69867 
-1.28285 2.28200 0.73271 
-1.27094 2.28200 0.73271 
-0.98086 2.34300 0.75230 
-0.70918 1.83100 0.58790 
-0.63751 1.83100 0.58790 
-0.61742 1.91700 0.61551 
-0.72004 2.69400 0.86500 
-0.59614 2.70600 0.86885 
-0.54223 2.75500 0.88458 
-0.46735 2.78000 0.89261 
-0.21138 2.95400 0.94848 
-0.13829 3.04200 0.97673 
-0.10012 3.08900 0.99182 
-0.06042 3.12000 1.00178 
-0.02785 3.12000 1.00178 
0.08749 3.16900 1.01751 
0.13018 3.20200 1.02811 
0.33961 3.28800 1.05572 
0.54895 3.41600 1.09682 
0.65266 3.49400 1.12186 
0.77102 3.53500 1.13503 
0.82637 3.53500 1.13503 
1.02807 3.66200 1.17580 
1.07889 3.64000 1.16874 
1.08791 3.57600 1.14819 
1.12210 3.39700 1.09072 
1.13983 3.39700 1.09072 
1.23197 3.28800 1.05572 
1.24432 3.25300 1.04448 
1.32072 3.25300 1.04448 
1.32921 3.25300 1.04448 
1.52231 2.99800 0.96260 
1.56073 3.02700 0.97192 
1.51583 2.68200 0.86114 
1.53059 2.64700 0.84990 
1.61321 2.60200 0.83546 
1.71652 2.62500 0.84284 
1.74014 2.55900 0.82165 
1.72195 2.46600 0.79179 
1.72137 2.45600 0.78858 
1.78479 2.37000 0.76096 
1.78205 2.33400 0.74941 
-1.54762 2.16900 0.69077 
-1.49116 2.16100 0.68822 
-1.46838 2.16900 0.69077 
-1.42674 2.19200 0.69809 
-1.34984 2.21600 0.70574 
-1.25641 2.29900 0.73217 
-1.24757 2.31600 0.73758 
-1.14421 2.35200 0.74905 
-1.03129 2.38900 0.76083 
-0.77250 1.91700 0.61051 
-0.64494 1.82500 0.58121 
-0.71619 2.70600 0.86179 
-0.70206 2.70600 0.86179 
-0.68390 2.71800 0.86561 
-0.36678 2.84400 0.90574 
-0.33130 2.85800 0.91019 
-0.20470 2.96900 0.94555 
-0.08441 3.10400 0.98854 
-0.01150 3.10400 0.98854 
0.07880 3.15200 1.00383 
0.10456 3.18500 1.01434 
0.19703 3.20200 1.01975 
0.48734 3.36000 1.07007 
0.63097 3.47500 1.10669 
0.74755 3.55500 1.13217 
0.82176 3.55500 1.13217 
0.97440 3.64000 1.15924 
0.98390 3.64000 1.15924 
1.09080 3.55500 1.13217 
1.11324 3.39700 1.08185 
1.21962 3.39700 1.08185 
1.36207 3.04200 0.96879 
1.40846 2.94000 0.93631 
1.56863 3.02700 0.96402 
1.60816 3.04200 0.96879 
1.59963 2.67000 0.85032 
1.61315 2.59100 0.82516 
1.62627 2.56900 0.81816 
1.67400 2.59100 0.82516 
1.72337 2.62500 0.83599 
1.72294 2.48600 0.79172 
1.76543 2.44600 0.77898 
1.77669 2.34300 0.74618 
1.78280 2.34300 0.74618 
-1.63729 2.13100 0.67310 
-1.60919 2.13800 0.67531 
-1.45608 2.17600 0.68732 
-1.40958 2.19200 0.69237 
-1.36880 2.20000 0.69490 
-1.30876 2.26500 0.71543 
-1.26942 2.29000 0.72333 
-1.26241 2.29900 0.72617 
-1.24757 2.31600 0.73154 
-0.62795 1.83100 0.57834 
-0.65263 2.70600 0.85473 
-0.60053 2.69400 0.85093 
-0.26667 2.88500 0.91126 
-0.11564 3.07300 0.97065 
-0.07631 3.10400 0.98044 
0.10456 3.18500 1.00602 
0.24979 3.23600 1.02213 
0.25959 3.25300 1.02750 
0.39109 3.28800 1.03856 
0.40825 3.28800 1.03856 
0.65266 3.49400 1.10363 
0.97440 3.64000 1.14974 
1.23008 3.30600 1.04424 
1.34298 3.18500 1.00602 
1.37587 2.96900 0.93780 
1.63183 3.02700 0.95612 
1.54382 2.68200 0.84714 
1.77242 2.37000 0.74860 
1.78124 2.32500 0.73438 
1.79852 2.31600 0.73154 
1.92100 2.28200 0.72080 
-1.63709 2.13800 0.66974 
-1.57592 2.16900 0.67945 
-1.42724 2.18400 0.68415 
-1.37526 2.19200 0.68665 
-1.27690 2.28200 0.71484 
-1.24153 2.31600 0.72549 
-1.23899 2.33400 0.73113 
-1.10147 2.37900 0.74523 
-1.06869 2.38900 0.74836 
-0.98697 2.34300 0.73395 
-0.77751 1.91700 0.60051 
-0.67642 1.82000 0.57012 
-0.66217 1.82000 0.57012 
-0.64018 1.82500 0.57169 
-0.61132 1.85300 0.58046 
-0.62865 2.69400 0.84390 
-0.60756 2.69400 0.84390 
-0.59350 2.69400 0.84390 
-0.58647 2.69400 0.84390 
-0.20470 2.96900 0.93005 
-0.17623 3.01200 0.94352 
-0.16131 3.02700 0.94822 
-0.13902 3.05800 0.95793 
-0.01150 3.10400 0.97234 
0.15607 3.21900 1.00836 
0.20539 3.20200 1.00304 
0.28506 3.25300 1.01901 
0.31901 3.25300 1.01901 
0.37844 3.25300 1.01901 
0.63097 3.47500 1.08856 
0.81249 3.55500 1.11362 
0.88261 3.57600 1.12019 
0.92534 3.59700 1.12677 
0.98984 3.66200 1.14713 
1.11616 3.37900 1.05848 
1.14870 3.39700 1.06412 
1.21962 3.39700 1.06412 
1.34298 3.18500 0.99771 
1.35991 3.07300 0.96263 
1.41614 2.94000 0.92096 
1.47659 2.96900 0.93005 
1.60022 3.04200 0.95292 
1.68709 2.58000 0.80819 
1.71856 2.53700 0.79472 
1.75172 2.42700 0.76027 
1.90865 2.32500 0.72831 
1.91731 2.29900 0.72017 
-1.64321 2.14600 0.66664 
-1.63201 2.14600 0.66664 
-1.62641 2.14600 0.66664 
-1.59266 2.16100 0.67130 
-1.50811 2.15300 0.66882 
-1.49126 2.15300 0.66882 
-1.24028 2.32500 0.72225 
-1.06869 2.38900 0.74213 
-0.73307 1.83100 0.56879 
-0.72114 1.82500 0.56692 
-0.68403 1.81500 0.56382 
-0.64018 1.82500 0.56692 
-0.63065 1.82500 0.56692 
-0.60742 1.91700 0.59550 
-0.72646 2.71800 0.84433 
-0.64557 2.70600 0.84060 
-0.62865 2.69400 0.83687 
-0.51594 2.73000 0.84806 
-0.51105 2.74200 0.85179 
-0.47961 2.76700 0.85955 
-0.38549 2.81800 0.87539 
-0.23228 2.92600 0.90894 
-0.21138 2.95400 0.91764 
0.05357 3.12000 0.96921 
0.12247 3.21900 0.99996 
0.20539 3.20200 0.99468 
0.40602 3.27000 1.01581 
0.42541 3.28800 1.02140 
0.72489 3.53500 1.09813 
0.96490 3.64000 1.13074 
0.98984 3.66200 1.13758 
1.01502 3.68400 1.14441 
1.14870 3.39700 1.05526 
1.33361 3.30600 1.02699 
1.33493 3.28800 1.02140 
1.34892 3.21900 0.99996 
1.35129 3.18500 0.98940 
1.38362 2.96900 0.92230 
1.41614 2.94000 0.91329 
1.55300 3.01200 0.93566 
1.60798 2.88500 0.89621 
1.60007 2.62500 0.81544 
1.61286 2.56900 0.79804 
1.64665 2.55900 0.79494 
1.70672 2.56900 0.79804 
1.71838 2.52700 0.78500 
1.77185 2.36100 0.73343 
1.79423 2.33400 0.72504 
1.81859 2.33400 0.72504 
-1.67105 2.15300 0.66320 
-1.61486 2.15300 0.66320 
-1.55883 2.16100 0.66566 
-1.43904 2.17600 0.67028 
-1.42154 2.18400 0.67275 
-1.41530 2.19200 0.67521 
-1.40386 2.19200 0.67521 
-1.31003 2.25700 0.69523 
-1.30285 2.26500 0.69770 
-1.23290 2.33400 0.71895 
-1.20097 2.34300 0.72172 
-1.00688 2.36100 0.72727 
-0.67930 1.81500 0.55908 
-0.66035 1.81500 0.55908 
-0.64318 1.82000 0.56062 
-0.62317 1.83100 0.56401 
-0.60769 1.84200 0.56740 
-0.66676 2.70600 0.83354 
-0.49909 2.75500 0.84863 
-0.46937 2.79200 0.86003 
-0.46208 2.79200 0.86003 
-0.31483 2.84400 0.87605 
-0.17541 2.99800 0.92349 
-0.16837 3.01200 0.92780 
-0.15417 3.04200 0.93704 
-0.01145 3.08900 0.95152 
0.01273 3.08900 0.95152 
0.07880 3.15200 0.97092 
0.22210 3.20200 0.98633 
0.27657 3.25300 1.00204 
0.32750 3.25300 1.00204 
0.52241 3.36000 1.03500 
0.89718 3.59700 1.10800 
0.98029 3.66200 1.12802 
1.05989 3.64000 1.12125 
1.06322 3.61900 1.11478 
1.07225 3.55500 1.09506 
1.13097 3.39700 1.04639 
1.23535 3.41600 1.05225 
1.37001 3.04200 0.93704 
1.37366 2.99800 0.92349 
1.60692 2.62500 0.80859 
1.60630 2.58000 0.79473 
1.61956 2.56900 0.79134 
1.62627 2.56900 0.79134 
1.68004 2.55900 0.78826 
1.69340 2.55900 0.78826 
1.72638 2.42700 0.74760 
1.92175 2.29000 0.70540 
-1.62641 2.14600 0.65544 
-1.54191 2.16100 0.66002 
-1.53058 2.15300 0.65758 
-1.51935 2.15300 0.65758 
-1.48002 2.15300 0.65758 
-1.46860 2.16100 0.66002 
-1.43337 2.17600 0.66460 
-1.42154 2.18400 0.66705 
-1.39242 2.19200 0.66949 
-1.38098 2.19200 0.66949 
-1.37526 2.19200 0.66949 
-1.14242 2.36100 0.72111 
-1.02308 2.37000 0.72386 
-0.60362 1.90500 0.58183 
-0.66676 2.70600 0.82648 
-0.65263 2.70600 0.82648 
-0.49405 2.76700 0.84511 
-0.48911 2.78000 0.84908 
-0.44959 2.80500 0.85672 
-0.37814 2.81800 0.86069 
-0.36343 2.81800 0.86069 
-0.27420 2.88500 0.88115 
-0.24637 2.91200 0.88940 
-0.22464 2.92600 0.89367 
-0.18231 2.98300 0.91108 
-0.15265 3.01200 0.91994 
-0.03581 3.10400 0.94804 
0.13927 3.21900 0.98316 
0.17196 3.20200 0.97797 
0.20430 3.18500 0.97278 
0.21261 3.18500 0.97278 
0.35957 3.23600 0.98835 
0.36802 3.23600 0.98835 
0.39542 3.25300 0.99355 
0.80792 3.53500 1.07968 
1.08119 3.43600 1.04944 
1.27488 3.37900 1.03203 
1.30453 3.34200 1.02073 
1.31325 3.34200 1.02073 
1.31485 3.32400 1.01523 
1.41785 2.91200 0.88940 
1.48519 2.94000 0.89795 
1.60802 3.01200 0.91994 
1.61385 2.65900 0.81212 
1.63996 2.58000 0.78800 
1.71551 2.46600 0.75318 
1.72638 2.42700 0.74127 
1.73914 2.43600 0.74401 
1.82114 2.36100 0.72111 
1.82731 2.36100 0.72111 
1.84489 2.35200 0.71836 
1.91467 2.37000 0.72386 
-1.66001 2.14600 0.64984 
-1.65441 2.14600 0.64984 
-1.64881 2.14600 0.64984 
-1.53058 2.15300 0.65196 
-1.48641 2.14600 0.64984 
-1.44472 2.17600 0.65893 
-1.43337 2.17600 0.65893 
-1.40386 2.19200 0.66377 
-1.37526 2.19200 0.66377 
-1.36954 2.19200 0.66377 
-1.36382 2.19200 0.66377 
-1.31616 2.20800 0.66862 
-1.28735 2.29000 0.69345 
-1.27441 2.29900 0.69617 
-1.18568 2.32500 0.70404 
-1.09986 2.38900 0.72343 
-1.08739 2.38900 0.72343 
-1.07897 2.39800 0.72615 
-0.96127 2.28200 0.69102 
-0.77761 1.90500 0.57686 
-0.74228 1.84200 0.55779 
-0.60124 1.88200 0.56990 
-0.73071 2.55900 0.77490 
-0.75519 2.69400 0.81578 
-0.72646 2.71800 0.82305 
-0.68088 2.70600 0.81942 
-0.51571 2.76700 0.83789 
-0.44959 2.80500 0.84940 
-0.27287 2.87100 0.86938 
0.38490 3.23600 0.97991 
0.59352 3.41600 1.03442 
0.61493 3.43600 1.04047 
0.76179 3.53500 1.07045 
1.01141 3.70600 1.12223 
1.26394 3.39700 1.02866 
1.38362 2.96900 0.89906 
1.39975 2.95400 0.89452 
1.60710 2.71800 0.82305 
1.64020 2.59100 0.78459 
1.71496 2.45600 0.74371 
1.73351 2.44600 0.74069 
1.79274 2.46600 0.74674 
1.81293 2.47600 0.74977 
1.88993 2.37000 0.71767 
-1.65441 2.14600 0.64424 
-1.60394 2.16100 0.64874 
-1.47440 2.15300 0.64634 
-1.42769 2.17600 0.65325 
-1.39814 2.19200 0.65805 
-1.39242 2.19200 0.65805 
-1.24508 2.33400 0.70068 
-0.70017 1.82000 0.54637 
-0.69542 1.82000 0.54637 
-0.64141 1.81500 0.54487 
-0.59864 1.90500 0.57189 
-0.73031 2.70600 0.81236 
-0.72646 2.71800 0.81596 
-0.65263 2.70600 0.81236 
-0.56538 2.69400 0.80875 
-0.52536 2.74200 0.82316 
-0.29999 2.84400 0.85378 
-0.29401 2.85800 0.85799 
-0.15194 2.99800 0.90002 
-0.04347 3.07300 0.92253 
0.04498 3.08900 0.92733 
0.13927 3.21900 0.96636 
0.25823 3.23600 0.97146 
0.31735 3.23600 0.97146 
0.42088 3.25300 0.97657 
0.54300 3.37900 1.01439 
0.57569 3.41600 1.02550 
0.62389 3.43600 1.03151 
0.64537 3.45500 1.03721 
0.70737 3.49400 1.04892 
0.77583 3.51500 1.05522 
0.78947 3.53500 1.06123 
0.82637 3.53500 1.06123 
1.12210 3.39700 1.01980 
1.27845 3.43600 1.03151 
1.29775 3.41600 1.02550 
1.35822 3.32400 0.99788 
1.37794 3.04200 0.91322 
1.41703 2.92600 0.87840 
1.44757 2.92600 0.87840 
1.61605 2.96900 0.89131 
1.63557 2.73000 0.81956 
1.65979 2.56900 0.77123 
1.70996 2.48600 0.74631 
1.81751 2.45600 0.73730 
1.82772 2.42700 0.72860 
1.89090 2.37900 0.71419 
1.94873 2.38900 0.71719 
1.92773 2.29000 0.68747 
-1.41014 2.18400 0.64995 
-1.40386 2.19200 0.65233 
-1.31409 2.22400 0.66185 
-1.31003 2.25700 0.67167 
-1.15206 2.34300 0.69727 
-1.01690 2.37000 0.70530 
-0.74913 1.85900 0.55323 
-0.73028 1.83600 0.54639 
-0.66289 1.80900 0.53835 
-0.62418 1.82000 0.54162 
-0.67382 2.70600 0.80529 
-0.62865 2.69400 0.80172 
-0.60053 2.69400 0.80172 
-0.52785 2.75500 0.81988 
-0.48394 2.79200 0.83089 
-0.44227 2.80500 0.83476 
-0.27287 2.87100 0.85440 
-0.22357 2.91200 0.86660 
-0.21701 2.92600 0.87077 
0.00465 3.07300 0.91451 
0.05330 3.10400 0.92374 
0.10512 3.20200 0.95290 
0.15607 3.21900 0.95796 
0.34268 3.23600 0.96302 
0.35957 3.23600 0.96302 
0.39542 3.25300 0.96808 
0.79417 3.51500 1.04605 
0.80792 3.53500 1.05200 
0.97656 3.68400 1.09634 
1.20228 3.47500 1.03415 
1.27483 3.47500 1.03415 
1.38173 3.10400 0.92374 
1.40079 2.94000 0.87493 
1.52424 2.91200 0.86660 
1.60018 2.95400 0.87910 
1.63096 2.94000 0.87493 
1.61463 2.80500 0.83476 
1.64982 2.73000 0.81244 
1.69208 2.53700 0.75500 
1.73482 2.46600 0.73387 
1.74125 2.46600 0.73387 
1.83877 2.47600 0.73685 
1.84672 2.42700 0.72226 
1.94249 2.38900 0.71096 
1.93432 2.33400 0.69459 
-1.61486 2.15300 0.63511 
-1.51441 2.14600 0.63304 
-1.48644 2.13800 0.63068 
-1.38602 2.20000 0.64897 
-1.38028 2.20000 0.64897 
-1.35238 2.19200 0.64661 
-1.31467 2.26500 0.66814 
-1.28383 2.31600 0.68319 
-1.24989 2.34300 0.69115 
-1.04375 2.38900 0.70472 
-0.64873 1.80900 0.53363 
-0.64141 1.81500 0.53540 
-0.60288 1.84200 0.54336 
-0.59487 1.89300 0.55841 
-0.59942 1.97300 0.58201 
-0.70206 2.70600 0.79823 
-0.68088 2.70600 0.79823 
-0.66380 2.69400 0.79469 
-0.46208 2.79200 0.82360 
-0.25161 2.88500 0.85104 
0.07880 3.15200 0.92980 
0.08702 3.15200 0.92980 
0.19598 3.18500 0.93953 
0.20430 3.18500 0.93953 
0.47088 3.30600 0.97522 
0.82637 3.53500 1.04278 
0.88261 3.57600 1.05487 
0.98618 3.68400 1.08673 
1.01141 3.70600 1.09322 
1.05976 3.70600 1.09322 
1.35851 3.20200 0.94455 
1.53183 2.91200 0.85900 
1.62195 2.80500 0.82744 
1.62900 2.79200 0.82360 
1.66281 2.68200 0.79115 
1.68612 2.54800 0.75162 
1.69860 2.52700 0.74543 
1.70381 2.49600 0.73629 
1.72195 2.46600 0.72744 
1.91132 2.38900 0.70472 
1.94873 2.38900 0.70472 
1.93686 2.30800 0.68083 
-1.61477 2.13800 0.62510 
-1.55306 2.15300 0.62949 
-1.39750 2.20000 0.64323 
-1.34406 2.21600 0.64791 
-1.32464 2.23200 0.65258 
-1.26945 2.33400 0.68241 
-1.16141 2.32500 0.67978 
-1.07897 2.39800 0.70112 
-1.04769 2.39800 0.70112 
-0.89903 2.16100 0.63183 
-0.68592 1.82000 0.53213 
-0.64614 1.81500 0.53066 
-0.61943 1.82000 0.53213 
-0.71683 2.68200 0.78415 
-0.69895 2.69400 0.78766 
-0.53504 2.75500 0.80550 
-0.29401 2.85800 0.83561 
-0.20270 2.94000 0.85959 
0.06140 3.10400 0.90754 
0.15607 3.21900 0.94116 
0.33599 3.25300 0.95110 
0.35297 3.25300 0.95110 
0.41683 3.28800 0.96133 
0.59699 3.43600 1.00461 
0.79417 3.51500 1.02770 
0.99579 3.68400 1.07712 
1.32159 3.45500 1.01016 
1.35468 3.25300 0.95110 
1.35732 3.21900 0.94116 
1.39412 3.16900 0.92654 
1.41234 3.13600 0.91689 
1.41278 2.99800 0.87655 
1.53943 2.91200 0.85140 
1.67400 2.59100 0.75755 
1.67363 2.58000 0.75433 
1.67990 2.56900 0.75112 
1.68672 2.55900 0.74819 
1.69340 2.55900 0.74819 
1.69277 2.54800 0.74498 
1.72893 2.47600 0.72392 
1.75478 2.47600 0.72392 
1.85170 2.47600 0.72392 
1.86118 2.44600 0.71515 
1.88882 2.40800 0.70404 
-1.50876 2.13800 0.61952 
-1.44040 2.16100 0.62619 
-1.42724 2.18400 0.63285 
-1.40899 2.20000 0.63749 
-1.26945 2.33400 0.67632 
-1.26211 2.34300 0.67892 
-1.21463 2.33400 0.67632 
-0.71396 1.83100 0.53056 
-0.70209 1.82500 0.52882 
-0.68117 1.82000 0.52738 
-0.66509 1.81500 0.52593 
-0.68884 2.68200 0.77716 
-0.67083 2.69400 0.78063 
-0.63145 2.70600 0.78411 
-0.58005 2.73000 0.79106 
-0.40204 2.83100 0.82033 
-0.34452 2.84400 0.82410 
-0.33875 2.85800 0.82815 
-0.28785 2.87100 0.83192 
-0.16596 2.96900 0.86032 
-0.04347 3.07300 0.89045 
0.28655 3.27000 0.94754 
0.43399 3.28800 0.95275 
0.59352 3.41600 0.98984 
0.72560 3.49400 1.01245 
0.75748 3.51500 1.01853 
1.01502 3.68400 1.06750 
1.07270 3.68400 1.06750 
1.08152 3.55500 1.03012 
1.10164 3.41600 0.98984 
1.22042 3.47500 1.00694 
1.41536 3.08900 0.89509 
1.42236 2.96900 0.86032 
1.49384 2.91200 0.84380 
1.56223 2.91200 0.84380 
1.62302 2.91200 0.84380 
1.67565 2.64700 0.76701 
1.70001 2.56900 0.74441 
1.71645 2.48600 0.72036 
1.85451 2.50600 0.72616 
1.85363 2.49600 0.72326 
-1.59830 2.16100 0.62055 
-1.49760 2.13800 0.61394 
-1.43476 2.16100 0.62055 
-1.42047 2.20000 0.63175 
-1.35376 2.23200 0.64094 
-1.32320 2.29000 0.65759 
-1.10610 2.38900 0.68602 
-1.09363 2.38900 0.68602 
-0.74142 1.86400 0.53526 
-0.72305 1.84200 0.52894 
-0.70440 1.83100 0.52579 
-0.61637 1.82500 0.52406 
-0.69844 2.44600 0.70239 
-0.53015 2.76700 0.79456 
-0.47155 2.80500 0.80548 
-0.42226 2.81800 0.80921 
-0.31638 2.85800 0.82070 
-0.30892 2.85800 0.82070 
-0.24408 2.88500 0.82845 
-0.16596 2.96900 0.85257 
-0.03545 3.07300 0.88243 
0.14768 3.21900 0.92436 
0.56362 3.39700 0.97547 
0.78500 3.51500 1.00936 
1.09080 3.55500 1.02085 
1.09015 3.43600 0.98667 
1.17733 3.45500 0.99213 
1.18634 3.45500 0.99213 
1.34760 3.23600 0.92924 
1.41604 3.07300 0.88243 
1.48519 2.94000 0.84424 
1.67497 2.85800 0.82070 
1.68988 2.85800 0.82070 
1.70105 2.59100 0.74402 
1.75538 2.48600 0.71387 
1.92478 2.39800 0.68860 
1.94041 2.33400 0.67023 
-1.65884 2.12300 0.60409 
-1.60961 2.14600 0.61064 
-1.48641 2.14600 0.61064 
-1.46878 2.15300 0.61263 
-1.44631 2.15300 0.61263 
-1.43337 2.17600 0.61918 
-1.40767 2.21600 0.63056 
-1.24855 2.35200 0.66926 
-1.22543 2.34300 0.66670 
-1.20245 2.33400 0.66413 
-1.17040 2.34300 0.66670 
-0.73458 1.85900 0.52897 
-0.71112 1.83600 0.52243 
-0.70632 1.83600 0.52243 
-0.53737 2.76700 0.78734 
-0.31638 2.85800 0.81324 
-0.17283 2.95400 0.84055 
-0.10548 3.01200 0.85706 
0.06171 3.12000 0.88779 
0.25110 3.25300 0.92563 
0.51089 3.34200 0.95096 
0.94590 3.64000 1.03575 
1.02463 3.68400 1.04827 
1.07270 3.68400 1.04827 
1.17982 3.43600 0.97771 
1.32159 3.45500 0.98311 
1.33493 3.28800 0.93559 
1.34351 3.28800 0.93559 
1.35015 3.20200 0.91112 
1.43033 3.10400 0.88324 
1.43434 3.02700 0.86133 
1.53920 2.92600 0.83259 
1.67556 2.63600 0.75007 
1.68244 2.63600 0.75007 
1.71856 2.53700 0.72190 
1.71684 2.49600 0.71023 
1.80874 2.50600 0.71308 
1.85709 2.46600 0.70169 
1.86756 2.44600 0.69600 
1.90849 2.41700 0.68775 
1.94981 2.39800 0.68235 
-1.65884 2.12300 0.59855 
-1.47521 2.14600 0.60504 
-1.47440 2.15300 0.60701 
-1.45754 2.15300 0.60701 
-1.44631 2.15300 0.60701 
-1.33516 2.29000 0.64564 
-1.06462 2.40800 0.67891 
-0.91282 2.20800 0.62252 
-0.68529 1.83100 0.51623 
-0.59732 1.82500 0.51454 
-0.58846 1.84200 0.51933 
-0.58499 1.89300 0.53371 
-0.70666 2.67000 0.75277 
-0.66784 2.68200 0.75616 
-0.38727 2.83100 0.79817 
-0.25161 2.88500 0.81339 
-0.20174 2.92600 0.82495 
-0.03545 3.07300 0.86640 
0.33103 3.28800 0.92701 
0.33961 3.28800 0.92701 
0.36535 3.28800 0.92701 
0.53995 3.36000 0.94731 
0.81714 3.53500 0.99665 
0.94590 3.64000 1.02626 
1.00540 3.68400 1.03866 
1.08439 3.47500 0.97974 
1.09272 3.41600 0.96310 
1.16404 3.41600 0.96310 
1.21339 3.45500 0.97410 
1.33616 3.27000 0.92194 
1.40028 3.20200 0.90277 
1.42535 3.20200 0.90277 
1.46020 2.98300 0.84102 
1.53156 2.92600 0.82495 
1.56985 2.89800 0.81706 
1.63014 2.87100 0.80944 
1.63022 2.85800 0.80578 
1.68326 2.88500 0.81339 
1.72005 2.87100 0.80944 
1.70300 2.81800 0.79450 
1.67630 2.65900 0.74967 
1.82585 2.47600 0.69808 
1.94177 2.34300 0.66058 
-1.60919 2.13800 0.59720 
-1.59801 2.15300 0.60139 
-1.44040 2.16100 0.60363 
-1.43294 2.18400 0.61005 
-1.37969 2.26500 0.63268 
-1.16707 2.36100 0.65949 
-1.08905 2.37900 0.66452 
-0.73169 1.86400 0.52067 
-0.60043 1.82000 0.50838 
-0.71735 2.55900 0.71480 
-0.72261 2.60200 0.72681 
-0.71439 2.64700 0.73938 
-0.68184 2.68200 0.74916 
-0.60694 2.75500 0.76955 
-0.49122 2.79200 0.77989 
-0.47665 2.79200 0.77989 
-0.42961 2.81800 0.78715 
-0.40204 2.83100 0.79078 
-0.24408 2.88500 0.80586 
-0.17371 2.96900 0.82933 
0.03710 3.10400 0.86704 
0.18968 3.21900 0.89916 
0.20757 3.23600 0.90391 
0.23412 3.25300 0.90866 
0.33961 3.28800 0.91843 
0.41049 3.30600 0.92346 
0.45362 3.30600 0.92346 
0.49079 3.32400 0.92849 
0.64881 3.37900 0.94385 
0.90267 3.61900 1.01089 
1.08211 3.61900 1.01089 
1.11324 3.39700 0.94888 
1.12210 3.39700 0.94888 
1.15756 3.39700 0.94888 
1.19078 3.41600 0.95419 
1.33071 3.23600 0.90391 
1.37522 3.20200 0.89441 
1.39193 3.20200 0.89441 
1.40028 3.20200 0.89441 
1.52308 2.96900 0.82933 
1.53122 2.94000 0.82123 
1.55447 2.92600 0.81732 
1.70585 2.88500 0.80586 
1.68324 2.65900 0.74273 
1.72247 2.47600 0.69162 
1.83033 2.45600 0.68603 
1.86572 2.42700 0.67793 
1.95439 2.42700 0.67793 
-1.59266 2.16100 0.59799 
-1.55868 2.15300 0.59578 
-1.49201 2.14600 0.59384 
-1.48002 2.15300 0.59578 
-1.45193 2.15300 0.59578 
-1.09112 2.37000 0.65582 
-0.64401 1.80900 0.50058 
-0.63281 1.80400 0.49920 
-0.71118 2.53700 0.70204 
-0.70666 2.67000 0.73884 
-0.68576 2.67000 0.73884 
-0.64557 2.70600 0.74880 
-0.55903 2.76700 0.76568 
-0.29534 2.87100 0.79446 
-0.25161 2.88500 0.79833 
-0.23117 2.91200 0.80581 
-0.12120 3.01200 0.83348 
-0.01961 3.10400 0.85894 
0.18968 3.21900 0.89076 
0.47088 3.30600 0.91483 
0.64000 3.37900 0.93503 
0.66113 3.39700 0.94001 
0.81249 3.55500 0.98374 
0.94206 3.66200 1.01335 
1.08791 3.57600 0.98955 
1.13379 3.37900 0.93503 
1.32921 3.25300 0.90017 
1.36792 3.18500 0.88135 
1.59997 2.84400 0.78699 
1.70996 2.63600 0.72943 
1.72231 2.61300 0.72307 
1.74185 2.47600 0.68516 
1.88957 2.41700 0.66883 
-1.60961 2.14600 0.58824 
-1.41855 2.22400 0.60962 
-1.34113 2.29000 0.62771 
-1.27779 2.31600 0.63484 
-1.18717 2.35200 0.64471 
-1.15915 2.37000 0.64964 
-0.72487 1.85900 0.50957 
-0.61698 1.79900 0.49312 
-0.58855 1.95400 0.53561 
-0.31782 2.87100 0.78697 
-0.21701 2.92600 0.80204 
-0.08272 3.04200 0.83384 
-0.01961 3.10400 0.85084 
0.16448 3.21900 0.88236 
0.18968 3.21900 0.88236 
0.21601 3.23600 0.88702 
0.41911 3.30600 0.90621 
0.54578 3.34200 0.91607 
0.73472 3.49400 0.95774 
0.98618 3.68400 1.00982 
1.12838 3.41600 0.93636 
1.26210 3.41600 0.93636 
1.35960 3.18500 0.87304 
1.36792 3.18500 0.87304 
1.56182 2.96900 0.81383 
1.72943 2.48600 0.68144 
1.80757 2.41700 0.66252 
1.88253 2.40800 0.66006 
1.92175 2.29000 0.62771 
-1.45168 2.16100 0.58671 
-1.36677 2.27300 0.61712 
-1.31723 2.29000 0.62173 
-1.30528 2.29000 0.62173 
-1.29241 2.29900 0.62418 
-1.18717 2.35200 0.63857 
-1.17323 2.36100 0.64101 
-1.17152 2.37000 0.64345 
-1.11162 2.36100 0.64101 
-1.03706 2.41700 0.65621 
-0.79753 1.99200 0.54083 
-0.71094 1.84800 0.50173 
-0.63968 2.20000 0.59730 
-0.68923 2.43600 0.66137 
-0.63705 2.73000 0.74119 
-0.58342 2.78000 0.75477 
-0.08272 3.04200 0.82590 
-0.07518 3.05800 0.83025 
0.04590 3.15200 0.85577 
0.14611 3.18500 0.86473 
0.18968 3.21900 0.87396 
0.31387 3.28800 0.89269 
0.53416 3.32400 0.90247 
0.95162 3.66200 0.99423 
1.09155 3.61900 0.98256 
1.15512 3.41600 0.92744 
1.16404 3.41600 0.92744 
1.21569 3.43600 0.93287 
1.34052 3.21900 0.87396 
1.35129 3.18500 0.86473 
1.42236 2.96900 0.80608 
1.72091 2.88500 0.78328 
1.67803 2.71800 0.73794 
1.70308 2.63600 0.71567 
1.74831 2.47600 0.67223 
1.99056 2.45600 0.66680 
1.99342 2.43600 0.66137 
-1.62024 2.11600 0.56897 
-1.60919 2.13800 0.57489 
-1.59830 2.16100 0.58107 
-1.50249 2.15300 0.57892 
-1.49126 2.15300 0.57892 
-1.45732 2.16100 0.58107 
-1.43337 2.17600 0.58510 
-1.26841 2.29900 0.61818 
-1.21315 2.30800 0.62060 
-1.19636 2.33400 0.62759 
-1.19486 2.34300 0.63001 
-1.15475 2.36100 0.63485 
-1.08493 2.37000 0.63727 
-1.03076 2.41700 0.64991 
-0.77721 1.95400 0.52541 
-0.69007 1.83100 0.49234 
-0.59820 1.79900 0.48373 
-0.59208 1.80900 0.48642 
-0.63270 2.17600 0.58510 
-0.64557 2.70600 0.72762 
-0.64134 2.71800 0.73084 
-0.63705 2.73000 0.73407 
-0.46009 2.78000 0.74751 
-0.18231 2.98300 0.80210 
-0.09066 3.04200 0.81796 
-0.03581 3.10400 0.83464 
0.03767 3.15200 0.84754 
0.05441 3.16900 0.85211 
0.07095 3.16900 0.85211 
0.15525 3.20200 0.86099 
0.22681 3.27000 0.87927 
0.28655 3.27000 0.87927 
0.48547 3.28800 0.88411 
0.57502 3.36000 0.90347 
0.66483 3.41600 0.91853 
0.76179 3.53500 0.95053 
0.90791 3.64000 0.97876 
1.10099 3.61900 0.97311 
1.20672 3.43600 0.92391 
1.28552 3.45500 0.92902 
1.34052 3.21900 0.86556 
1.36324 3.13600 0.84324 
1.37142 3.13600 0.84324 
1.41604 3.07300 0.82630 
1.41065 3.02700 0.81393 
1.57770 2.84400 0.76472 
1.67025 2.69400 0.72439 
1.67627 2.67000 0.71794 
1.69620 2.63600 0.70879 
1.72498 2.52700 0.67949 
1.73129 2.51700 0.67680 
1.73638 2.49600 0.67115 
1.79336 2.39800 0.64480 
1.85365 2.37900 0.63969 
1.96492 2.45600 0.66039 
1.99697 2.45600 0.66039 
1.99522 2.44600 0.65771 
-1.59266 2.16100 0.57543 
-1.57575 2.16100 0.57543 
-1.51441 2.14600 0.57144 
-1.50811 2.15300 0.57330 
-1.43904 2.17600 0.57943 
-1.34422 2.26500 0.60313 
-1.27690 2.28200 0.60765 
-1.22041 2.29900 0.61218 
-1.20712 2.30800 0.61458 
-1.08493 2.37000 0.63108 
-0.74543 1.89900 0.50567 
-0.63831 1.79300 0.47744 
-0.60854 1.78800 0.47611 
-0.58931 1.81500 0.48330 
-0.70284 2.68200 0.71416 
-0.60958 2.76700 0.73680 
-0.45284 2.78000 0.74026 
-0.14479 3.01200 0.80204 
-0.11447 3.04200 0.81003 
0.03767 3.15200 0.83932 
0.06268 3.16900 0.84384 
0.18223 3.23600 0.86168 
0.59591 3.37900 0.89976 
0.74334 3.53500 0.94130 
0.97073 3.66200 0.97512 
0.98984 3.66200 0.97512 
1.15028 3.45500 0.92000 
1.34469 3.27000 0.87074 
1.60024 2.78000 0.74026 
1.67542 2.62500 0.69899 
1.68111 2.60200 0.69286 
1.74125 2.46600 0.65665 
1.99223 2.46600 0.65665 
-1.64165 2.10100 0.55397 
-1.63690 2.10900 0.55608 
-1.56447 2.16100 0.56979 
-1.53620 2.15300 0.56768 
-1.53058 2.15300 0.56768 
-1.48564 2.15300 0.56768 
-1.40114 2.22400 0.58640 
-1.33413 2.24800 0.59273 
-1.25903 2.28200 0.60170 
-1.21564 2.29000 0.60381 
-1.08284 2.37900 0.62727 
-1.07663 2.37900 0.62727 
-1.06020 2.39800 0.63228 
-0.63855 2.21600 0.58429 
-0.71067 2.55900 0.67473 
-0.66084 2.68200 0.70717 
-0.65263 2.70600 0.71349 
-0.23762 2.89800 0.76412 
-0.18921 2.96900 0.78284 
-0.17453 2.98300 0.78653 
-0.12241 3.04200 0.80209 
-0.10654 3.04200 0.80209 
0.04614 3.16900 0.83557 
0.13927 3.21900 0.84876 
0.19168 3.25300 0.85772 
0.30529 3.28800 0.86695 
0.40186 3.30600 0.87170 
0.42541 3.28800 0.86695 
0.50539 3.30600 0.87170 
0.61681 3.39700 0.89569 
0.74334 3.53500 0.93208 
1.26576 3.47500 0.91626 
1.29296 3.47500 0.91626 
1.32017 3.47500 0.91626 
1.32159 3.45500 0.91098 
1.35087 3.30600 0.87170 
1.37001 3.04200 0.80209 
1.38434 2.95400 0.77888 
1.37985 2.91200 0.76781 
1.56841 3.07300 0.81026 
1.56874 3.05800 0.80631 
1.60024 2.78000 0.73301 
1.65888 2.81800 0.74302 
1.66281 2.68200 0.70717 
1.69277 2.54800 0.67183 
1.77738 2.35200 0.62015 
-1.61972 2.10100 0.54849 
-1.40189 2.21600 0.57851 
-1.20966 2.29000 0.59783 
-1.17489 2.35200 0.61402 
-1.16876 2.35200 0.61402 
-0.63653 1.78800 0.46678 
-0.71763 2.65900 0.69416 
-0.56380 2.75500 0.71922 
-0.50881 2.73000 0.71270 
0.14845 3.23600 0.84479 
0.26238 3.28800 0.85837 
0.55450 3.34200 0.87247 
0.57827 3.37900 0.88213 
0.60795 3.39700 0.88683 
0.83147 3.59700 0.93904 
0.94044 3.61900 0.94478 
1.28389 3.47500 0.90719 
1.34687 3.13600 0.81869 
1.35189 3.07300 0.80224 
1.43230 2.92600 0.76387 
1.52877 3.04200 0.79415 
1.56228 2.89800 0.75656 
1.66560 2.53700 0.66231 
1.77595 2.33400 0.60932 
1.79423 2.33400 0.60932 
1.93621 2.43600 0.63595 
-1.60938 2.10900 0.54507 
-1.57553 2.15300 0.55645 
-1.51441 2.14600 0.55464 
-1.47311 2.17600 0.56239 
-1.27469 2.25700 0.58333 
-1.20841 2.29900 0.59418 
-1.20242 2.29900 0.59418 
-1.19174 2.32500 0.60090 
-1.10348 2.37000 0.61253 
-0.57983 1.81500 0.46909 
-0.60200 2.05200 0.53034 
-0.64134 2.71800 0.70247 
-0.56380 2.75500 0.71203 
-0.45072 2.76700 0.71514 
-0.39466 2.83100 0.73168 
-0.33875 2.85800 0.73866 
-0.26667 2.88500 0.74563 
0.01299 3.15200 0.81464 
0.14923 3.25300 0.84074 
0.25380 3.28800 0.84979 
0.39323 3.30600 0.85444 
0.61135 3.41600 0.88287 
0.64182 3.43600 0.88804 
1.03489 3.61900 0.93534 
1.14124 3.59700 0.92965 
1.22241 3.45500 0.89295 
1.24946 3.45500 0.89295 
1.30203 3.47500 0.89812 
1.34813 3.34200 0.86375 
1.34123 3.10400 0.80223 
1.57643 3.07300 0.79422 
1.64716 2.60200 0.67249 
1.64638 2.56900 0.66396 
1.71645 2.48600 0.64251 
1.72294 2.48600 0.64251 
1.91277 2.30800 0.59651 
1.91131 2.29900 0.59418 
-1.59280 2.13100 0.54520 
-1.55306 2.15300 0.55083 
-1.52001 2.14600 0.54904 
-1.47853 2.18400 0.55876 
-1.39750 2.20000 0.56285 
-1.37212 2.22400 0.56899 
-1.36632 2.22400 0.56899 
-1.36052 2.22400 0.56899 
-1.35471 2.22400 0.56899 
-1.32464 2.23200 0.57104 
-1.28720 2.24800 0.57513 
-1.23627 2.27300 0.58153 
-1.10546 2.36100 0.60404 
-1.07897 2.39800 0.61351 
-1.04337 2.41700 0.61837 
-0.77212 1.95400 0.49992 
-0.59620 1.79300 0.45872 
-0.57404 1.84200 0.47126 
-0.57300 1.87000 0.47842 
-0.72059 2.67000 0.68310 
-0.67484 2.68200 0.68617 
-0.66784 2.68200 0.68617 
-0.66084 2.68200 0.68617 
-0.25914 2.88500 0.73810 
-0.20270 2.94000 0.75218 
-0.05951 3.07300 0.78620 
0.91061 3.57600 0.91489 
1.01600 3.61900 0.92589 
1.10154 3.68400 0.94252 
1.24259 3.43600 0.87907 
1.35087 3.30600 0.84581 
1.34123 3.10400 0.79413 
1.34387 3.07300 0.78620 
1.35650 3.01200 0.77060 
1.41103 2.89800 0.74143 
1.55472 2.89800 0.74143 
1.56387 2.76700 0.70792 
1.63292 2.54800 0.65189 
1.63249 2.53700 0.64907 
1.77072 2.42700 0.62093 
1.76377 2.33400 0.59714 
1.88638 2.38900 0.61121 
-1.59790 2.12300 0.53761 
-1.55868 2.15300 0.54521 
-1.49687 2.15300 0.54521 
-1.47251 2.19200 0.55509 
-1.37454 2.20000 0.55711 
-1.19174 2.32500 0.58877 
-1.12148 2.34300 0.59332 
-1.10348 2.37000 0.60016 
-1.09526 2.37900 0.60244 
-1.04337 2.41700 0.61206 
-0.91762 2.24800 0.56927 
-0.88580 2.18400 0.55306 
-0.67047 1.80400 0.45683 
-0.71683 2.68200 0.67917 
-0.69192 2.69400 0.68221 
-0.63705 2.73000 0.69132 
-0.59793 2.78000 0.70399 
-0.57347 2.76700 0.70069 
-0.50434 2.70600 0.68525 
-0.44751 2.79200 0.70703 
-0.38727 2.83100 0.71690 
-0.29534 2.87100 0.72703 
0.14075 3.25300 0.82377 
0.33284 3.30600 0.83719 
0.44015 3.27000 0.82807 
0.51681 3.32400 0.84175 
0.58135 3.39700 0.86023 
0.79878 3.61900 0.91645 
0.80823 3.61900 0.91645 
