ply
format ascii 1.0
comment pointcloud saved from Realsense Viewer
element vertex 1871
property float32 x
property float32 y
property float32 z
end_header
2.85949 4.18900 0.86402 
3.00814 4.27600 0.88197 
3.05243 4.30700 0.88836 
3.17503 4.39900 0.90734 
3.43865 4.59800 0.94838 
-1.96367 2.59100 0.52766 
-1.95163 2.60200 0.52990 
-1.94625 2.61300 0.53214 
-1.93943 2.61300 0.53214 
-1.76434 2.64700 0.53906 
-1.70217 2.64700 0.53906 
-1.64729 2.67000 0.54375 
-1.64769 2.68200 0.54619 
-1.54974 2.67000 0.54375 
-1.52948 2.65900 0.54151 
-1.08064 2.30800 0.47002 
-0.98477 2.17600 0.44314 
-0.98196 2.20800 0.44966 
-1.04175 2.60200 0.52990 
-1.06966 2.85800 0.58203 
-1.03560 3.72900 0.75941 
-0.89568 3.59700 0.73253 
-0.85814 3.59700 0.73253 
-0.65716 3.57600 0.72825 
-0.62547 3.55500 0.72398 
-0.46463 3.92000 0.79831 
-0.22145 3.47500 0.70768 
1.08693 3.94500 0.80340 
1.13840 3.94500 0.80340 
1.21599 3.99700 0.81399 
1.24490 4.02300 0.81929 
1.31121 3.70600 0.75473 
1.43993 3.87000 0.78813 
1.49946 3.92000 0.79831 
1.49684 3.64000 0.74129 
1.72271 3.87000 0.78813 
1.82985 3.97100 0.80870 
1.80849 3.77500 0.76878 
1.81705 3.75200 0.76410 
1.89715 3.77500 0.76878 
1.91496 3.75200 0.76410 
1.97639 3.68400 0.75025 
1.98601 3.68400 0.75025 
2.01721 3.70600 0.75473 
2.10100 3.75200 0.76410 
2.13358 3.77500 0.76878 
2.16313 3.77500 0.76878 
2.20350 3.66200 0.74577 
2.31702 3.70600 0.75473 
2.50491 3.84600 0.78324 
2.87042 4.18900 0.85309 
2.91161 4.21700 0.85879 
3.51792 4.70400 0.95797 
-2.01275 2.60200 0.52311 
-1.95163 2.60200 0.52311 
-1.96771 2.71800 0.54643 
-2.01069 2.81800 0.56653 
-1.89678 2.71800 0.54643 
-1.72981 2.64700 0.53215 
-1.52254 2.65900 0.53457 
-1.50072 2.68200 0.53919 
-1.49372 2.68200 0.53919 
-1.26048 2.59100 0.52090 
-1.06202 2.74200 0.55125 
-1.04665 2.94000 0.59106 
-1.04392 2.95400 0.59387 
-1.03860 2.98300 0.59970 
-0.85394 3.61900 0.72757 
-0.84498 3.66200 0.73621 
-0.72591 3.64000 0.73179 
-0.56222 3.75200 0.75430 
-0.40821 3.87000 0.77803 
0.07127 0.29500 0.05931 
0.07435 0.29500 0.05931 
1.11381 3.89500 0.78305 
1.20808 3.97100 0.79833 
1.29989 3.72900 0.74968 
1.49684 3.64000 0.73179 
1.52683 3.55500 0.71470 
1.54518 3.57600 0.71892 
1.77668 3.94500 0.79311 
1.80235 3.84600 0.77320 
1.79747 3.75200 0.75430 
1.81705 3.75200 0.75430 
1.94329 3.64000 0.73179 
1.98370 3.66200 0.73621 
2.02446 3.68400 0.74063 
2.04369 3.68400 0.74063 
2.19268 3.77500 0.75893 
2.18912 3.75200 0.75430 
2.19516 3.72900 0.74968 
2.61057 3.94500 0.79311 
2.85949 4.18900 0.84216 
3.00814 4.27600 0.85965 
-1.93463 2.62500 0.52088 
-1.98485 2.79200 0.55402 
-1.93698 2.75500 0.54668 
-1.78507 2.64700 0.52525 
-1.66826 2.65900 0.52763 
-1.64769 2.68200 0.53219 
-1.59170 2.68200 0.53219 
-1.38704 2.70600 0.53695 
-1.03007 2.47600 0.49132 
-1.03600 2.99800 0.59490 
-1.08447 3.23600 0.64212 
-1.13727 3.61900 0.71812 
-1.04855 3.70600 0.73539 
-0.95580 3.68400 0.73102 
-0.92005 3.61900 0.71812 
-0.85453 3.66200 0.72665 
-0.60243 3.64000 0.72229 
-0.56850 3.72900 0.73995 
-0.55242 3.75200 0.74451 
-0.39317 3.82200 0.75840 
-0.30982 3.66200 0.72665 
0.07127 0.29500 0.05854 
1.16463 3.89500 0.77289 
1.31236 3.82200 0.75840 
1.42097 3.84600 0.76317 
1.62068 3.68400 0.73102 
1.71132 3.82200 0.75840 
1.76433 3.89500 0.77289 
1.91685 3.77500 0.74908 
1.95097 3.61900 0.71812 
2.11731 3.72900 0.73995 
2.16313 3.77500 0.74908 
2.38971 3.77500 0.74908 
2.65541 3.99700 0.79313 
2.87042 4.18900 0.83123 
3.28221 4.56400 0.90564 
-2.05280 2.63600 0.51619 
-2.02807 2.61300 0.51168 
-1.97880 2.60200 0.50953 
-1.97201 2.60200 0.50953 
-1.88135 2.70600 0.52989 
-1.85766 2.68200 0.52519 
-1.82091 2.65900 0.52069 
-1.77928 2.65900 0.52069 
-1.75744 2.64700 0.51834 
-1.70989 2.65900 0.52069 
-1.66819 2.67000 0.52284 
-1.59170 2.68200 0.52519 
-1.50002 2.70600 0.52989 
-1.49249 2.71800 0.53224 
-1.30988 2.63600 0.51619 
-1.04411 2.59100 0.50737 
-1.05749 2.69400 0.52754 
-1.05956 2.83100 0.55437 
-1.04166 2.92600 0.57297 
-1.03621 2.95400 0.57846 
-1.14242 3.57600 0.70026 
-1.12487 3.64000 0.71279 
-1.03888 3.70600 0.72571 
-0.85814 3.59700 0.70437 
-0.85453 3.66200 0.71710 
-0.61050 3.57600 0.70026 
-0.59651 3.66200 0.71710 
-0.46715 3.77500 0.73923 
-0.29846 3.64000 0.71279 
0.07127 0.29500 0.05777 
0.07281 0.29500 0.05777 
1.03652 3.79800 0.74373 
1.05634 3.79800 0.74373 
1.18496 3.89500 0.76272 
1.29553 4.05000 0.79308 
1.30412 3.79800 0.74373 
1.52217 3.79800 0.74373 
1.50965 3.51500 0.68831 
1.81564 3.72900 0.73022 
1.87580 3.75200 0.73472 
1.93592 3.66200 0.71710 
2.24558 3.68400 0.72141 
2.30220 3.72900 0.73022 
2.80979 4.13200 0.80913 
3.34392 4.63300 0.90724 
3.38137 4.66800 0.91409 
-2.07765 2.65900 0.51375 
-2.03739 2.62500 0.50718 
-1.96927 2.73000 0.52747 
-1.98152 2.76700 0.53462 
-2.00142 2.80500 0.54196 
-1.84238 2.67000 0.51588 
-1.67516 2.67000 0.51588 
-1.62694 2.69400 0.52051 
-1.53555 2.69400 0.52051 
-1.49958 2.71800 0.52515 
-1.47770 2.73000 0.52747 
-1.28482 2.61300 0.50486 
-0.98629 2.19200 0.42352 
-0.98414 2.20000 0.42507 
-1.02064 2.40800 0.46525 
-1.03423 2.48600 0.48032 
-1.04411 2.59100 0.50061 
-1.06202 2.74200 0.52979 
-1.06205 2.81800 0.54447 
-1.04682 2.89800 0.55993 
-1.02818 2.99800 0.57925 
-1.02310 3.68400 0.71179 
-0.95389 3.64000 0.70329 
-0.89045 3.57600 0.69093 
-0.80675 3.66200 0.70754 
-0.72172 3.61900 0.69923 
-0.48389 3.75200 0.72493 
-0.38597 3.75200 0.72493 
0.05661 0.32100 0.06202 
1.02396 3.75200 0.72493 
1.09920 3.77500 0.72937 
1.25990 3.97100 0.76724 
1.30789 4.02300 0.77729 
1.30154 3.70600 0.71604 
1.48854 3.59700 0.69498 
1.95717 3.68400 0.71179 
1.99819 3.61900 0.69923 
2.13677 3.72900 0.72049 
2.27149 3.77500 0.72937 
2.47005 3.87000 0.74773 
3.38137 4.66800 0.90191 
-1.98152 2.76700 0.52740 
-1.93820 2.76700 0.52740 
-1.86597 2.69400 0.51348 
-1.74484 2.67000 0.50891 
-1.54961 2.69400 0.51348 
-1.50667 2.71800 0.51806 
-1.47058 2.73000 0.52034 
-1.38704 2.70600 0.51577 
-1.26583 2.60200 0.49595 
-1.06202 2.74200 0.52263 
-1.05953 2.79200 0.53216 
-1.03926 2.89800 0.55237 
-1.10300 3.66200 0.69799 
-0.87179 3.57600 0.68159 
-0.83542 3.66200 0.69799 
-0.80675 3.66200 0.69799 
-0.60117 3.57600 0.68159 
0.06089 0.32600 0.06214 
0.07050 0.29500 0.05623 
1.00540 3.68400 0.70218 
1.51896 3.97100 0.75688 
1.53083 3.87000 0.73763 
1.48134 3.53500 0.67378 
1.63932 3.64000 0.69379 
1.89715 3.77500 0.71952 
2.15974 3.75200 0.71514 
2.28980 3.82200 0.72848 
2.49024 3.87000 0.73763 
3.14031 4.43100 0.84456 
3.19882 4.49700 0.85714 
3.30666 4.59800 0.87639 
3.35601 4.63300 0.88306 
-2.15450 2.73000 0.51322 
-1.36774 2.68200 0.50420 
-1.27941 2.60200 0.48916 
-0.99263 2.23200 0.41960 
-1.03653 2.47600 0.46547 
-1.03601 2.50600 0.47111 
-1.05514 2.70600 0.50871 
-1.05738 2.73000 0.51322 
-1.12375 3.57600 0.67226 
-0.74550 3.59700 0.67621 
-0.70382 3.57600 0.67226 
-0.66429 3.51500 0.66079 
-0.62046 3.47500 0.65327 
-0.60350 3.53500 0.66455 
-0.58006 3.61900 0.68035 
-0.33702 3.75200 0.70535 
1.15392 3.72900 0.70102 
1.18786 3.77500 0.70967 
1.47985 3.57600 0.67226 
1.89715 3.77500 0.70967 
1.92853 3.79800 0.71400 
1.99058 3.82200 0.71851 
2.05728 3.64000 0.68429 
2.42012 3.92000 0.73693 
3.49611 4.74100 0.89127 
-2.12144 2.70600 0.50165 
-2.03054 2.62500 0.48663 
-1.94625 2.61300 0.48441 
-1.93993 2.67000 0.49497 
-1.72393 2.67000 0.49497 
-1.71768 2.68200 0.49720 
-1.67616 2.69400 0.49942 
-1.59179 2.69400 0.49942 
-1.55651 2.70600 0.50165 
-1.43574 2.71800 0.50387 
-1.38089 2.69400 0.49942 
-1.04212 2.88500 0.53483 
-1.03926 2.89800 0.53724 
-1.00144 2.89800 0.53724 
-1.01048 2.96900 0.55040 
-1.13210 3.51500 0.65162 
-0.99311 3.57600 0.66293 
-0.98955 3.59700 0.66682 
-0.95200 3.59700 0.66682 
-0.93712 3.57600 0.66293 
-0.92778 3.57600 0.66293 
-0.54229 3.61900 0.67090 
-0.50396 3.68400 0.68295 
-0.43065 3.55500 0.65904 
-0.37498 3.55500 0.65904 
-0.36787 3.57600 0.66293 
-0.29603 3.72900 0.69129 
0.06298 0.32800 0.06081 
0.06747 0.32900 0.06099 
1.13319 3.66200 0.67887 
1.17338 3.72900 0.69129 
1.24254 3.82200 0.70853 
1.25252 3.82200 0.70853 
1.31935 3.72900 0.69129 
1.39215 3.82200 0.70853 
1.42983 3.87000 0.71743 
1.48734 3.64000 0.67479 
1.71740 3.70600 0.68703 
1.88559 3.75200 0.69556 
1.94072 3.82200 0.70853 
2.13326 3.70600 0.68703 
2.17933 3.75200 0.69556 
2.52821 3.94500 0.73134 
2.82058 4.13200 0.76600 
3.14031 4.43100 0.82143 
3.44227 4.66800 0.86537 
-2.16397 2.74200 0.50116 
-1.93463 2.62500 0.47978 
-1.94394 2.64700 0.48380 
-1.70428 2.69400 0.49239 
-1.69022 2.69400 0.49239 
-1.66950 2.70600 0.49458 
-1.64831 2.70600 0.49458 
-1.58476 2.69400 0.49239 
-1.57770 2.70600 0.49458 
-1.55651 2.70600 0.49458 
-1.53505 2.71800 0.49678 
-1.44284 2.71800 0.49678 
-1.22626 2.54800 0.46571 
-1.04478 2.83100 0.51743 
-0.99868 2.91200 0.53224 
-1.01726 3.01200 0.55051 
-1.04910 3.57600 0.65360 
-0.98172 3.53500 0.64610 
-0.89450 3.55500 0.64976 
-0.70382 3.57600 0.65360 
-0.62953 3.47500 0.63514 
-0.56660 3.53500 0.64610 
-0.47328 3.59700 0.65744 
-0.43745 3.53500 0.64610 
-0.36571 3.55500 0.64976 
0.98319 3.53500 0.64610 
1.01658 3.55500 0.64976 
1.45854 3.92000 0.71647 
1.51931 3.94500 0.72104 
1.51226 3.79800 0.69417 
1.46378 3.51500 0.64245 
1.52896 3.45500 0.63148 
1.77893 3.77500 0.68997 
1.81564 3.72900 0.68156 
1.82537 3.72900 0.68156 
1.91862 3.79800 0.69417 
1.95069 3.82200 0.69856 
2.05892 3.72900 0.68156 
2.14294 3.70600 0.67736 
2.47321 4.02300 0.73530 
2.54897 4.07700 0.74517 
2.57656 4.10400 0.75010 
2.80146 4.10400 0.75010 
3.18700 4.46400 0.81590 
3.36558 4.56400 0.83418 
3.42513 4.56400 0.83418 
-1.99398 2.61300 0.47077 
-1.95989 2.61300 0.47077 
-1.94865 2.68200 0.48320 
-1.98874 2.76700 0.49851 
-1.86722 2.70600 0.48752 
-1.78067 2.68200 0.48320 
-1.71834 2.69400 0.48536 
-1.66950 2.70600 0.48752 
-1.54214 2.71800 0.48969 
-1.29299 2.60200 0.46879 
-1.16440 2.44600 0.44068 
-1.07643 2.29900 0.41420 
-1.04668 2.24800 0.40501 
-1.00345 2.19200 0.39492 
-1.10164 3.53500 0.63688 
-1.04629 3.53500 0.63688 
-1.00368 3.51500 0.63328 
-0.91714 3.53500 0.63688 
-0.87179 3.57600 0.64427 
-0.79243 3.59700 0.64805 
-0.75981 3.57600 0.64427 
-0.69449 3.57600 0.64427 
-0.62385 3.49400 0.62949 
-0.56053 3.55500 0.64048 
-0.54815 3.53500 0.63688 
-0.52960 3.59700 0.64805 
-0.42326 3.49400 0.62949 
-0.40282 3.47500 0.62607 
-0.34052 3.68400 0.66372 
-0.29603 3.72900 0.67183 
0.05919 0.32600 0.05873 
0.06726 0.32800 0.05909 
0.07127 0.29500 0.05315 
1.05369 3.55500 0.64048 
1.26874 3.75200 0.67598 
1.39086 3.84600 0.69291 
1.45854 3.92000 0.70624 
1.46526 3.47500 0.62607 
1.55595 3.47500 0.62607 
1.82819 3.77500 0.68012 
2.05910 3.89500 0.70174 
2.13021 3.68400 0.66372 
2.15261 3.70600 0.66769 
2.59414 4.13200 0.74444 
2.60492 4.13200 0.74444 
2.53851 3.94500 0.71075 
2.53265 3.92000 0.70624 
2.51495 3.84600 0.69291 
2.51920 3.82200 0.68859 
2.82288 4.10400 0.73939 
3.17500 4.43100 0.79831 
-2.13085 2.71800 0.48259 
-2.09563 2.68200 0.47620 
-2.00080 2.61300 0.46395 
-1.95275 2.65900 0.47212 
-1.94581 2.65900 0.47212 
-1.76755 2.69400 0.47833 
-1.73305 2.70600 0.48046 
-1.59182 2.70600 0.48046 
-1.45702 2.71800 0.48259 
-1.40822 2.70600 0.48046 
-0.99773 2.19200 0.38920 
-1.01043 2.29900 0.40820 
-1.01640 2.39800 0.42578 
-0.98484 2.47600 0.43962 
-0.98628 2.49600 0.44318 
-1.05075 3.18500 0.56551 
-1.08319 3.53500 0.62765 
-0.99226 3.47500 0.61700 
-0.82059 3.59700 0.63866 
-0.61473 3.49400 0.62037 
0.06279 0.32700 0.05806 
0.07358 0.29500 0.05238 
0.97396 3.53500 0.62765 
0.98875 3.55500 0.63121 
1.18312 3.72900 0.66210 
1.24697 3.77500 0.67027 
1.26874 3.75200 0.66618 
1.29812 3.75200 0.66618 
1.51991 3.92000 0.69601 
1.74851 3.75200 0.66618 
1.82819 3.77500 0.67027 
2.10612 3.94500 0.70045 
2.09702 3.79800 0.67435 
2.07839 3.72900 0.66210 
2.07927 3.66200 0.65020 
2.48513 4.07700 0.72389 
2.49577 4.07700 0.72389 
2.60133 3.87000 0.68714 
2.75667 4.02300 0.71430 
2.98774 4.24700 0.75407 
3.18685 4.36800 0.77556 
3.30131 4.39900 0.78106 
3.31279 4.39900 0.78106 
-1.98034 2.61300 0.45713 
-2.02432 2.85800 0.49999 
-1.99956 2.84400 0.49754 
-1.78864 2.69400 0.47130 
-1.77542 2.70600 0.47340 
-1.76836 2.70600 0.47340 
-1.74718 2.70600 0.47340 
-1.73305 2.70600 0.47340 
-1.56367 2.69400 0.47130 
-1.52086 2.71800 0.47550 
-1.42941 2.70600 0.47340 
-1.39495 2.69400 0.47130 
-1.02970 2.22400 0.38908 
-1.00140 2.26500 0.39625 
-1.01014 2.39800 0.41952 
-0.99388 2.38900 0.41794 
-1.05075 3.18500 0.55720 
-1.07615 3.28800 0.57522 
-1.10164 3.53500 0.61843 
-0.94526 3.43600 0.60111 
-0.85814 3.59700 0.62928 
-0.81120 3.59700 0.62928 
-0.67040 3.59700 0.62928 
-0.60562 3.49400 0.61126 
-0.49506 3.61900 0.63312 
-0.44920 3.55500 0.62193 
-0.40050 3.45500 0.60443 
-0.33987 3.57600 0.62560 
-0.32129 3.68400 0.64450 
0.05579 0.32600 0.05703 
0.05749 0.32600 0.05703 
0.06706 0.32700 0.05721 
1.00393 3.57600 0.62560 
1.05992 3.57600 0.62560 
1.06925 3.57600 0.62560 
1.09430 3.59700 0.62928 
1.11688 3.64000 0.63680 
1.18312 3.72900 0.65237 
1.51130 3.84600 0.67284 
1.51093 3.45500 0.60443 
1.51994 3.45500 0.60443 
1.52896 3.45500 0.60443 
1.53797 3.45500 0.60443 
1.55595 3.47500 0.60793 
1.84250 3.84600 0.67284 
1.94072 3.82200 0.66864 
1.98529 3.87000 0.67704 
2.02117 3.92000 0.68578 
2.07627 3.64000 0.63680 
2.52944 4.13200 0.72287 
2.65851 4.21700 0.73774 
2.54880 3.94500 0.69016 
2.73140 3.97100 0.69471 
3.00991 4.24700 0.74299 
3.31279 4.39900 0.76958 
-2.15450 2.73000 0.47047 
-1.96265 2.68200 0.46220 
-1.85191 2.69400 0.46427 
-1.79567 2.69400 0.46427 
-1.74074 2.71800 0.46841 
-1.52852 2.69400 0.46427 
-1.47121 2.71800 0.46841 
-1.12204 2.37000 0.40843 
-1.00917 2.19200 0.37776 
-0.99408 2.18400 0.37638 
-1.00172 2.56900 0.44273 
-1.04478 2.83100 0.48788 
-1.03983 2.85800 0.49253 
-1.03707 2.87100 0.49477 
-1.00448 2.88500 0.49719 
-1.00061 2.94000 0.50667 
-1.12534 3.49400 0.60214 
-0.90939 3.43600 0.59214 
-0.86667 3.55500 0.61265 
-0.82998 3.59700 0.61989 
-0.67450 3.61900 0.62368 
-0.44920 3.55500 0.61265 
-0.33987 3.57600 0.61627 
-0.32696 3.64000 0.62730 
-0.32129 3.68400 0.63488 
0.06685 0.32600 0.05618 
1.21741 3.77500 0.65057 
1.22726 3.77500 0.65057 
1.23711 3.77500 0.65057 
1.30412 3.79800 0.65453 
1.35226 3.82200 0.65866 
1.41874 3.89500 0.67125 
1.44831 3.92000 0.67555 
1.49394 3.75200 0.64660 
1.47784 3.64000 0.62730 
1.48239 3.49400 0.60214 
1.59204 3.53500 0.60920 
1.69760 3.68400 0.63488 
1.75923 3.77500 0.65057 
1.85774 3.77500 0.65057 
2.06430 3.61900 0.62368 
2.47449 4.07700 0.70261 
2.62549 4.21700 0.72674 
2.67742 4.24700 0.73191 
2.61531 3.84600 0.66280 
2.69632 3.92000 0.67555 
3.04532 4.18900 0.72191 
3.05626 4.18900 0.72191 
3.08769 4.21700 0.72674 
-2.02125 2.61300 0.44349 
-1.95519 2.62500 0.44553 
-1.86722 2.70600 0.45928 
-1.79661 2.70600 0.45928 
-1.78405 2.73000 0.46335 
-1.56371 2.68200 0.45520 
-1.50708 2.70600 0.45928 
-1.50002 2.70600 0.45928 
-1.31209 2.61300 0.44349 
-0.98629 2.19200 0.37204 
-1.01184 2.41700 0.41023 
-1.04983 2.80500 0.47608 
-1.01726 3.01200 0.51121 
-1.02984 3.07300 0.52157 
-1.05636 3.20200 0.54346 
-1.06151 3.49400 0.59302 
-0.95603 3.37900 0.57350 
-0.50144 3.59700 0.61050 
-0.37561 3.47500 0.58980 
-0.36159 3.51500 0.59659 
0.00265 0.64200 0.10896 
0.06260 0.32600 0.05533 
0.07204 0.29500 0.05007 
1.06939 3.64000 0.61780 
1.08839 3.64000 0.61780 
1.13038 3.68400 0.62527 
1.47052 3.57600 0.60694 
1.47296 3.51500 0.59659 
1.59177 3.55500 0.60337 
1.65832 3.64000 0.61780 
1.87261 3.84600 0.65276 
1.86601 3.75200 0.63681 
1.88730 3.77500 0.64071 
1.89715 3.77500 0.64071 
1.94072 3.82200 0.64869 
2.16517 3.99700 0.67839 
2.16145 3.97100 0.67398 
2.07374 3.61900 0.61424 
2.63309 4.24700 0.72082 
2.54506 3.84600 0.65276 
2.83858 4.05000 0.68739 
2.89785 4.10400 0.69655 
3.08905 4.18900 0.71098 
-2.17829 2.74200 0.45823 
-2.07765 2.65900 0.44436 
-1.98034 2.61300 0.43667 
-1.84488 2.69400 0.45021 
-1.79829 2.73000 0.45623 
-1.58470 2.68200 0.44820 
-1.54277 2.67000 0.44620 
-1.40198 2.69400 0.45021 
-1.38173 2.68200 0.44820 
-1.08666 2.30800 0.38570 
-1.03923 2.23200 0.37300 
-0.98269 2.18400 0.36498 
-1.02145 2.35200 0.39306 
-1.02869 2.42700 0.40559 
-0.97885 2.39800 0.40074 
-1.05469 2.81800 0.47093 
-1.05217 2.83100 0.47311 
-1.11376 3.51500 0.58741 
-1.03163 3.45500 0.57739 
-0.90682 3.36000 0.56151 
-0.90312 3.37900 0.56468 
-0.88249 3.43600 0.57421 
-0.53885 3.47500 0.58073 
-0.00070 0.64100 0.10712 
0.05749 0.32600 0.05448 
0.06089 0.32600 0.05448 
0.07358 0.29500 0.04930 
0.94793 3.57600 0.59761 
1.03425 3.68400 0.61566 
1.09193 3.68400 0.61566 
1.11116 3.68400 0.61566 
1.20020 3.75200 0.62702 
1.39954 3.87000 0.64674 
1.49189 3.82200 0.63872 
1.48415 3.75200 0.62702 
1.47211 3.53500 0.59075 
1.49979 3.53500 0.59075 
1.52683 3.55500 0.59410 
1.56384 3.57600 0.59761 
1.79111 3.82200 0.63872 
1.89715 3.77500 0.63086 
1.98529 3.87000 0.64674 
2.12352 3.84600 0.64273 
2.62721 4.05000 0.67682 
2.54912 3.82200 0.63872 
2.55294 3.79800 0.63471 
2.88943 4.07700 0.68133 
3.24346 4.33700 0.72478 
-2.00596 2.60200 0.42805 
-2.05600 2.87100 0.47230 
-1.85310 2.70600 0.44515 
-1.81876 2.71800 0.44713 
-1.78600 2.75500 0.45321 
-1.75555 2.73000 0.44910 
-1.74842 2.73000 0.44910 
-1.70481 2.70600 0.44515 
-1.68400 2.71800 0.44713 
-1.50794 2.67000 0.43923 
-1.42234 2.70600 0.44515 
-1.31812 2.62500 0.43183 
-0.98362 2.16100 0.35550 
-1.02937 2.69400 0.44318 
-0.99695 2.88500 0.47460 
-1.10296 3.39700 0.55883 
-1.12293 3.51500 0.57824 
-1.07063 3.49400 0.57479 
-0.90196 3.34200 0.54978 
-0.89021 3.39700 0.55883 
-0.86667 3.55500 0.58482 
-0.86339 3.61900 0.59535 
-0.75535 3.55500 0.58482 
-0.75048 3.57600 0.58827 
-0.57181 3.45500 0.56837 
-0.52355 3.49400 0.57479 
-0.44784 3.61900 0.59535 
-0.41696 3.59700 0.59173 
0.01104 0.64300 0.10578 
0.01270 0.64200 0.10561 
0.06004 0.32600 0.05363 
0.07358 0.29500 0.04853 
1.30412 3.79800 0.62479 
1.48192 3.82200 0.62874 
1.47648 3.68400 0.60604 
1.55425 3.59700 0.59173 
1.89880 3.79800 0.62479 
2.10402 3.77500 0.62101 
2.41551 3.99700 0.65753 
2.60027 3.94500 0.64898 
2.79358 3.97100 0.65325 
2.95140 4.10400 0.67513 
2.98353 4.10400 0.67513 
3.32427 4.39900 0.72366 
-2.15922 2.71800 0.44004 
-1.99917 2.60200 0.42126 
-2.00080 2.61300 0.42304 
-1.97352 2.61300 0.42304 
-1.97574 2.62500 0.42498 
-1.94962 2.63600 0.42676 
-1.96083 2.67000 0.43226 
-1.96440 2.69400 0.43615 
-1.90638 2.74200 0.44392 
-1.83192 2.70600 0.43809 
-1.79319 2.75500 0.44603 
-1.61288 2.69400 0.43615 
-1.50794 2.67000 0.43226 
-1.44284 2.71800 0.44004 
-1.28620 2.60200 0.42126 
-0.98414 2.20000 0.35617 
-1.05370 2.48600 0.40248 
-1.02591 2.46600 0.39924 
-1.07975 3.49400 0.56567 
-1.05574 3.47500 0.56259 
-0.91068 3.34200 0.54106 
-0.87527 3.51500 0.56907 
-0.87102 3.53500 0.57230 
-0.57181 3.45500 0.55935 
-0.54476 3.45500 0.55935 
-0.49206 3.59700 0.58234 
-0.48562 3.61900 0.58590 
-0.47618 3.61900 0.58590 
-0.46673 3.61900 0.58590 
-0.43405 3.66200 0.59287 
-0.38597 3.75200 0.60744 
0.07512 0.29500 0.04776 
1.16365 3.72900 0.60371 
1.43993 3.87000 0.62654 
1.47023 3.87000 0.62654 
1.60145 3.66200 0.59287 
1.90022 3.94500 0.63868 
1.90864 3.92000 0.63464 
1.93074 3.82200 0.61877 
2.15531 4.07700 0.66005 
2.18723 4.07700 0.66005 
2.18331 4.05000 0.65568 
2.17195 3.70600 0.59999 
2.64417 4.24700 0.68758 
2.70942 4.16000 0.67349 
2.54303 3.79800 0.61488 
3.33688 4.43100 0.71736 
-1.99042 2.83100 0.45094 
-1.84604 2.70600 0.43103 
-1.83898 2.70600 0.43103 
-1.84004 2.71800 0.43294 
-1.83391 2.73000 0.43485 
-1.67656 2.70600 0.43103 
-1.66950 2.70600 0.43103 
-1.60570 2.68200 0.42721 
-1.59155 2.67000 0.42530 
-1.50876 2.64700 0.42163 
-1.47884 2.70600 0.43103 
-1.46412 2.71800 0.43294 
-1.40822 2.70600 0.43103 
-1.34213 2.65900 0.42354 
-1.30442 2.62500 0.41813 
-1.02366 2.34300 0.37321 
-1.05589 2.44600 0.38962 
-1.01304 2.46600 0.39280 
-0.98233 2.48600 0.39599 
-1.03854 2.71800 0.43294 
-1.03983 2.85800 0.45524 
-1.03707 2.87100 0.45731 
-1.03460 2.88500 0.45954 
-1.02739 3.04200 0.48455 
-1.06197 3.21900 0.51275 
-0.88549 3.37900 0.53823 
-0.87179 3.57600 0.56961 
-0.85453 3.66200 0.58331 
-0.74430 3.68400 0.58681 
-0.70474 3.72900 0.59398 
-0.50532 3.49400 0.55655 
-0.43927 3.70600 0.59032 
0.00941 0.64600 0.10290 
0.07358 0.29500 0.04699 
0.07692 0.29600 0.04715 
1.06625 3.79800 0.60497 
1.08935 3.77500 0.60131 
1.16615 3.70600 0.59032 
1.43100 3.84600 0.61262 
1.47261 3.79800 0.60497 
1.53542 3.61900 0.57646 
1.67941 3.72900 0.59398 
1.79232 3.84600 0.61262 
1.91079 3.82200 0.60880 
2.15531 4.07700 0.64941 
2.19101 4.10400 0.65371 
2.13677 3.87000 0.61644 
2.64886 3.82200 0.60880 
2.76793 3.92000 0.62441 
2.90200 4.05000 0.64511 
3.36174 4.46400 0.71106 
-2.00698 2.84400 0.44559 
-1.68362 2.70600 0.42397 
-1.66950 2.70600 0.42397 
-1.59155 2.67000 0.41833 
-1.42941 2.70600 0.42397 
-1.11352 2.35200 0.36851 
-1.04880 2.24000 0.35096 
-0.99263 2.23200 0.34970 
-1.06869 2.53700 0.39749 
-1.06207 2.53700 0.39749 
-1.03179 2.68200 0.42021 
-1.04313 2.73000 0.42773 
-1.09712 3.37900 0.52941 
-1.11278 3.45500 0.54132 
-1.06481 3.47500 0.54445 
-1.05574 3.47500 0.54445 
-0.89805 3.36000 0.52644 
-0.89021 3.39700 0.53223 
-0.75006 3.61900 0.56702 
-0.56866 3.43600 0.53834 
-0.55644 3.41600 0.53521 
-0.38801 3.87000 0.60634 
-0.36781 3.87000 0.60634 
1.24150 3.72900 0.58425 
1.35368 3.79800 0.59506 
1.38218 3.82200 0.59882 
1.42097 3.84600 0.60258 
1.46111 3.84600 0.60258 
1.62102 3.72900 0.58425 
1.81360 3.87000 0.60634 
1.91680 3.89500 0.61026 
2.03406 3.94500 0.61809 
2.11990 4.05000 0.63454 
2.28411 3.84600 0.60258 
2.34851 3.92000 0.61418 
2.42594 3.99700 0.62624 
2.52301 4.10400 0.64300 
2.63889 3.82200 0.59882 
2.96390 4.07700 0.63877 
3.38659 4.49700 0.70458 
-2.01275 2.60200 0.40088 
-1.99917 2.60200 0.40088 
-2.00519 2.83100 0.43617 
-1.83482 2.74200 0.42245 
-1.82767 2.74200 0.42245 
-1.80100 2.76700 0.42631 
-1.71187 2.70600 0.41691 
-1.68319 2.69400 0.41506 
-1.66210 2.69400 0.41506 
-1.59155 2.67000 0.41136 
-1.57805 2.65900 0.40967 
-1.54330 2.64700 0.40782 
-1.50185 2.64700 0.40782 
-1.49478 2.65900 0.40967 
-1.48590 2.70600 0.41691 
-1.00748 2.17600 0.33525 
-0.98908 2.22400 0.34265 
-1.05589 2.44600 0.37685 
-1.07767 2.52700 0.38933 
-1.03414 2.67000 0.41136 
-1.00348 2.92600 0.45080 
-1.03493 3.43600 0.52938 
-1.01107 3.41600 0.52630 
-0.90312 3.37900 0.52060 
-0.89146 3.43600 0.52938 
-0.87179 3.57600 0.55095 
-0.87283 3.61900 0.55757 
0.01107 0.64500 0.09937 
1.12077 3.68400 0.56759 
1.12363 3.66200 0.56420 
1.14961 3.68400 0.56759 
1.15922 3.68400 0.56759 
1.30791 3.75200 0.57806 
1.41210 3.82200 0.58885 
1.46270 3.79800 0.58515 
1.46457 3.75200 0.57806 
1.70057 3.79800 0.58515 
1.71048 3.79800 0.58515 
1.74124 3.82200 0.58885 
1.91484 3.99700 0.61581 
1.90272 3.84600 0.59255 
1.90871 3.79800 0.58515 
2.11990 4.05000 0.62398 
2.14467 4.07700 0.62814 
2.20172 4.10400 0.63229 
2.15759 3.94500 0.60780 
2.13356 3.84600 0.59255 
2.32337 3.89500 0.60009 
2.38943 3.97100 0.61180 
2.61449 4.21700 0.64970 
2.73113 4.16000 0.64092 
2.60133 3.87000 0.59624 
2.63223 3.79800 0.58515 
2.97454 4.07700 0.62814 
3.36174 4.46400 0.68776 
-2.05109 2.62500 0.39758 
-2.00596 2.60200 0.39409 
-2.05850 2.88500 0.43696 
-1.88969 2.71800 0.41166 
-1.86722 2.70600 0.40985 
-1.84198 2.74200 0.41530 
-1.81545 2.76700 0.41909 
-1.59852 2.67000 0.40439 
-1.58499 2.65900 0.40273 
-1.49337 2.69400 0.40803 
-1.47884 2.70600 0.40985 
-1.43574 2.71800 0.41166 
-1.41447 2.71800 0.41166 
-1.34674 2.68200 0.40621 
-1.08243 2.29900 0.34820 
-0.98799 2.14600 0.32503 
-0.97119 2.14600 0.32503 
-1.07333 2.54800 0.38592 
-1.02785 2.63600 0.39924 
-1.00348 2.92600 0.44317 
-1.08510 3.34200 0.50617 
-1.02890 3.41600 0.51738 
-0.96485 3.37900 0.51178 
-0.87179 3.57600 0.54161 
-0.74430 3.68400 0.55797 
-0.64782 3.57600 0.54161 
-0.53561 3.39700 0.51450 
0.00434 0.64400 0.09754 
0.07460 0.29600 0.04483 
1.08541 3.66200 0.55464 
1.20964 3.66200 0.55464 
1.21920 3.66200 0.55464 
1.22875 3.66200 0.55464 
1.26286 3.70600 0.56130 
1.44288 3.79800 0.57524 
1.45478 3.75200 0.56827 
1.48609 3.68400 0.55797 
1.64102 3.77500 0.57176 
1.77320 3.87000 0.58614 
2.09527 4.02300 0.60932 
2.11684 3.79800 0.57524 
2.81916 4.39900 0.66627 
2.61814 3.89500 0.58993 
2.79862 3.92000 0.59372 
3.06767 4.16000 0.63007 
3.30131 4.39900 0.66627 
3.33688 4.43100 0.67111 
-1.98034 2.61300 0.38894 
-1.99598 2.81800 0.41946 
-1.87429 2.70600 0.40278 
-1.84713 2.71800 0.40457 
-1.83633 2.75500 0.41008 
-1.82195 2.75500 0.41008 
-1.75555 2.73000 0.40636 
-1.66169 2.68200 0.39921 
-1.64069 2.68200 0.39921 
-1.57111 2.65900 0.39579 
-1.52948 2.64700 0.39400 
-1.46471 2.70600 0.40278 
-1.41447 2.71800 0.40457 
-1.37291 2.70600 0.40278 
-1.00332 2.50600 0.37301 
-1.05005 2.76700 0.41186 
-1.01954 2.88500 0.42943 
-1.07926 3.32400 0.49477 
-0.90794 3.39700 0.50564 
-0.89519 3.41600 0.50847 
-0.74941 3.66200 0.54508 
-0.61473 3.49400 0.52008 
-0.41831 3.87000 0.57604 
0.00266 0.64500 0.09601 
0.00941 0.64600 0.09616 
0.01617 0.64700 0.09631 
1.03715 3.72900 0.55506 
1.04688 3.72900 0.55506 
1.05347 3.68400 0.54836 
1.06629 3.66200 0.54508 
1.08211 3.61900 0.53868 
1.16438 3.64000 0.54181 
1.17388 3.64000 0.54181 
1.33563 3.77500 0.56190 
1.66092 3.79800 0.56533 
1.71203 3.84600 0.57247 
2.17560 3.99700 0.59495 
2.14343 3.77500 0.56190 
2.22996 3.82200 0.56890 
2.25400 3.84600 0.57247 
2.43637 3.99700 0.59495 
2.64173 3.87000 0.57604 
2.65183 3.87000 0.57604 
2.66196 3.79800 0.56533 
3.15399 4.24700 0.63216 
3.33688 4.43100 0.65955 
-2.05109 2.62500 0.38388 
-2.01275 2.60200 0.38051 
-1.95519 2.62500 0.38388 
-1.94962 2.63600 0.38549 
-1.94394 2.64700 0.38709 
-1.88135 2.70600 0.39572 
-1.74074 2.71800 0.39748 
-1.69725 2.69400 0.39397 
-1.62670 2.68200 0.39221 
-1.58458 2.67000 0.39046 
-1.50002 2.70600 0.39572 
-1.25754 2.61300 0.38212 
-0.97873 2.13800 0.31266 
-1.06684 2.51700 0.36808 
-1.06869 2.53700 0.37101 
-1.05498 2.78000 0.40654 
-1.03739 2.83100 0.41400 
-1.03539 3.37900 0.49414 
-0.97696 3.36000 0.49136 
-0.95226 3.39700 0.49677 
-0.94340 3.39700 0.49677 
-0.86409 3.66200 0.53553 
-0.82612 3.70600 0.54196 
-0.58984 3.45500 0.50526 
-0.58082 3.45500 0.50526 
-0.52383 3.43600 0.50248 
-0.45316 3.66200 0.53553 
-0.44199 3.72900 0.54533 
-0.43760 3.77500 0.55205 
-0.38778 3.97100 0.58072 
-0.00071 0.64600 0.09447 
1.14124 3.59700 0.52602 
1.39473 3.77500 0.55205 
1.60156 3.72900 0.54533 
1.87963 3.94500 0.57691 
1.88993 3.94500 0.57691 
1.90663 3.89500 0.56960 
1.93074 3.82200 0.55893 
1.97519 3.87000 0.56595 
2.05782 3.97100 0.58072 
2.15649 3.79800 0.55542 
2.69713 3.99700 0.58452 
2.63889 3.82200 0.55893 
2.97598 4.05000 0.59227 
3.18668 4.27600 0.62532 
3.41998 4.46400 0.65281 
-1.85310 2.70600 0.38866 
-1.64069 2.68200 0.38521 
-1.63370 2.68200 0.38521 
-1.49249 2.71800 0.39038 
-1.42865 2.71800 0.39038 
-1.35772 2.71800 0.39038 
-1.02013 2.54800 0.36597 
-1.03739 2.83100 0.40662 
-1.01201 2.88500 0.41437 
-1.00448 2.88500 0.41437 
-1.00538 2.95400 0.42428 
-1.01253 2.99800 0.43060 
-0.88444 3.51500 0.50486 
-0.58984 3.45500 0.49624 
-0.58082 3.45500 0.49624 
1.05377 3.61900 0.51980 
1.06614 3.59700 0.51664 
1.06925 3.57600 0.51362 
1.07858 3.57600 0.51362 
1.26498 3.68400 0.52913 
1.48734 3.64000 0.52281 
1.78466 3.89500 0.55944 
1.88430 3.87000 0.55585 
2.34851 3.92000 0.56303 
2.36897 3.92000 0.56303 
2.40467 3.94500 0.56662 
2.46766 3.99700 0.57409 
2.66272 4.18900 0.60166 
2.75755 4.21700 0.60569 
2.72984 4.07700 0.58558 
2.68178 3.79800 0.54550 
2.70161 3.79800 0.54550 
2.90757 3.97100 0.57035 
3.28944 4.36800 0.62737 
3.38503 4.46400 0.64116 
-1.97880 2.60200 0.36693 
-1.97352 2.61300 0.36848 
-1.86466 2.68200 0.37822 
-1.78330 2.71800 0.38329 
-1.64069 2.68200 0.37822 
-1.56367 2.69400 0.37991 
-1.47830 2.71800 0.38329 
-1.47121 2.71800 0.38329 
-1.44284 2.71800 0.38329 
-1.18821 2.49600 0.35199 
-1.14429 2.41700 0.34084 
-1.06847 2.28200 0.32181 
-0.97873 2.13800 0.30150 
-0.97840 2.20000 0.31024 
-1.04673 2.54800 0.35932 
-1.05273 2.71800 0.38329 
-1.03001 2.83100 0.39923 
-1.04456 3.32400 0.46875 
-1.03028 3.30600 0.46621 
-0.95263 3.30600 0.46621 
-0.89519 3.41600 0.48172 
-0.88320 3.66200 0.51641 
-0.47228 3.66200 0.51641 
-0.44745 3.77500 0.53235 
-0.00409 0.64700 0.09124 
0.00941 0.64600 0.09110 
1.10369 3.59700 0.50725 
1.11308 3.59700 0.50725 
1.12933 3.61900 0.51035 
1.22875 3.66200 0.51641 
1.41265 3.61900 0.51035 
1.44098 3.61900 0.51035 
2.31783 3.92000 0.55280 
2.70644 4.18900 0.59073 
2.73431 4.13200 0.58269 
3.27590 4.24700 0.59891 
3.05521 3.89500 0.54927 
-1.91806 2.71800 0.37620 
-1.81451 2.67000 0.36956 
-1.79567 2.69400 0.37288 
-1.69725 2.69400 0.37288 
-1.69022 2.69400 0.37288 
-1.61288 2.69400 0.37288 
-1.60595 2.70600 0.37454 
-1.43574 2.71800 0.37620 
-1.38402 2.74200 0.37952 
-1.35659 2.73000 0.37786 
-1.05129 2.52700 0.34976 
-1.01247 2.84400 0.39364 
-0.99388 2.89800 0.40111 
-0.94745 3.28800 0.45509 
-0.91194 3.37900 0.46769 
-0.89146 3.43600 0.47558 
-0.87447 3.70600 0.51295 
-0.77776 3.70600 0.51295 
-0.54476 3.45500 0.47821 
-0.47618 3.61900 0.50091 
-0.42841 3.87000 0.53565 
-0.00071 0.64400 0.08914 
0.00602 0.64400 0.08914 
0.01109 0.64600 0.08941 
0.97822 3.61900 0.50091 
1.15488 3.64000 0.50381 
1.17141 3.66200 0.50686 
1.26286 3.70600 0.51295 
1.37335 3.64000 0.50381 
1.55339 3.68400 0.50990 
1.70199 3.84600 0.53233 
1.78466 3.89500 0.53911 
1.84924 3.79800 0.52568 
1.86759 3.77500 0.52250 
2.18603 3.99700 0.55323 
2.18218 3.97100 0.54963 
2.18727 3.87000 0.53565 
2.27255 3.89500 0.53911 
2.31783 3.92000 0.54257 
2.34370 3.89500 0.53911 
2.72028 4.16000 0.57579 
2.83362 3.87000 0.53565 
2.89883 3.94500 0.54603 
3.11109 4.16000 0.57579 
3.31137 4.33700 0.60029 
3.25276 4.21700 0.58368 
-2.02633 2.60200 0.35335 
-1.91903 2.67000 0.36259 
-1.87395 2.63600 0.35797 
-1.83956 2.63600 0.35797 
-1.79467 2.68200 0.36422 
-1.78067 2.68200 0.36422 
-1.60597 2.71800 0.36911 
-1.58457 2.73000 0.37074 
-1.56291 2.74200 0.37237 
-1.54182 2.73000 0.37074 
-1.42865 2.71800 0.36911 
-1.19297 2.50600 0.34032 
-0.98215 2.24800 0.30528 
-0.99977 2.31600 0.31451 
-1.05792 2.55900 0.34751 
-1.04641 2.58000 0.35037 
-1.03726 2.62500 0.35648 
-1.04578 2.68200 0.36422 
-1.05273 2.71800 0.36911 
-1.05025 2.73000 0.37074 
-1.04496 2.79200 0.37916 
-1.01000 2.85800 0.38812 
-0.94745 3.28800 0.44651 
-0.88112 3.57600 0.48562 
-0.46146 3.72900 0.50640 
1.04125 3.57600 0.48562 
1.29016 3.72900 0.50640 
1.29989 3.72900 0.50640 
1.31935 3.72900 0.50640 
1.51584 3.64000 0.49431 
1.68139 3.82200 0.51903 
1.70199 3.84600 0.52229 
1.82684 3.75200 0.50952 
1.89880 3.79800 0.51577 
2.13388 3.99700 0.54280 
2.15826 4.02300 0.54633 
2.17091 3.89500 0.52894 
2.18727 3.87000 0.52555 
2.26239 3.89500 0.52894 
2.40469 3.89500 0.52894 
2.53024 3.99700 0.54280 
2.72650 4.10400 0.55733 
2.67586 3.92000 0.53234 
2.60715 3.70600 0.50328 
2.61682 3.70600 0.50328 
3.15464 4.18900 0.56887 
3.04570 3.87000 0.52555 
-2.02633 2.60200 0.34656 
-1.98559 2.60200 0.34656 
-1.91089 2.60200 0.34656 
-1.77443 2.49600 0.33244 
-1.58438 2.74200 0.36521 
-1.47830 2.71800 0.36201 
-1.37687 2.74200 0.36521 
-1.32348 2.70600 0.36042 
-0.96199 2.13800 0.28476 
-0.97516 2.23200 0.29728 
-1.03036 2.44600 0.32579 
-1.05273 2.71800 0.36201 
-1.05268 2.75500 0.36694 
-1.05225 2.79200 0.37187 
-1.01442 3.02700 0.40317 
-0.88947 3.53500 0.47083 
-0.86120 3.77500 0.50280 
-0.49434 3.68400 0.49068 
-0.47119 3.72900 0.49667 
-0.46008 3.79800 0.50586 
-0.45302 3.82200 0.50906 
0.07615 0.29600 0.03942 
1.00043 3.59700 0.47909 
1.07553 3.59700 0.47909 
1.15922 3.68400 0.49068 
1.29187 3.70600 0.49361 
1.30154 3.70600 0.49361 
1.35713 3.59700 0.47909 
1.45186 3.57600 0.47629 
1.52534 3.64000 0.48482 
1.72271 3.87000 0.51545 
1.76311 3.87000 0.51545 
1.76221 3.84600 0.51225 
1.84642 3.75200 0.49973 
2.15109 3.97100 0.52890 
2.27691 3.92000 0.52211 
2.58493 4.05000 0.53942 
2.75588 4.13200 0.55035 
2.88046 3.92000 0.52211 
3.09443 3.94500 0.52544 
-1.99238 2.60200 0.33977 
-1.97201 2.60200 0.33977 
-1.94484 2.60200 0.33977 
-1.91768 2.60200 0.33977 
-1.90281 2.59100 0.33834 
-1.77578 2.61300 0.34121 
-1.75701 2.63600 0.34421 
-1.75053 2.64700 0.34565 
-1.71068 2.68200 0.35022 
-1.66244 2.70600 0.35335 
-1.57751 2.75500 0.35975 
-1.56313 2.75500 0.35975 
-1.40646 2.73000 0.35649 
-1.38402 2.74200 0.35805 
-1.08064 2.30800 0.30138 
-1.04713 2.51700 0.32867 
-1.05536 2.56900 0.33546 
-1.04807 2.67000 0.34865 
-0.97319 3.28800 0.42935 
-0.95782 3.32400 0.43405 
-0.95066 3.36000 0.43875 
-0.92193 3.41600 0.44607 
-0.86574 3.75200 0.48994 
-0.81178 3.72900 0.48694 
-0.70908 3.75200 0.48994 
0.07537 0.29600 0.03865 
1.15648 3.70600 0.48394 
1.19285 3.72900 0.48694 
1.31636 3.64000 0.47532 
1.32897 3.59700 0.46970 
1.39695 3.55500 0.46422 
1.44333 3.55500 0.46422 
1.76119 3.82200 0.49908 
1.79373 3.68400 0.48106 
2.13025 3.89500 0.50862 
2.39935 3.87000 0.50535 
2.64584 3.70600 0.48394 
3.07992 4.10400 0.53591 
3.13461 4.02300 0.52533 
3.12597 3.92000 0.51188 
-2.03312 2.60200 0.33298 
-1.97201 2.60200 0.33298 
-1.74168 2.61300 0.33439 
-1.72377 2.65900 0.34028 
-1.69068 2.70600 0.34629 
-1.61346 2.75500 0.35256 
-1.39118 2.74200 0.35090 
-0.99373 2.31600 0.29638 
-1.01640 2.39800 0.30688 
-1.04496 2.79200 0.35730 
-1.01247 2.84400 0.36395 
-1.00061 2.94000 0.37624 
-1.04517 3.21900 0.41194 
-1.00987 3.32400 0.42538 
-0.96819 3.36000 0.42999 
-0.89450 3.55500 0.45494 
-0.75804 3.75200 0.48015 
-0.73313 3.77500 0.48309 
-0.69929 3.75200 0.48015 
-0.60839 3.61900 0.46313 
1.13038 3.68400 0.47145 
1.29736 3.64000 0.46582 
1.35854 3.57600 0.45763 
1.48854 3.59700 0.46032 
1.61143 3.75200 0.48015 
1.75301 3.87000 0.49525 
1.72707 3.70600 0.47426 
1.72568 3.66200 0.46863 
2.52415 3.97100 0.50818 
2.68847 3.75200 0.48015 
-1.73825 2.54800 0.31942 
-1.70908 2.64700 0.33183 
-1.69606 2.67000 0.33472 
-1.67690 2.71800 0.34073 
-1.66981 2.71800 0.34073 
-1.66272 2.71800 0.34073 
-1.66293 2.73000 0.34224 
-1.45765 2.70600 0.33923 
-1.44353 2.70600 0.33923 
-1.01859 2.20000 0.27580 
-1.00061 2.94000 0.36857 
-0.94867 3.41600 0.42824 
-0.93084 3.41600 0.42824 
-0.87990 3.72900 0.46748 
-0.85070 3.72900 0.46748 
-0.80677 3.70600 0.46459 
-0.70358 3.77500 0.47324 
-0.66992 3.75200 0.47036 
-0.59651 3.66200 0.45908 
-0.54904 3.72900 0.46748 
1.24697 3.77500 0.47324 
1.39695 3.55500 0.44566 
1.41550 3.55500 0.44566 
1.41676 3.53500 0.44316 
1.55339 3.68400 0.46183 
1.62131 3.77500 0.47324 
1.66145 3.82200 0.47913 
1.73675 3.70600 0.46459 
1.72431 3.61900 0.45369 
2.12668 3.87000 0.48515 
2.19124 3.89500 0.48829 
2.24622 3.92000 0.49142 
2.37920 3.92000 0.49142 
2.71275 4.13200 0.51800 
2.72353 4.13200 0.51800 
2.72104 3.97100 0.49781 
2.69223 3.87000 0.48515 
-1.81836 2.47600 0.30394 
-1.49497 2.08000 0.25533 
-1.61038 2.29900 0.28221 
-1.71089 2.53700 0.31142 
-1.70217 2.64700 0.32493 
-1.69606 2.67000 0.32775 
-1.57722 2.74200 0.33659 
-1.51998 2.74200 0.33659 
-1.49908 2.73000 0.33511 
-1.43010 2.69400 0.33070 
-1.39118 2.74200 0.33659 
-1.35063 2.71800 0.33364 
-1.28081 2.64700 0.32493 
-1.07643 2.29900 0.28221 
-0.95641 2.13800 0.26245 
-0.97281 2.24000 0.27497 
-1.04641 2.58000 0.31670 
-1.04411 2.59100 0.31805 
-1.03934 2.61300 0.32075 
-1.02731 2.84400 0.34911 
-1.06464 3.36000 0.41245 
-1.03204 3.39700 0.41699 
-0.89689 3.64000 0.44682 
-0.81160 3.68400 0.45222 
-0.72769 3.79800 0.46621 
-0.66992 3.75200 0.46057 
-0.58695 3.66200 0.44952 
-0.58087 3.68400 0.45222 
-0.57125 3.68400 0.45222 
0.07537 0.29600 0.03633 
1.21741 3.77500 0.46339 
1.27070 3.72900 0.45774 
1.28420 3.68400 0.45222 
1.31636 3.64000 0.44682 
1.40520 3.57600 0.43896 
1.42478 3.55500 0.43639 
1.50634 3.64000 0.44682 
1.57236 3.72900 0.45774 
1.76433 3.89500 0.47812 
1.75013 3.79800 0.46621 
2.03048 3.82200 0.46916 
2.13677 3.87000 0.47505 
2.18727 3.87000 0.47505 
2.31202 3.94500 0.48426 
2.35320 3.94500 0.48426 
2.53620 4.02300 0.49383 
3.10312 4.02300 0.49383 
-1.99071 2.59100 0.31129 
-1.62169 2.23200 0.26816 
-1.45544 2.02500 0.24329 
-1.69083 2.51700 0.30240 
-1.69836 2.54800 0.30612 
-1.70759 2.61300 0.31393 
-1.69601 2.65900 0.31946 
-1.68907 2.65900 0.31946 
-1.67454 2.64700 0.31802 
-1.59167 2.61300 0.31393 
-1.59856 2.64700 0.31802 
-1.59155 2.67000 0.32078 
-1.56291 2.74200 0.32943 
-1.41528 2.70600 0.32511 
-1.33761 2.70600 0.32511 
-0.95209 2.11600 0.25422 
-0.95542 2.16100 0.25963 
-1.04255 2.50600 0.30108 
-1.03496 2.60200 0.31261 
-1.05953 2.79200 0.33544 
-1.07948 3.37900 0.40596 
-0.89276 3.66200 0.43996 
-0.83082 3.68400 0.44261 
-0.74366 3.72900 0.44801 
-0.56164 3.68400 0.44261 
-0.48762 3.70600 0.44525 
0.07537 0.29600 0.03556 
0.07795 0.29700 0.03568 
1.03192 3.57600 0.42963 
1.18312 3.72900 0.44801 
1.32897 3.59700 0.43215 
1.33836 3.59700 0.43215 
1.36652 3.59700 0.43215 
1.38529 3.59700 0.43215 
1.61137 3.79800 0.45630 
1.76543 3.92000 0.47096 
1.76119 3.82200 0.45919 
1.76004 3.79800 0.45630 
2.05043 3.82200 0.45919 
2.41497 3.94500 0.47396 
2.74048 4.07700 0.48982 
2.81126 3.89500 0.46796 
3.11574 3.92000 0.47096 
-1.46578 2.03200 0.23883 
-1.40791 1.96600 0.23107 
-1.42014 2.00500 0.23565 
-1.51854 2.17600 0.25575 
-1.65985 2.61300 0.30711 
-1.63912 2.59100 0.30453 
-1.54645 2.49600 0.29336 
-1.49249 2.71800 0.31946 
-1.47178 2.70600 0.31805 
-1.37797 2.73000 0.32087 
-1.30588 2.67000 0.31381 
-1.27549 2.63600 0.30982 
-1.18821 2.49600 0.29336 
-0.95082 2.10100 0.24694 
-1.05338 2.54800 0.29948 
-1.04641 2.58000 0.30324 
-1.02707 2.88500 0.33908 
-1.02984 3.07300 0.36118 
-1.08573 3.45500 0.40608 
-1.01286 3.51500 0.41313 
-0.74430 3.68400 0.43299 
-0.72867 3.75200 0.44099 
0.00935 0.64200 0.07546 
0.07563 0.29700 0.03491 
1.21000 3.75200 0.44099 
1.21979 3.75200 0.44099 
1.26096 3.72900 0.43828 
1.28786 3.64000 0.42782 
1.31821 3.61900 0.42535 
1.83346 3.70600 0.43558 
1.97298 3.84600 0.45203 
2.04045 3.82200 0.44921 
2.12668 3.87000 0.45485 
2.35387 3.89500 0.45779 
2.40989 3.92000 0.46073 
2.66962 4.13200 0.48565 
2.74176 3.97100 0.46673 
2.75213 3.97100 0.46673 
3.02637 4.10400 0.48236 
-2.06656 2.63600 0.30294 
-1.96367 2.59100 0.29777 
-1.75447 2.38900 0.27455 
-1.48644 2.13800 0.24571 
-1.41272 2.37000 0.27237 
-1.44421 2.46600 0.28340 
-1.49958 2.71800 0.31236 
-1.47178 2.70600 0.31098 
-1.38609 2.71800 0.31236 
-1.29356 2.65900 0.30558 
-1.25754 2.61300 0.30030 
-1.01640 2.39800 0.27559 
-1.04865 2.56900 0.29524 
-1.05987 2.75500 0.31662 
-1.03983 2.85800 0.32845 
-1.00829 2.94000 0.33788 
-1.01048 2.96900 0.34121 
-1.04277 3.13600 0.36040 
-1.08624 3.51500 0.40396 
-1.07707 3.51500 0.40396 
-0.78780 3.57600 0.41097 
-0.75981 3.57600 0.41097 
-0.74550 3.59700 0.41338 
-0.59401 3.70600 0.42591 
0.00097 0.64100 0.07367 
0.07718 0.29700 0.03413 
1.05059 3.57600 0.41097 
1.16884 3.68400 0.42338 
1.27459 3.68400 0.42338 
1.29736 3.64000 0.41832 
1.43154 3.61900 0.41591 
1.74566 3.68400 0.42338 
1.74480 3.66200 0.42085 
2.20004 3.82200 0.43924 
2.29414 3.84600 0.44200 
2.43556 3.94500 0.45337 
2.60216 4.07700 0.46854 
2.74510 4.13200 0.47487 
2.82467 3.97100 0.45636 
2.85359 3.99700 0.45935 
3.04702 4.13200 0.47487 
-1.94187 2.58000 0.28977 
-1.39954 1.99800 0.22440 
-1.49583 2.17600 0.24440 
-1.52268 2.23200 0.25069 
-1.52772 2.24800 0.25248 
-1.36690 2.33400 0.26214 
-0.94525 2.13800 0.24013 
-0.95768 2.19200 0.24619 
-1.06205 2.81800 0.31650 
-1.03707 2.87100 0.32245 
-1.03520 3.08900 0.34694 
-1.08830 3.37900 0.37951 
-1.09769 3.43600 0.38591 
-1.08005 3.55500 0.39928 
-0.88739 3.64000 0.40882 
-0.74114 3.57600 0.40164 
-0.72867 3.75200 0.42140 
-0.66247 3.82200 0.42927 
-0.45994 3.64000 0.40882 
0.07873 0.29700 0.03336 
1.21231 3.72900 0.41882 
1.42085 3.64000 0.40882 
1.78302 3.66200 0.41130 
2.17461 3.92000 0.44027 
2.22587 3.79800 0.42657 
2.82802 4.05000 0.45487 
2.97282 4.10400 0.46094 
3.03192 3.97100 0.44600 
2.98406 3.89500 0.43746 
2.91367 3.75200 0.42140 
2.95123 3.77500 0.42399 
3.09587 3.89500 0.43746 
-2.08209 2.64700 0.29039 
-1.35624 1.92900 0.21162 
-1.46679 2.19200 0.24047 
-1.41271 2.45600 0.26943 
-1.52121 2.70600 0.29686 
-1.39410 2.70600 0.29686 
-0.94216 2.13100 0.23378 
-1.04411 2.62500 0.28797 
-1.05475 2.85800 0.31354 
-1.01876 2.92600 0.32100 
-1.08005 3.55500 0.39000 
-0.85890 3.64000 0.39933 
-0.81580 3.57600 0.39230 
-0.72594 3.89500 0.42730 
-0.49794 3.64000 0.39933 
-0.47618 3.61900 0.39702 
1.01658 3.55500 0.39000 
1.23937 3.75200 0.41161 
1.57172 3.79800 0.41666 
1.78645 3.72900 0.40909 
1.86601 3.75200 0.41161 
2.11642 3.94500 0.43279 
2.20604 3.79800 0.41666 
2.28411 3.84600 0.42192 
2.42502 3.89500 0.42730 
2.69792 4.07700 0.44727 
2.87879 4.07700 0.44727 
3.06858 4.13200 0.45330 
3.07937 4.13200 0.45330 
2.96490 3.87000 0.42456 
2.88762 3.70600 0.40657 
-1.47638 2.03200 0.21762 
-1.42836 1.97300 0.21130 
-1.42225 2.10900 0.22586 
-1.29182 2.05900 0.22051 
-1.25463 2.02500 0.21687 
-1.44416 2.69400 0.28851 
-1.42307 2.69400 0.28851 
-1.39410 2.70600 0.28980 
-1.12009 2.37900 0.25478 
-1.01455 2.37900 0.25478 
-1.05205 2.87100 0.30747 
-1.03169 2.89800 0.31036 
-1.07926 3.32400 0.35598 
-1.08932 3.55500 0.38072 
-1.03366 3.55500 0.38072 
-0.87283 3.61900 0.38758 
-0.82998 3.59700 0.38522 
-0.59048 3.68400 0.39454 
-0.51083 3.59700 0.38522 
-0.49506 3.61900 0.38758 
0.07485 0.29700 0.03181 
1.00393 3.57600 0.38297 
1.00731 3.55500 0.38072 
1.01658 3.55500 0.38072 
1.05699 3.53500 0.37858 
1.08152 3.55500 0.38072 
1.15488 3.64000 0.38983 
1.30343 3.68400 0.39454 
1.43035 3.64000 0.38983 
1.75932 4.02300 0.43084 
1.77924 3.99700 0.42806 
1.78228 3.84600 0.41189 
1.93074 3.82200 0.40932 
1.98529 3.87000 0.41446 
2.40945 3.87000 0.41446 
2.77239 4.07700 0.43663 
2.82559 4.07700 0.43663 
3.05850 4.10400 0.43952 
2.89729 3.70600 0.39689 
2.92500 3.72900 0.39936 
2.95283 3.75200 0.40182 
-2.06828 2.64700 0.27657 
-1.95691 2.59100 0.27072 
-1.38715 1.92300 0.20093 
-1.33119 2.00500 0.20949 
-1.33059 2.01200 0.21022 
-1.16635 1.92300 0.20093 
-1.24560 2.14600 0.22423 
-1.42269 2.49600 0.26080 
-1.48590 2.70600 0.28274 
-1.46471 2.70600 0.28274 
-1.37191 2.71800 0.28399 
-1.29463 2.64700 0.27657 
-1.28772 2.64700 0.27657 
-1.24019 2.59100 0.27072 
-1.08439 2.31600 0.24199 
-1.05978 2.68200 0.28023 
-1.06220 2.70600 0.28274 
-1.06220 2.85800 0.29862 
-1.01876 2.92600 0.30572 
-1.01112 2.92600 0.30572 
-1.07397 3.53500 0.36936 
-0.91442 3.45500 0.36100 
-0.88523 3.55500 0.37145 
-0.88630 3.59700 0.37583 
-0.75648 3.47500 0.36309 
-0.72342 3.53500 0.36936 
-0.71938 3.97100 0.41491 
-0.61716 3.72900 0.38963 
-0.60009 3.68400 0.38492 
-0.37077 3.51500 0.36727 
0.00932 0.64000 0.06687 
0.98166 3.59700 0.37583 
0.98875 3.55500 0.37145 
1.01658 3.55500 0.37145 
1.31020 3.59700 0.37583 
1.35713 3.59700 0.37583 
1.46686 3.68400 0.38492 
1.78466 3.89500 0.40697 
2.18107 3.89500 0.40697 
2.19378 3.84600 0.40185 
2.20381 3.84600 0.40185 
2.37957 3.82200 0.39934 
2.53265 3.92000 0.40958 
2.75862 4.10400 0.42881 
2.76933 4.10400 0.42881 
2.81495 4.07700 0.42599 
2.85501 4.10400 0.42881 
2.93919 4.13200 0.43173 
3.01566 4.10400 0.42881 
2.99298 3.92000 0.40958 
2.95283 3.75200 0.39203 
-1.82389 2.46600 0.25123 
-1.58139 2.16100 0.22015 
-1.30893 1.84800 0.18827 
-1.30281 1.85300 0.18878 
-1.33016 1.93500 0.19713 
-1.09799 1.84200 0.18766 
-1.44568 2.54800 0.25958 
-1.50667 2.71800 0.27690 
-1.44353 2.70600 0.27568 
-1.29463 2.64700 0.26967 
-1.01859 2.20000 0.22413 
-0.93862 2.12300 0.21628 
-0.98121 2.27300 0.23156 
-1.01455 2.37900 0.24236 
-1.05763 2.65900 0.27089 
-1.08830 3.37900 0.34424 
-1.09798 3.49400 0.35595 
-0.97945 3.49400 0.35595 
-0.94692 3.47500 0.35402 
-0.90158 3.47500 0.35402 
-0.89739 3.49400 0.35595 
-0.88630 3.59700 0.36645 
-0.81101 3.55500 0.36217 
-0.72342 3.53500 0.36013 
-0.72591 3.64000 0.37083 
-0.57062 3.61900 0.36869 
-0.43319 3.57600 0.36431 
-0.40282 3.55500 0.36217 
-0.38210 3.53500 0.36013 
1.18549 3.70600 0.37755 
1.21000 3.75200 0.38224 
1.23474 3.79800 0.38692 
1.26249 3.82200 0.38937 
1.30239 3.82200 0.38937 
1.30607 3.77500 0.38458 
1.38529 3.59700 0.36645 
1.45725 3.68400 0.37531 
1.47562 3.70600 0.37755 
1.77566 3.92000 0.39935 
1.84098 3.82200 0.38937 
1.88888 3.79800 0.38692 
1.99811 3.89500 0.39681 
2.09527 4.02300 0.40985 
2.17371 3.84600 0.39181 
2.18009 3.82200 0.38937 
2.31972 3.82200 0.38937 
2.61369 3.99700 0.40720 
2.68728 4.07700 0.41535 
2.71579 4.10400 0.41810 
2.80712 4.16000 0.42380 
2.91762 4.13200 0.42095 
3.02545 4.13200 0.42095 
3.00863 4.02300 0.40985 
2.97389 3.89500 0.39681 
3.13758 3.82200 0.38937 
-1.97043 2.59100 0.25720 
-1.84517 2.48600 0.24678 
-1.33793 1.88200 0.18682 
-1.09888 1.80400 0.17908 
-1.07063 1.80400 0.17908 
-1.19782 2.07300 0.20578 
-1.06460 2.55900 0.25402 
-1.05536 2.63600 0.26167 
-1.06918 2.74200 0.27219 
-1.06694 2.83100 0.28102 
-1.06966 2.85800 0.28370 
-1.03926 2.89800 0.28767 
-1.03707 3.53500 0.35091 
-1.02784 3.53500 0.35091 
-0.91972 3.47500 0.34495 
-0.73767 3.51500 0.34892 
-0.72752 3.55500 0.35289 
-0.72037 3.92000 0.38912 
0.00596 0.63800 0.06333 
0.00932 0.64000 0.06353 
0.07822 0.29800 0.02958 
1.28046 3.84600 0.38178 
1.31592 3.77500 0.37473 
1.50424 3.72900 0.37016 
1.52331 3.75200 0.37245 
1.72521 3.94500 0.39161 
1.81239 3.84600 0.38178 
1.91276 3.84600 0.38178 
2.16367 3.84600 0.38178 
2.19006 3.82200 0.37940 
2.31507 3.79800 0.37701 
2.35030 3.77500 0.37473 
2.74510 4.13200 0.41017 
3.00495 4.10400 0.40739 
2.88607 3.72900 0.37016 
3.04688 3.84600 0.38178 
3.21845 3.97100 0.39419 
3.20767 3.94500 0.39161 
-1.95691 2.59100 0.25044 
-1.44212 1.99200 0.19254 
-1.34358 1.91100 0.18471 
-1.33439 1.90500 0.18413 
-1.11505 1.81500 0.17543 
-1.07705 1.79900 0.17389 
-1.07525 1.83600 0.17746 
-1.17413 2.03200 0.19641 
-1.47830 2.71800 0.26271 
-1.39934 2.73000 0.26387 
-1.32574 2.68200 0.25923 
-1.30050 2.65900 0.25701 
-0.94993 2.08700 0.20172 
-1.06212 2.60200 0.25150 
-1.05979 2.61300 0.25256 
-1.00628 2.91200 0.28146 
-1.00829 2.94000 0.28417 
-1.03745 3.12000 0.30157 
-1.04547 3.16900 0.30631 
-1.09475 3.45500 0.33395 
-1.04037 3.51500 0.33975 
-0.85313 3.57600 0.34564 
-0.81101 3.55500 0.34361 
-0.65831 3.79800 0.36710 
-0.53270 3.55500 0.34361 
-0.49851 3.57600 0.34564 
-0.45186 3.57600 0.34564 
0.00935 0.64200 0.06205 
0.07666 0.29800 0.02880 
1.02349 3.51500 0.33975 
1.09724 3.57600 0.34564 
1.26038 3.84600 0.37174 
1.38653 3.57600 0.34564 
1.79482 3.89500 0.37648 
1.87420 3.87000 0.37406 
1.92279 3.84600 0.37174 
2.14687 3.87000 0.37406 
2.19378 3.84600 0.37174 
2.78541 4.16000 0.40209 
2.81798 4.16000 0.40209 
2.83136 4.13200 0.39939 
2.88527 4.13200 0.39939 
3.05467 4.21700 0.40760 
2.94471 3.87000 0.37406 
2.93648 3.84600 0.37174 
2.98903 3.79800 0.36710 
3.01790 3.82200 0.36942 
3.18735 3.89500 0.37648 
-1.94187 2.58000 0.24264 
-1.48606 2.03800 0.19167 
-1.32191 1.92300 0.18085 
-1.30491 1.93500 0.18198 
-1.21731 1.89300 0.17803 
-1.15774 1.85300 0.17427 
-1.16257 2.01200 0.18922 
-1.49296 2.70600 0.25449 
-1.01489 2.19200 0.20615 
-0.95312 2.09400 0.19693 
-1.06205 2.81800 0.26502 
-1.06220 2.85800 0.26879 
-1.01048 2.96900 0.27923 
-1.09201 3.47500 0.32681 
-1.05872 3.51500 0.33058 
-0.98857 3.49400 0.32860 
-0.87179 3.57600 0.33631 
-0.78354 3.51500 0.33058 
-0.75150 3.49400 0.32860 
-0.73265 3.53500 0.33246 
-0.54517 3.57600 0.33631 
-0.48918 3.57600 0.33631 
0.00097 0.63800 0.06000 
0.07666 0.29800 0.02803 
0.97763 3.51500 0.33058 
1.02931 3.53500 0.33246 
1.23257 3.82200 0.35945 
1.29677 3.89500 0.36631 
1.30785 3.51500 0.33058 
1.52398 3.70600 0.34854 
1.53365 3.70600 0.34854 
1.74497 3.92000 0.36866 
1.80499 3.89500 0.36631 
1.96509 3.87000 0.36396 
2.17371 3.84600 0.36171 
2.89606 4.13200 0.38860 
3.05467 4.21700 0.39660 
3.02545 4.13200 0.38860 
2.93324 3.89500 0.36631 
2.89212 3.77500 0.35503 
2.96108 3.77500 0.35503 
3.03685 3.84600 0.36171 
3.08570 3.89500 0.36631 
3.12855 3.77500 0.35503 
-1.93359 2.56900 0.23490 
-1.86562 2.49600 0.22823 
-1.51158 2.07300 0.18955 
-1.51090 2.08700 0.19083 
-1.51555 2.10100 0.19211 
-1.42866 2.03200 0.18580 
-1.15178 1.85900 0.16998 
-1.07360 1.80900 0.16541 
-1.07538 1.82000 0.16642 
-1.21296 2.54800 0.23298 
-1.17222 2.47600 0.22640 
-0.99759 2.32500 0.21259 
-1.06442 2.84400 0.26005 
-1.00628 2.91200 0.26627 
-1.08218 3.36000 0.30723 
-1.09201 3.47500 0.31775 
-1.06151 3.49400 0.31948 
-1.03416 3.49400 0.31948 
