ply
format ascii 1.0
comment pointcloud saved from Realsense Viewer
element vertex 1845
property float32 x
property float32 y
property float32 z
end_header
2.6285 -1.33716 -3.058 
2.64127 -1.33716 -3.058 
2.65404 -1.33716 -3.058 
2.66681 -1.33716 -3.058 
2.67957 -1.33716 -3.058 
2.69234 -1.33716 -3.058 
2.70511 -1.33716 -3.058 
2.69566 -1.32623 -3.033 
2.70832 -1.32623 -3.033 
2.69946 -1.31574 -3.009 
2.69129 -1.30568 -2.986 
2.70376 -1.30568 -2.986 
2.67438 -1.28556 -2.94 
2.64553 -1.26589 -2.895 
2.63834 -1.25671 -2.874 
2.59132 -1.22872 -2.81 
2.57659 -1.16881 -2.673 
2.58775 -1.16881 -2.673 
2.59891 -1.16881 -2.673 
2.62863 -1.17712 -2.692 
2.62124 -1.16881 -2.673 
2.75105 -1.21123 -2.77 
-1.52143 -0.720875 -1.633 
-1.51461 -0.720875 -1.633 
-1.5078 -0.720875 -1.633 
-1.50098 -0.720875 -1.633 
-1.48775 -0.717785 -1.626 
-1.48097 -0.717785 -1.626 
-1.47418 -0.717785 -1.626 
-1.4737 -0.720875 -1.633 
-1.46689 -0.720875 -1.633 
-1.46633 -0.723965 -1.64 
-1.45948 -0.723965 -1.64 
-1.45883 -0.727055 -1.647 
-1.45195 -0.727055 -1.647 
-1.4521 -0.730587 -1.655 
-1.44519 -0.730587 -1.655 
-1.44436 -0.733677 -1.662 
-1.44347 -0.736767 -1.669 
-1.43651 -0.736767 -1.669 
-1.43553 -0.739857 -1.676 
-1.43535 -0.743389 -1.684 
-1.42832 -0.743389 -1.684 
-1.4272 -0.746479 -1.691 
-1.42686 -0.750011 -1.699 
-1.42561 -0.753101 -1.706 
-1.42514 -0.756632 -1.714 
-1.4246 -0.760164 -1.722 
-1.41741 -0.760164 -1.722 
-1.41596 -0.763254 -1.729 
-1.41526 -0.766785 -1.737 
-1.42097 -0.773848 -1.753 
-1.4201 -0.77738 -1.761 
-1.41917 -0.780911 -1.769 
-1.41897 -0.784884 -1.778 
-1.41789 -0.788416 -1.786 
-1.41044 -0.788416 -1.786 
-1.40926 -0.791948 -1.794 
-1.4088 -0.795921 -1.803 
-1.40749 -0.799452 -1.811 
-1.39993 -0.799452 -1.811 
-1.39929 -0.803425 -1.82 
-1.39169 -0.803425 -1.82 
-1.39094 -0.807398 -1.829 
-1.3833 -0.807398 -1.829 
-1.38243 -0.811371 -1.838 
-1.38074 -0.814903 -1.846 
-1.38642 -0.822848 -1.864 
-1.38604 -0.827263 -1.874 
-1.38483 -0.831236 -1.883 
-1.38355 -0.835209 -1.892 
-1.38292 -0.839623 -1.902 
-1.38148 -0.843596 -1.911 
-1.38716 -0.851984 -1.93 
-1.38625 -0.856398 -1.94 
-1.37815 -0.856398 -1.94 
-1.37711 -0.860813 -1.95 
-1.37599 -0.865227 -1.96 
-1.37478 -0.869641 -1.97 
-1.37349 -0.874056 -1.98 
-1.37281 -0.878912 -1.991 
-1.37889 -0.888182 -2.012 
-1.3773 -0.892596 -2.022 
-1.36886 -0.892596 -2.022 
-1.37522 -0.902308 -2.044 
-1.37404 -0.907164 -2.055 
-1.37277 -0.91202 -2.066 
-1.36414 -0.91202 -2.066 
-1.36273 -0.916876 -2.077 
-1.36188 -0.922173 -2.089 
-1.35316 -0.922173 -2.089 
-1.35152 -0.927029 -2.1 
-1.35042 -0.932326 -2.112 
-1.3416 -0.932326 -2.112 
-1.33973 -0.937182 -2.123 
-1.33839 -0.942479 -2.135 
-1.33694 -0.947777 -2.147 
-1.32798 -0.947777 -2.147 
-1.32639 -0.953074 -2.159 
-1.3253 -0.958813 -2.172 
-1.31624 -0.958813 -2.172 
-1.31439 -0.96411 -2.184 
-1.31304 -0.969849 -2.197 
-1.31099 -0.975146 -2.209 
-1.30943 -0.980885 -2.222 
-1.30775 -0.986624 -2.235 
-1.30597 -0.992362 -2.248 
-1.31216 -1.00428 -2.275 
-1.31068 -1.01046 -2.289 
-1.30851 -1.0162 -2.302 
-1.3068 -1.02238 -2.316 
-1.31337 -1.03518 -2.345 
-1.31136 -1.04136 -2.359 
-1.30979 -1.04798 -2.374 
-1.29988 -1.04798 -2.374 
-1.29811 -1.05461 -2.389 
-1.29623 -1.06123 -2.404 
-1.29422 -1.06785 -2.419 
-1.28411 -1.06785 -2.419 
-1.28191 -1.07447 -2.434 
-1.28011 -1.08153 -2.45 
-1.26988 -1.08153 -2.45 
-1.26788 -1.0886 -2.466 
-1.25758 -1.0886 -2.466 
-1.25538 -1.09566 -2.482 
-1.24502 -1.09566 -2.482 
-1.24261 -1.10272 -2.498 
-1.24057 -1.11023 -2.515 
-1.23007 -1.11023 -2.515 
-1.22732 -1.11729 -2.531 
-1.22493 -1.1248 -2.548 
-1.21429 -1.1248 -2.548 
-1.21168 -1.1323 -2.565 
-1.20893 -1.1398 -2.582 
-1.19815 -1.1398 -2.582 
-1.19565 -1.14775 -2.6 
-1.18479 -1.14775 -2.6 
-1.17394 -1.14775 -2.6 
-1.15503 -1.1398 -2.582 
-1.14425 -1.1398 -2.582 
-1.10405 -1.11023 -2.515 
-1.04529 -1.06123 -2.404 
-0.991326 -1.0162 -2.302 
-0.877088 -0.916876 -2.077 
-0.823678 -0.869641 -1.97 
-0.77944 -0.831236 -1.883 
-0.738797 -0.795921 -1.803 
-0.714235 -0.77738 -1.761 
-0.694037 -0.763254 -1.729 
-0.677681 -0.753101 -1.706 
-0.667807 -0.750011 -1.699 
-0.657601 -0.746479 -1.691 
-0.647848 -0.743389 -1.684 
-0.640817 -0.743389 -1.684 
-0.633785 -0.743389 -1.684 
-0.626754 -0.743389 -1.684 
-0.619723 -0.743389 -1.684 
-0.612692 -0.743389 -1.684 
-0.60566 -0.743389 -1.684 
-0.598629 -0.743389 -1.684 
-0.591598 -0.743389 -1.684 
-0.584566 -0.743389 -1.684 
-0.574791 -0.739857 -1.676 
-0.567793 -0.739857 -1.676 
-0.560796 -0.739857 -1.676 
-0.553798 -0.739857 -1.676 
-0.5468 -0.739857 -1.676 
-0.539802 -0.739857 -1.676 
-0.530579 -0.736767 -1.669 
-0.52361 -0.736767 -1.669 
-0.516641 -0.736767 -1.669 
-0.509673 -0.736767 -1.669 
-0.502704 -0.736767 -1.669 
-0.493656 -0.733677 -1.662 
-0.486717 -0.733677 -1.662 
-0.479777 -0.733677 -1.662 
-0.472838 -0.733677 -1.662 
-0.465898 -0.733677 -1.662 
-0.458959 -0.733677 -1.662 
-0.452019 -0.733677 -1.662 
-0.44508 -0.733677 -1.662 
-0.438141 -0.733677 -1.662 
-0.431201 -0.733677 -1.662 
-0.424262 -0.733677 -1.662 
-0.417322 -0.733677 -1.662 
-0.410383 -0.733677 -1.662 
-0.403443 -0.733677 -1.662 
-0.396504 -0.733677 -1.662 
-0.389564 -0.733677 -1.662 
-0.382625 -0.733677 -1.662 
-0.375686 -0.733677 -1.662 
-0.368746 -0.733677 -1.662 
-0.361807 -0.733677 -1.662 
-0.354867 -0.733677 -1.662 
-0.347928 -0.733677 -1.662 
-0.340988 -0.733677 -1.662 
-0.334049 -0.733677 -1.662 
-0.327109 -0.733677 -1.662 
-0.321518 -0.736767 -1.669 
-0.313231 -0.733677 -1.662 
-0.306291 -0.733677 -1.662 
-0.299352 -0.733677 -1.662 
-0.292412 -0.733677 -1.662 
-0.28427 -0.730587 -1.655 
-0.27736 -0.730587 -1.655 
-0.27045 -0.730587 -1.655 
-0.264654 -0.733677 -1.662 
-0.2588 -0.736767 -1.669 
-0.252888 -0.739857 -1.676 
-0.247064 -0.743389 -1.684 
-0.242171 -0.750011 -1.699 
-0.237152 -0.756632 -1.714 
-0.233082 -0.766785 -1.737 
-0.228949 -0.77738 -1.761 
-0.226882 -0.795921 -1.803 
-0.224585 -0.814903 -1.846 
-0.222282 -0.835209 -1.892 
-0.218688 -0.851984 -1.93 
-0.216086 -0.874056 -1.98 
-0.214536 -0.902308 -2.044 
-0.212855 -0.932326 -2.112 
-0.212248 -0.969849 -2.197 
-0.21278 -1.0162 -2.302 
-0.210847 -1.05461 -2.389 
-0.208692 -1.09566 -2.482 
-0.204961 -1.1323 -2.565 
-0.200991 -1.17159 -2.654 
-0.196779 -1.21397 -2.75 
-0.18934 -1.24045 -2.81 
-0.178934 -1.24972 -2.831 
-0.168353 -1.25899 -2.852 
-0.157652 -1.26871 -2.874 
-0.146716 -1.27798 -2.895 
-0.134629 -1.27798 -2.895 
-0.122541 -1.27798 -2.895 
-0.111331 -1.28813 -2.918 
-0.0991472 -1.28813 -2.918 
-0.0876191 -1.29784 -2.94 
-0.0753436 -1.29784 -2.94 
-0.063068 -1.29784 -2.94 
-0.0507925 -1.29784 -2.94 
-0.0385169 -1.29784 -2.94 
-0.0262414 -1.29784 -2.94 
-0.0139658 -1.29784 -2.94 
-0.00169029 -1.29784 -2.94 
0.0105853 -1.29784 -2.94 
0.0226898 -1.28813 -2.918 
0.0348734 -1.28813 -2.918 
0.0470571 -1.28813 -2.918 
0.0587739 -1.27798 -2.895 
0.0708616 -1.27798 -2.895 
0.0829492 -1.27798 -2.895 
0.0943475 -1.26871 -2.874 
0.105533 -1.25899 -2.852 
0.117442 -1.25899 -2.852 
0.12935 -1.25899 -2.852 
0.141258 -1.25899 -2.852 
0.152038 -1.24972 -2.831 
0.163859 -1.24972 -2.831 
0.175679 -1.24972 -2.831 
0.187499 -1.24972 -2.831 
0.19932 -1.24972 -2.831 
0.21114 -1.24972 -2.831 
0.224615 -1.25899 -2.852 
0.236523 -1.25899 -2.852 
0.248431 -1.25899 -2.852 
0.260339 -1.25899 -2.852 
0.274347 -1.26871 -2.874 
0.286347 -1.26871 -2.874 
0.298347 -1.26871 -2.874 
0.310347 -1.26871 -2.874 
0.324702 -1.27798 -2.895 
0.339466 -1.28813 -2.918 
0.351649 -1.28813 -2.918 
0.366576 -1.29784 -2.94 
0.381816 -1.30799 -2.963 
0.397247 -1.31815 -2.986 
0.409715 -1.31815 -2.986 
0.425434 -1.3283 -3.009 
0.437998 -1.3283 -3.009 
0.450562 -1.3283 -3.009 
0.466819 -1.33889 -3.033 
0.479483 -1.33889 -3.033 
0.492147 -1.33889 -3.033 
0.504811 -1.33889 -3.033 
0.517475 -1.33889 -3.033 
0.525943 -1.3283 -3.009 
0.538507 -1.3283 -3.009 
0.546858 -1.31815 -2.986 
0.559326 -1.31815 -2.986 
0.571794 -1.31815 -2.986 
0.575261 -1.29784 -2.94 
0.587536 -1.29784 -2.94 
0.599812 -1.29784 -2.94 
0.607507 -1.28813 -2.918 
0.614806 -1.27798 -2.895 
0.626894 -1.27798 -2.895 
0.638982 -1.27798 -2.895 
0.656242 -1.28813 -2.918 
0.668426 -1.28813 -2.918 
0.680609 -1.28813 -2.918 
0.692793 -1.28813 -2.918 
0.704977 -1.28813 -2.918 
0.722567 -1.29784 -2.94 
0.734843 -1.29784 -2.94 
0.747118 -1.29784 -2.94 
0.759394 -1.29784 -2.94 
0.771669 -1.29784 -2.94 
0.783945 -1.29784 -2.94 
0.80245 -1.30799 -2.963 
0.814821 -1.30799 -2.963 
0.820772 -1.29784 -2.94 
0.833047 -1.29784 -2.94 
0.845323 -1.29784 -2.94 
0.857598 -1.29784 -2.94 
0.876679 -1.30799 -2.963 
0.889051 -1.30799 -2.963 
0.901422 -1.30799 -2.963 
0.9067 -1.29784 -2.94 
0.918976 -1.29784 -2.94 
0.931252 -1.29784 -2.94 
0.943527 -1.29784 -2.94 
0.955803 -1.29784 -2.94 
0.968078 -1.29784 -2.94 
0.973018 -1.28813 -2.918 
0.985202 -1.28813 -2.918 
0.997385 -1.28813 -2.918 
1.00957 -1.28813 -2.918 
1.02175 -1.28813 -2.918 
1.03394 -1.28813 -2.918 
1.04612 -1.28813 -2.918 
1.0583 -1.28813 -2.918 
1.07856 -1.29784 -2.94 
1.09083 -1.29784 -2.94 
1.09485 -1.28813 -2.918 
1.11538 -1.29784 -2.94 
1.12766 -1.29784 -2.94 
1.14885 -1.30799 -2.963 
1.16123 -1.30799 -2.963 
1.1736 -1.30799 -2.963 
1.18597 -1.30799 -2.963 
1.19834 -1.30799 -2.963 
1.21071 -1.30799 -2.963 
1.22308 -1.30799 -2.963 
1.23546 -1.30799 -2.963 
1.25751 -1.31815 -2.986 
1.26998 -1.31815 -2.986 
1.28245 -1.31815 -2.986 
1.29492 -1.31815 -2.986 
1.30738 -1.31815 -2.986 
1.31985 -1.31815 -2.986 
1.33232 -1.31815 -2.986 
1.34479 -1.31815 -2.986 
1.35725 -1.31815 -2.986 
1.35917 -1.30799 -2.963 
1.37154 -1.30799 -2.963 
1.38391 -1.30799 -2.963 
1.39629 -1.30799 -2.963 
1.40866 -1.30799 -2.963 
1.42103 -1.30799 -2.963 
1.4334 -1.30799 -2.963 
1.44577 -1.30799 -2.963 
1.45814 -1.30799 -2.963 
1.47052 -1.30799 -2.963 
1.48289 -1.30799 -2.963 
1.49526 -1.30799 -2.963 
1.50763 -1.30799 -2.963 
1.5318 -1.31815 -2.986 
1.54427 -1.31815 -2.986 
1.55674 -1.31815 -2.986 
1.5692 -1.31815 -2.986 
1.58167 -1.31815 -2.986 
1.59414 -1.31815 -2.986 
1.60661 -1.31815 -2.986 
1.63154 -1.3283 -3.009 
1.64411 -1.3283 -3.009 
1.64401 -1.31815 -2.986 
1.65648 -1.31815 -2.986 
1.66894 -1.31815 -2.986 
1.69436 -1.3283 -3.009 
1.69388 -1.31815 -2.986 
1.70635 -1.31815 -2.986 
1.71881 -1.31815 -2.986 
1.73128 -1.31815 -2.986 
1.74375 -1.31815 -2.986 
1.75622 -1.31815 -2.986 
1.76869 -1.31815 -2.986 
1.76743 -1.30799 -2.963 
1.7798 -1.30799 -2.963 
1.79218 -1.30799 -2.963 
1.80455 -1.30799 -2.963 
1.81692 -1.30799 -2.963 
1.82929 -1.30799 -2.963 
1.84166 -1.30799 -2.963 
1.85403 -1.30799 -2.963 
1.86641 -1.30799 -2.963 
1.86419 -1.29784 -2.94 
1.87647 -1.29784 -2.94 
1.88874 -1.29784 -2.94 
1.90102 -1.29784 -2.94 
1.9133 -1.29784 -2.94 
1.92557 -1.29784 -2.94 
1.93785 -1.29784 -2.94 
1.95012 -1.29784 -2.94 
1.9624 -1.29784 -2.94 
1.97467 -1.29784 -2.94 
1.98695 -1.29784 -2.94 
1.99922 -1.29784 -2.94 
2.02724 -1.30799 -2.963 
2.03961 -1.30799 -2.963 
2.05198 -1.30799 -2.963 
2.08038 -1.31815 -2.986 
2.09284 -1.31815 -2.986 
2.10531 -1.31815 -2.986 
2.13409 -1.3283 -3.009 
2.14665 -1.3283 -3.009 
2.17644 -1.33889 -3.033 
2.1891 -1.33889 -3.033 
2.20177 -1.33889 -3.033 
2.21443 -1.33889 -3.033 
2.2271 -1.33889 -3.033 
2.23976 -1.33889 -3.033 
2.25242 -1.33889 -3.033 
2.24716 -1.3283 -3.009 
2.25973 -1.3283 -3.009 
2.27229 -1.3283 -3.009 
2.28485 -1.3283 -3.009 
2.29742 -1.3283 -3.009 
2.30998 -1.3283 -3.009 
2.32255 -1.3283 -3.009 
2.33511 -1.3283 -3.009 
2.34767 -1.3283 -3.009 
2.36024 -1.3283 -3.009 
2.3728 -1.3283 -3.009 
2.38536 -1.3283 -3.009 
2.39793 -1.3283 -3.009 
2.41049 -1.3283 -3.009 
2.42305 -1.3283 -3.009 
2.43562 -1.3283 -3.009 
2.44818 -1.3283 -3.009 
2.46075 -1.3283 -3.009 
2.47331 -1.3283 -3.009 
2.48587 -1.3283 -3.009 
2.49844 -1.3283 -3.009 
2.511 -1.3283 -3.009 
2.54369 -1.33889 -3.033 
2.55636 -1.33889 -3.033 
2.56902 -1.33889 -3.033 
2.58168 -1.33889 -3.033 
2.59435 -1.33889 -3.033 
2.60701 -1.33889 -3.033 
2.61968 -1.33889 -3.033 
2.63234 -1.33889 -3.033 
2.645 -1.33889 -3.033 
2.65767 -1.33889 -3.033 
2.67033 -1.33889 -3.033 
2.68299 -1.33889 -3.033 
2.69566 -1.33889 -3.033 
2.68689 -1.3283 -3.009 
2.69946 -1.3283 -3.009 
2.69129 -1.31815 -2.986 
2.68293 -1.30799 -2.963 
2.67438 -1.29784 -2.94 
2.66655 -1.28813 -2.918 
2.63834 -1.26871 -2.874 
2.61069 -1.24972 -2.831 
2.58453 -1.23162 -2.79 
2.42429 -1.11023 -2.515 
2.45028 -1.11729 -2.531 
2.46085 -1.11729 -2.531 
2.52122 -1.1398 -2.582 
2.51533 -1.1323 -2.565 
2.54278 -1.1398 -2.582 
2.67359 -1.18836 -2.692 
-1.52825 -0.727694 -1.633 
-1.52143 -0.727694 -1.633 
-1.51461 -0.727694 -1.633 
-1.5078 -0.727694 -1.633 
-1.49454 -0.724574 -1.626 
-1.48775 -0.724574 -1.626 
-1.48097 -0.724574 -1.626 
-1.47418 -0.724574 -1.626 
-1.46739 -0.724574 -1.626 
-1.46689 -0.727694 -1.633 
-1.46007 -0.727694 -1.633 
-1.45948 -0.730813 -1.64 
-1.45263 -0.730813 -1.64 
-1.45195 -0.733932 -1.647 
-1.44508 -0.733932 -1.647 
-1.44519 -0.737497 -1.655 
-1.44436 -0.740617 -1.662 
-1.44347 -0.743736 -1.669 
-1.43651 -0.743736 -1.669 
-1.43553 -0.746855 -1.676 
-1.43535 -0.75042 -1.684 
-1.42832 -0.75042 -1.684 
-1.4272 -0.75354 -1.691 
-1.42686 -0.757104 -1.699 
-1.42561 -0.760224 -1.706 
-1.42514 -0.763789 -1.714 
-1.4246 -0.767354 -1.722 
-1.41741 -0.767354 -1.722 
-1.41596 -0.770473 -1.729 
-1.41526 -0.774038 -1.737 
-1.42097 -0.781168 -1.753 
-1.4201 -0.784733 -1.761 
-1.41917 -0.788298 -1.769 
-1.41897 -0.792308 -1.778 
-1.41789 -0.795873 -1.786 
-1.41044 -0.795873 -1.786 
-1.40926 -0.799438 -1.794 
-1.4088 -0.803449 -1.803 
-1.40128 -0.803449 -1.803 
-1.39993 -0.807014 -1.811 
-1.39929 -0.811024 -1.82 
-1.39169 -0.811024 -1.82 
-1.39094 -0.815035 -1.829 
-1.3833 -0.815035 -1.829 
-1.38243 -0.819045 -1.838 
-1.38074 -0.82261 -1.846 
-1.38642 -0.830631 -1.864 
-1.38604 -0.835088 -1.874 
-1.38483 -0.839098 -1.883 
-1.38355 -0.843109 -1.892 
-1.38292 -0.847565 -1.902 
-1.38871 -0.856032 -1.921 
-1.38716 -0.860042 -1.93 
-1.38625 -0.864498 -1.94 
-1.37815 -0.864498 -1.94 
-1.37711 -0.868954 -1.95 
-1.37599 -0.873411 -1.96 
-1.37478 -0.877867 -1.97 
-1.37349 -0.882323 -1.98 
-1.37281 -0.887225 -1.991 
-1.37889 -0.896583 -2.012 
-1.3773 -0.901039 -2.022 
-1.37631 -0.905941 -2.033 
-1.37522 -0.910843 -2.044 
-1.37404 -0.915744 -2.055 
-1.37277 -0.920646 -2.066 
-1.36414 -0.920646 -2.066 
-1.36273 -0.925548 -2.077 
-1.36188 -0.930895 -2.089 
-1.35316 -0.930895 -2.089 
-1.35152 -0.935797 -2.1 
-1.35042 -0.941145 -2.112 
-1.3416 -0.941145 -2.112 
-1.33973 -0.946046 -2.123 
-1.33839 -0.951394 -2.135 
-1.33694 -0.956741 -2.147 
-1.32798 -0.956741 -2.147 
-1.32639 -0.962089 -2.159 
-1.3253 -0.967882 -2.172 
-1.32351 -0.973229 -2.184 
-1.31439 -0.973229 -2.184 
-1.31304 -0.979022 -2.197 
-1.31099 -0.98437 -2.209 
-1.31709 -0.995956 -2.235 
-1.31536 -1.00175 -2.248 
-1.31411 -1.00799 -2.262 
-1.31216 -1.01378 -2.275 
-1.31812 -1.02581 -2.302 
-1.31647 -1.03205 -2.316 
-1.31526 -1.03873 -2.331 
-1.31337 -1.04497 -2.345 
-1.31136 -1.05121 -2.359 
-1.30979 -1.0579 -2.374 
-1.30809 -1.06458 -2.389 
-1.30626 -1.07126 -2.404 
-1.30432 -1.07795 -2.419 
-1.29422 -1.07795 -2.419 
-1.29208 -1.08463 -2.434 
-1.28191 -1.08463 -2.434 
-1.28011 -1.09176 -2.45 
-1.27818 -1.09889 -2.466 
-1.26788 -1.09889 -2.466 
-1.25758 -1.09889 -2.466 
-1.25538 -1.10602 -2.482 
-1.24502 -1.10602 -2.482 
-1.24261 -1.11315 -2.498 
-1.24057 -1.12073 -2.515 
-1.23007 -1.12073 -2.515 
-1.22732 -1.12786 -2.531 
-1.22493 -1.13543 -2.548 
-1.21429 -1.13543 -2.548 
-1.21168 -1.14301 -2.565 
-1.20893 -1.15058 -2.582 
-1.19815 -1.15058 -2.582 
-1.19565 -1.15861 -2.6 
-1.18479 -1.15861 -2.6 
-1.17394 -1.15861 -2.6 
-1.15503 -1.15058 -2.582 
-1.13671 -1.14301 -2.565 
-1.10405 -1.12073 -2.515 
-1.05181 -1.07795 -2.419 
-0.997355 -1.03205 -2.316 
-0.841239 -0.896583 -2.012 
-0.79517 -0.856032 -1.921 
-0.753139 -0.819045 -1.838 
-0.727619 -0.799438 -1.794 
-0.706882 -0.784733 -1.761 
-0.686817 -0.770473 -1.729 
-0.673702 -0.763789 -1.714 
-0.660713 -0.757104 -1.699 
-0.650541 -0.75354 -1.691 
-0.64348 -0.75354 -1.691 
-0.633785 -0.75042 -1.684 
-0.626754 -0.75042 -1.684 
-0.622299 -0.75354 -1.691 
-0.609781 -0.746855 -1.676 
-0.602783 -0.746855 -1.676 
-0.595785 -0.746855 -1.676 
-0.588787 -0.746855 -1.676 
-0.581789 -0.746855 -1.676 
-0.574791 -0.746855 -1.676 
-0.567793 -0.746855 -1.676 
-0.560796 -0.746855 -1.676 
-0.553798 -0.746855 -1.676 
-0.544516 -0.743736 -1.669 
-0.537547 -0.743736 -1.669 
-0.530579 -0.743736 -1.669 
-0.521414 -0.740617 -1.662 
-0.514474 -0.740617 -1.662 
-0.507535 -0.740617 -1.662 
-0.500596 -0.740617 -1.662 
-0.493656 -0.740617 -1.662 
-0.486717 -0.740617 -1.662 
-0.479777 -0.740617 -1.662 
-0.472838 -0.740617 -1.662 
-0.465898 -0.740617 -1.662 
-0.457026 -0.737497 -1.655 
-0.450116 -0.737497 -1.655 
-0.443205 -0.737497 -1.655 
-0.438141 -0.740617 -1.662 
-0.431201 -0.740617 -1.662 
-0.424262 -0.740617 -1.662 
-0.417322 -0.740617 -1.662 
-0.410383 -0.740617 -1.662 
-0.403443 -0.740617 -1.662 
-0.398174 -0.743736 -1.669 
-0.391205 -0.743736 -1.669 
-0.384237 -0.743736 -1.669 
-0.375686 -0.740617 -1.662 
-0.368746 -0.740617 -1.662 
-0.361807 -0.740617 -1.662 
-0.354867 -0.740617 -1.662 
-0.347928 -0.740617 -1.662 
-0.340988 -0.740617 -1.662 
-0.334049 -0.740617 -1.662 
-0.327109 -0.740617 -1.662 
-0.32017 -0.740617 -1.662 
-0.313231 -0.740617 -1.662 
-0.306291 -0.740617 -1.662 
-0.298091 -0.737497 -1.655 
-0.291181 -0.737497 -1.655 
-0.28427 -0.737497 -1.655 
-0.27736 -0.737497 -1.655 
-0.27045 -0.737497 -1.655 
-0.264654 -0.740617 -1.662 
-0.2588 -0.743736 -1.669 
-0.251832 -0.743736 -1.669 
-0.247064 -0.75042 -1.684 
-0.242171 -0.757104 -1.699 
-0.239227 -0.770473 -1.729 
-0.235229 -0.781168 -1.753 
-0.23324 -0.799438 -1.794 
-0.231286 -0.819045 -1.838 
-0.229086 -0.839098 -1.883 
-0.227921 -0.864498 -1.94 
-0.225599 -0.887225 -1.991 
-0.224271 -0.915744 -2.055 
-0.221673 -0.941145 -2.112 
-0.220111 -0.973229 -2.184 
-0.219784 -1.01378 -2.275 
-0.218049 -1.05121 -2.359 
-0.216231 -1.09176 -2.45 
-0.212812 -1.12786 -2.531 
-0.209196 -1.16663 -2.618 
-0.203869 -1.1996 -2.692 
-0.196779 -1.22545 -2.75 
-0.187992 -1.24327 -2.79 
-0.178934 -1.26154 -2.831 
-0.167114 -1.26154 -2.831 
-0.156445 -1.2709 -2.852 
-0.145652 -1.28071 -2.874 
-0.133652 -1.28071 -2.874 
-0.121652 -1.28071 -2.874 
-0.110453 -1.29006 -2.895 
-0.0983657 -1.29006 -2.895 
-0.086278 -1.29006 -2.895 
-0.0741904 -1.29006 -2.895 
-0.0621027 -1.29006 -2.895 
-0.0500151 -1.29006 -2.895 
-0.0379274 -1.29006 -2.895 
-0.0258397 -1.29006 -2.895 
-0.0137521 -1.29006 -2.895 
-0.00166441 -1.29006 -2.895 
0.0104232 -1.29006 -2.895 
0.0225109 -1.29006 -2.895 
0.0345986 -1.29006 -2.895 
0.0466862 -1.29006 -2.895 
0.0587739 -1.29006 -2.895 
0.0703475 -1.28071 -2.874 
0.0823475 -1.28071 -2.874 
0.0936253 -1.2709 -2.852 
0.105533 -1.2709 -2.852 
0.117442 -1.2709 -2.852 
0.12935 -1.2709 -2.852 
0.141258 -1.2709 -2.852 
0.152038 -1.26154 -2.831 
0.163859 -1.26154 -2.831 
0.175679 -1.26154 -2.831 
0.187499 -1.26154 -2.831 
0.19932 -1.26154 -2.831 
0.21114 -1.26154 -2.831 
0.222961 -1.26154 -2.831 
0.236523 -1.2709 -2.852 
0.248431 -1.2709 -2.852 
0.260339 -1.2709 -2.852 
0.274347 -1.28071 -2.874 
0.286347 -1.28071 -2.874 
0.298347 -1.28071 -2.874 
0.310347 -1.28071 -2.874 
0.324702 -1.29006 -2.895 
0.33679 -1.29006 -2.895 
0.351649 -1.30031 -2.918 
0.366576 -1.31012 -2.94 
0.378852 -1.31012 -2.94 
0.394187 -1.32037 -2.963 
0.409715 -1.33061 -2.986 
0.422182 -1.33061 -2.986 
0.437998 -1.34086 -3.009 
0.450562 -1.34086 -3.009 
0.463125 -1.34086 -3.009 
0.475689 -1.34086 -3.009 
0.488252 -1.34086 -3.009 
0.500816 -1.34086 -3.009 
0.51338 -1.34086 -3.009 
0.525943 -1.34086 -3.009 
0.534391 -1.33061 -2.986 
0.542646 -1.32037 -2.963 
0.555018 -1.32037 -2.963 
0.567389 -1.32037 -2.963 
0.575261 -1.31012 -2.94 
0.58314 -1.30031 -2.918 
0.595323 -1.30031 -2.918 
0.602719 -1.29006 -2.895 
0.614806 -1.29006 -2.895 
0.626894 -1.29006 -2.895 
0.638982 -1.29006 -2.895 
0.651069 -1.29006 -2.895 
0.658346 -1.28071 -2.874 
0.675245 -1.29006 -2.895 
0.687332 -1.29006 -2.895 
0.69942 -1.29006 -2.895 
0.71716 -1.30031 -2.918 
0.729344 -1.30031 -2.918 
0.741528 -1.30031 -2.918 
0.753711 -1.30031 -2.918 
0.765895 -1.30031 -2.918 
0.783945 -1.31012 -2.94 
0.796221 -1.31012 -2.94 
0.808496 -1.31012 -2.94 
0.81463 -1.30031 -2.918 
0.826814 -1.30031 -2.918 
0.845323 -1.31012 -2.94 
0.857598 -1.31012 -2.94 
0.869874 -1.31012 -2.94 
0.882149 -1.31012 -2.94 
0.894425 -1.31012 -2.94 
0.9067 -1.31012 -2.94 
0.912099 -1.30031 -2.918 
0.924283 -1.30031 -2.918 
0.936467 -1.30031 -2.918 
0.94865 -1.30031 -2.918 
0.960834 -1.30031 -2.918 
0.973018 -1.30031 -2.918 
0.985202 -1.30031 -2.918 
0.997385 -1.30031 -2.918 
1.00957 -1.30031 -2.918 
1.02175 -1.30031 -2.918 
1.03394 -1.30031 -2.918 
1.04612 -1.30031 -2.918 
1.0583 -1.30031 -2.918 
1.07049 -1.30031 -2.918 
1.08267 -1.30031 -2.918 
1.09485 -1.30031 -2.918 
1.10704 -1.30031 -2.918 
1.12766 -1.31012 -2.94 
1.13994 -1.31012 -2.94 
1.15221 -1.31012 -2.94 
1.16449 -1.31012 -2.94 
1.17676 -1.31012 -2.94 
1.18904 -1.31012 -2.94 
1.20131 -1.31012 -2.94 
1.22308 -1.32037 -2.963 
1.23546 -1.32037 -2.963 
1.24783 -1.32037 -2.963 
1.2602 -1.32037 -2.963 
1.27257 -1.32037 -2.963 
1.28494 -1.32037 -2.963 
1.29731 -1.32037 -2.963 
1.30968 -1.32037 -2.963 
1.32206 -1.32037 -2.963 
1.33443 -1.32037 -2.963 
1.3468 -1.32037 -2.963 
1.35917 -1.32037 -2.963 
1.37154 -1.32037 -2.963 
1.38391 -1.32037 -2.963 
1.38545 -1.31012 -2.94 
1.39772 -1.31012 -2.94 
1.41 -1.31012 -2.94 
1.42227 -1.31012 -2.94 
1.43455 -1.31012 -2.94 
1.45814 -1.32037 -2.963 
1.47052 -1.32037 -2.963 
1.48289 -1.32037 -2.963 
1.49526 -1.32037 -2.963 
1.50763 -1.32037 -2.963 
1.52 -1.32037 -2.963 
1.53237 -1.32037 -2.963 
1.54474 -1.32037 -2.963 
1.55712 -1.32037 -2.963 
1.56949 -1.32037 -2.963 
1.59414 -1.33061 -2.986 
1.60661 -1.33061 -2.986 
1.61907 -1.33061 -2.986 
1.63154 -1.33061 -2.986 
1.64401 -1.33061 -2.986 
1.65648 -1.33061 -2.986 
1.66894 -1.33061 -2.986 
1.68141 -1.33061 -2.986 
1.69388 -1.33061 -2.986 
1.70635 -1.33061 -2.986 
1.70558 -1.32037 -2.963 
1.71795 -1.32037 -2.963 
1.73032 -1.32037 -2.963 
1.74269 -1.32037 -2.963 
1.75506 -1.32037 -2.963 
1.76743 -1.32037 -2.963 
1.7798 -1.32037 -2.963 
1.79218 -1.32037 -2.963 
1.79054 -1.31012 -2.94 
1.80282 -1.31012 -2.94 
1.81509 -1.31012 -2.94 
1.82737 -1.31012 -2.94 
1.83964 -1.31012 -2.94 
1.85192 -1.31012 -2.94 
1.86419 -1.31012 -2.94 
1.87647 -1.31012 -2.94 
1.88874 -1.31012 -2.94 
1.90102 -1.31012 -2.94 
1.9133 -1.31012 -2.94 
1.92557 -1.31012 -2.94 
1.92335 -1.30031 -2.918 
1.93553 -1.30031 -2.918 
1.94771 -1.30031 -2.918 
1.9599 -1.30031 -2.918 
1.97208 -1.30031 -2.918 
1.99922 -1.31012 -2.94 
2.0115 -1.31012 -2.94 
2.02378 -1.31012 -2.94 
2.03605 -1.31012 -2.94 
2.06435 -1.32037 -2.963 
2.07672 -1.32037 -2.963 
2.10531 -1.33061 -2.986 
2.11778 -1.33061 -2.986 
2.13025 -1.33061 -2.986 
2.15922 -1.34086 -3.009 
2.17178 -1.34086 -3.009 
2.18435 -1.34086 -3.009 
2.19691 -1.34086 -3.009 
2.20947 -1.34086 -3.009 
2.22204 -1.34086 -3.009 
2.21752 -1.33061 -2.986 
2.22999 -1.33061 -2.986 
2.24245 -1.33061 -2.986 
2.25492 -1.33061 -2.986 
2.26739 -1.33061 -2.986 
2.27986 -1.33061 -2.986 
2.29233 -1.33061 -2.986 
2.30479 -1.33061 -2.986 
2.31726 -1.33061 -2.986 
2.32973 -1.33061 -2.986 
2.3422 -1.33061 -2.986 
2.35466 -1.33061 -2.986 
2.36713 -1.33061 -2.986 
2.3796 -1.33061 -2.986 
2.39207 -1.33061 -2.986 
2.40453 -1.33061 -2.986 
2.417 -1.33061 -2.986 
2.42947 -1.33061 -2.986 
2.44194 -1.33061 -2.986 
2.4544 -1.33061 -2.986 
2.46687 -1.33061 -2.986 
2.47934 -1.33061 -2.986 
2.49181 -1.33061 -2.986 
2.50427 -1.33061 -2.986 
2.53613 -1.34086 -3.009 
2.54869 -1.34086 -3.009 
2.56125 -1.34086 -3.009 
2.57382 -1.34086 -3.009 
2.60701 -1.35156 -3.033 
2.61968 -1.35156 -3.033 
2.63234 -1.35156 -3.033 
2.645 -1.35156 -3.033 
2.65767 -1.35156 -3.033 
2.67033 -1.35156 -3.033 
2.66176 -1.34086 -3.009 
2.67433 -1.34086 -3.009 
2.68689 -1.34086 -3.009 
2.67882 -1.33061 -2.986 
2.69129 -1.33061 -2.986 
2.68293 -1.32037 -2.963 
2.67438 -1.31012 -2.94 
2.66655 -1.30031 -2.918 
2.65762 -1.29006 -2.895 
2.63005 -1.2709 -2.852 
2.60306 -1.25219 -2.81 
2.51623 -1.1996 -2.692 
2.39248 -1.10602 -2.482 
2.41833 -1.11315 -2.498 
2.44529 -1.12073 -2.515 
2.48802 -1.13543 -2.548 
2.51533 -1.14301 -2.565 
2.52604 -1.14301 -2.565 
2.65472 -1.19114 -2.673 
-1.52825 -0.734512 -1.633 
-1.52143 -0.734512 -1.633 
-1.50812 -0.731364 -1.626 
-1.50133 -0.731364 -1.626 
-1.49454 -0.731364 -1.626 
-1.49416 -0.734512 -1.633 
-1.48097 -0.731364 -1.626 
-1.47418 -0.731364 -1.626 
-1.46739 -0.731364 -1.626 
-1.46689 -0.734512 -1.633 
-1.46007 -0.734512 -1.633 
-1.45948 -0.737661 -1.64 
-1.45263 -0.737661 -1.64 
-1.45195 -0.740809 -1.647 
-1.44508 -0.740809 -1.647 
-1.44519 -0.744408 -1.655 
-1.44436 -0.747556 -1.662 
-1.44347 -0.750705 -1.669 
-1.43651 -0.750705 -1.669 
-1.43553 -0.753853 -1.676 
-1.43535 -0.757452 -1.684 
-1.42832 -0.757452 -1.684 
-1.4272 -0.7606 -1.691 
-1.42686 -0.764198 -1.699 
-1.42561 -0.767347 -1.706 
-1.42514 -0.770945 -1.714 
-1.4246 -0.774544 -1.722 
-1.41741 -0.774544 -1.722 
-1.41596 -0.777692 -1.729 
-1.41526 -0.781291 -1.737 
-1.42097 -0.788487 -1.753 
-1.41365 -0.788487 -1.753 
-1.41275 -0.792086 -1.761 
-1.41178 -0.795684 -1.769 
-1.41154 -0.799732 -1.778 
-1.41044 -0.80333 -1.786 
-1.40926 -0.806929 -1.794 
-1.4088 -0.810977 -1.803 
-1.40128 -0.810977 -1.803 
-1.39993 -0.814575 -1.811 
-1.39929 -0.818623 -1.82 
-1.39169 -0.818623 -1.82 
-1.39094 -0.822672 -1.829 
-1.3833 -0.822672 -1.829 
-1.38243 -0.82672 -1.838 
-1.38074 -0.830318 -1.846 
-1.38642 -0.838414 -1.864 
-1.38604 -0.842912 -1.874 
-1.39145 -0.851008 -1.892 
-1.39086 -0.855506 -1.902 
-1.38946 -0.859555 -1.911 
-1.38871 -0.864052 -1.921 
-1.38716 -0.868101 -1.93 
-1.38625 -0.872599 -1.94 
-1.38525 -0.877096 -1.95 
-1.37711 -0.877096 -1.95 
-1.37599 -0.881594 -1.96 
-1.37478 -0.886092 -1.97 
-1.37349 -0.89059 -1.98 
-1.37281 -0.895538 -1.991 
-1.37135 -0.900036 -2.001 
-1.3773 -0.909482 -2.022 
-1.37631 -0.914429 -2.033 
-1.37522 -0.919377 -2.044 
-1.37404 -0.924325 -2.055 
-1.37277 -0.929272 -2.066 
-1.36414 -0.929272 -2.066 
-1.36273 -0.93422 -2.077 
-1.35406 -0.93422 -2.077 
-1.35316 -0.939618 -2.089 
-1.35152 -0.944565 -2.1 
-1.35042 -0.949963 -2.112 
-1.3416 -0.949963 -2.112 
-1.33973 -0.954911 -2.123 
-1.33839 -0.960308 -2.135 
-1.32947 -0.960308 -2.135 
-1.32798 -0.965706 -2.147 
-1.32639 -0.971103 -2.159 
-1.3253 -0.976951 -2.172 
-1.32351 -0.982348 -2.184 
-1.32221 -0.988195 -2.197 
-1.32021 -0.993593 -2.209 
-1.3187 -0.99944 -2.222 
-1.31709 -1.00529 -2.235 
-1.31536 -1.01113 -2.248 
-1.32166 -1.02328 -2.275 
-1.32024 -1.02958 -2.289 
-1.31812 -1.03542 -2.302 
-1.325 -1.04847 -2.331 
-1.32316 -1.05476 -2.345 
-1.32121 -1.06106 -2.359 
-1.3197 -1.06781 -2.374 
-1.30979 -1.06781 -2.374 
-1.30809 -1.07456 -2.389 
-1.30626 -1.0813 -2.404 
-1.30432 -1.08805 -2.419 
-1.29422 -1.08805 -2.419 
-1.29208 -1.0948 -2.434 
-1.28191 -1.0948 -2.434 
-1.28011 -1.10199 -2.45 
-1.27818 -1.10919 -2.466 
-1.26788 -1.10919 -2.466 
-1.25758 -1.10919 -2.466 
-1.25538 -1.11639 -2.482 
-1.24502 -1.11639 -2.482 
-1.24261 -1.12358 -2.498 
-1.24057 -1.13123 -2.515 
-1.23007 -1.13123 -2.515 
-1.22732 -1.13843 -2.531 
-1.21676 -1.13843 -2.531 
-1.21429 -1.14607 -2.548 
-1.21168 -1.15372 -2.565 
-1.20097 -1.15372 -2.565 
-1.19815 -1.16137 -2.582 
-1.18737 -1.16137 -2.582 
-1.18479 -1.16946 -2.6 
-1.16581 -1.16137 -2.582 
-1.14742 -1.15372 -2.565 
-1.12918 -1.14607 -2.548 
-1.09659 -1.12358 -2.498 
-1.05181 -1.08805 -2.419 
-1.00984 -1.05476 -2.345 
-0.958685 -1.01113 -2.248 
-0.911716 -0.971103 -2.159 
-0.863817 -0.929272 -2.066 
-0.819592 -0.89059 -1.98 
-0.779364 -0.855506 -1.902 
-0.75236 -0.834366 -1.855 
-0.726952 -0.814575 -1.811 
-0.706282 -0.799732 -1.778 
-0.689032 -0.788487 -1.753 
-0.672379 -0.777692 -1.729 
-0.659389 -0.770945 -1.714 
-0.649188 -0.767347 -1.706 
-0.639431 -0.764198 -1.699 
-0.629359 -0.7606 -1.691 
-0.622299 -0.7606 -1.691 
-0.612692 -0.757452 -1.684 
-0.60566 -0.757452 -1.684 
-0.598629 -0.757452 -1.684 
-0.591598 -0.757452 -1.684 
-0.581789 -0.753853 -1.676 
-0.574791 -0.753853 -1.676 
-0.567793 -0.753853 -1.676 
-0.560796 -0.753853 -1.676 
-0.551485 -0.750705 -1.669 
-0.544516 -0.750705 -1.669 
-0.537547 -0.750705 -1.669 
-0.528353 -0.747556 -1.662 
-0.521414 -0.747556 -1.662 
-0.514474 -0.747556 -1.662 
-0.507535 -0.747556 -1.662 
-0.500596 -0.747556 -1.662 
-0.493656 -0.747556 -1.662 
-0.486717 -0.747556 -1.662 
-0.479777 -0.747556 -1.662 
-0.472838 -0.747556 -1.662 
-0.463936 -0.744408 -1.655 
-0.457026 -0.744408 -1.655 
-0.450116 -0.744408 -1.655 
-0.443205 -0.744408 -1.655 
-0.438141 -0.747556 -1.662 
-0.431201 -0.747556 -1.662 
-0.426049 -0.750705 -1.669 
-0.41908 -0.750705 -1.669 
-0.412111 -0.750705 -1.669 
-0.405143 -0.750705 -1.669 
-0.398174 -0.750705 -1.669 
-0.391205 -0.750705 -1.669 
-0.384237 -0.750705 -1.669 
-0.377268 -0.750705 -1.669 
-0.370299 -0.750705 -1.669 
-0.361807 -0.747556 -1.662 
-0.354867 -0.747556 -1.662 
-0.347928 -0.747556 -1.662 
-0.340988 -0.747556 -1.662 
-0.332642 -0.744408 -1.655 
-0.325732 -0.744408 -1.655 
-0.32017 -0.747556 -1.662 
-0.313231 -0.747556 -1.662 
-0.306291 -0.747556 -1.662 
-0.298091 -0.744408 -1.655 
-0.291181 -0.744408 -1.655 
-0.28427 -0.744408 -1.655 
-0.27736 -0.744408 -1.655 
-0.271594 -0.747556 -1.662 
-0.264654 -0.747556 -1.662 
-0.2588 -0.750705 -1.669 
-0.252888 -0.753853 -1.676 
-0.248091 -0.7606 -1.691 
-0.242171 -0.764198 -1.699 
-0.240334 -0.781291 -1.737 
-0.237376 -0.795684 -1.769 
-0.23662 -0.818623 -1.82 
-0.235816 -0.842912 -1.874 
-0.234804 -0.868101 -1.93 
-0.235087 -0.900036 -2.001 
-0.232851 -0.924325 -2.055 
-0.231692 -0.954911 -2.123 
-0.230595 -0.988195 -2.197 
-0.227972 -1.01743 -2.262 
-0.223595 -1.08805 -2.419 
-0.220467 -1.12358 -2.498 
-0.215671 -1.15372 -2.565 
-0.209196 -1.17756 -2.618 
-0.203869 -1.21084 -2.692 
-0.196779 -1.23693 -2.75 
-0.186644 -1.24593 -2.77 
-0.177607 -1.26392 -2.81 
-0.165874 -1.26392 -2.81 
-0.155293 -1.27336 -2.831 
-0.143473 -1.27336 -2.831 
-0.132629 -1.28281 -2.852 
-0.121652 -1.29271 -2.874 
-0.109652 -1.29271 -2.874 
-0.0976522 -1.29271 -2.874 
-0.0856522 -1.29271 -2.874 
-0.0736522 -1.29271 -2.874 
-0.0616522 -1.29271 -2.874 
-0.0496523 -1.29271 -2.874 
-0.0376523 -1.29271 -2.874 
-0.0256523 -1.29271 -2.874 
-0.0136523 -1.29271 -2.874 
-0.00165234 -1.29271 -2.874 
0.0103476 -1.29271 -2.874 
0.0223476 -1.29271 -2.874 
0.0343476 -1.29271 -2.874 
0.0463476 -1.29271 -2.874 
0.0579009 -1.28281 -2.852 
0.069809 -1.28281 -2.852 
0.0817172 -1.28281 -2.852 
0.0936253 -1.28281 -2.852 
0.104756 -1.27336 -2.831 
0.116577 -1.27336 -2.831 
0.128397 -1.27336 -2.831 
0.140218 -1.27336 -2.831 
0.152038 -1.27336 -2.831 
0.163859 -1.27336 -2.831 
0.175679 -1.27336 -2.831 
0.187499 -1.27336 -2.831 
0.19932 -1.27336 -2.831 
0.21114 -1.27336 -2.831 
0.222961 -1.27336 -2.831 
0.234781 -1.27336 -2.831 
0.248431 -1.28281 -2.852 
0.260339 -1.28281 -2.852 
0.272247 -1.28281 -2.852 
0.284155 -1.28281 -2.852 
0.296063 -1.28281 -2.852 
0.310347 -1.29271 -2.874 
0.322347 -1.29271 -2.874 
0.33679 -1.30215 -2.895 
0.348878 -1.30215 -2.895 
0.363833 -1.3125 -2.918 
0.376017 -1.3125 -2.918 
0.391127 -1.32239 -2.94 
0.406559 -1.33274 -2.963 
0.41893 -1.33274 -2.963 
0.431302 -1.33274 -2.963 
0.443674 -1.33274 -2.963 
0.456045 -1.33274 -2.963 
0.472053 -1.34308 -2.986 
0.48452 -1.34308 -2.986 
0.496988 -1.34308 -2.986 
0.509456 -1.34308 -2.986 
0.517903 -1.33274 -2.963 
0.530275 -1.33274 -2.963 
0.542646 -1.33274 -2.963 
0.55071 -1.32239 -2.94 
0.562985 -1.32239 -2.94 
0.570956 -1.3125 -2.918 
0.58314 -1.3125 -2.918 
0.590631 -1.30215 -2.895 
0.598347 -1.29271 -2.874 
0.610347 -1.29271 -2.874 
0.622347 -1.29271 -2.874 
0.634346 -1.29271 -2.874 
0.646347 -1.29271 -2.874 
0.658346 -1.29271 -2.874 
0.670346 -1.29271 -2.874 
0.682346 -1.29271 -2.874 
0.694346 -1.29271 -2.874 
0.711508 -1.30215 -2.895 
0.723595 -1.30215 -2.895 
0.735683 -1.30215 -2.895 
0.747771 -1.30215 -2.895 
0.765895 -1.3125 -2.918 
0.778079 -1.3125 -2.918 
0.790263 -1.3125 -2.918 
0.802446 -1.3125 -2.918 
0.81463 -1.3125 -2.918 
0.826814 -1.3125 -2.918 
0.838997 -1.3125 -2.918 
0.851181 -1.3125 -2.918 
0.863365 -1.3125 -2.918 
0.875548 -1.3125 -2.918 
0.887732 -1.3125 -2.918 
0.899916 -1.3125 -2.918 
0.912099 -1.3125 -2.918 
0.924283 -1.3125 -2.918 
0.936467 -1.3125 -2.918 
0.94865 -1.3125 -2.918 
0.960834 -1.3125 -2.918 
0.965348 -1.30215 -2.895 
0.977436 -1.30215 -2.895 
0.989524 -1.30215 -2.895 
1.00161 -1.30215 -2.895 
1.0137 -1.30215 -2.895 
1.03394 -1.3125 -2.918 
1.04612 -1.3125 -2.918 
1.0583 -1.3125 -2.918 
1.07049 -1.3125 -2.918 
1.08267 -1.3125 -2.918 
1.09485 -1.3125 -2.918 
1.10704 -1.3125 -2.918 
1.11922 -1.3125 -2.918 
1.13141 -1.3125 -2.918 
1.15221 -1.32239 -2.94 
1.15577 -1.3125 -2.918 
1.16796 -1.3125 -2.918 
1.18014 -1.3125 -2.918 
1.19232 -1.3125 -2.918 
1.21359 -1.32239 -2.94 
1.22586 -1.32239 -2.94 
1.23814 -1.32239 -2.94 
1.25042 -1.32239 -2.94 
1.26269 -1.32239 -2.94 
1.27497 -1.32239 -2.94 
1.29731 -1.33274 -2.963 
1.30968 -1.33274 -2.963 
1.32206 -1.33274 -2.963 
1.33443 -1.33274 -2.963 
1.33634 -1.32239 -2.94 
1.34862 -1.32239 -2.94 
1.3609 -1.32239 -2.94 
1.37317 -1.32239 -2.94 
1.38545 -1.32239 -2.94 
1.39772 -1.32239 -2.94 
1.39945 -1.3125 -2.918 
1.41163 -1.3125 -2.918 
1.43455 -1.32239 -2.94 
1.44682 -1.32239 -2.94 
1.4591 -1.32239 -2.94 
1.47138 -1.32239 -2.94 
1.48365 -1.32239 -2.94 
1.49593 -1.32239 -2.94 
1.5082 -1.32239 -2.94 
1.52048 -1.32239 -2.94 
1.53275 -1.32239 -2.94 
1.54503 -1.32239 -2.94 
1.5573 -1.32239 -2.94 
1.58186 -1.33274 -2.963 
1.59423 -1.33274 -2.963 
1.6066 -1.33274 -2.963 
1.61897 -1.33274 -2.963 
1.63135 -1.33274 -2.963 
1.64372 -1.33274 -2.963 
1.65609 -1.33274 -2.963 
1.66846 -1.33274 -2.963 
1.68083 -1.33274 -2.963 
1.6932 -1.33274 -2.963 
1.70558 -1.33274 -2.963 
1.71795 -1.33274 -2.963 
1.71689 -1.32239 -2.94 
1.72916 -1.32239 -2.94 
1.74144 -1.32239 -2.94 
1.75371 -1.32239 -2.94 
1.76599 -1.32239 -2.94 
1.77826 -1.32239 -2.94 
1.79054 -1.32239 -2.94 
1.78933 -1.3125 -2.918 
1.80151 -1.3125 -2.918 
1.81369 -1.3125 -2.918 
1.82588 -1.3125 -2.918 
1.83806 -1.3125 -2.918 
1.85024 -1.3125 -2.918 
1.86243 -1.3125 -2.918 
1.87461 -1.3125 -2.918 
1.88679 -1.3125 -2.918 
1.89898 -1.3125 -2.918 
1.91116 -1.3125 -2.918 
1.92335 -1.3125 -2.918 
1.93553 -1.3125 -2.918 
1.94771 -1.3125 -2.918 
1.9599 -1.3125 -2.918 
1.97208 -1.3125 -2.918 
1.98426 -1.3125 -2.918 
1.99645 -1.3125 -2.918 
2.00863 -1.3125 -2.918 
2.03605 -1.32239 -2.94 
2.04833 -1.32239 -2.94 
2.07672 -1.33274 -2.963 
2.08909 -1.33274 -2.963 
2.11778 -1.34308 -2.986 
2.13025 -1.34308 -2.986 
2.14271 -1.34308 -2.986 
2.15518 -1.34308 -2.986 
2.16765 -1.34308 -2.986 
2.18012 -1.34308 -2.986 
2.19258 -1.34308 -2.986 
2.20505 -1.34308 -2.986 
2.21752 -1.34308 -2.986 
2.21281 -1.33274 -2.963 
2.22518 -1.33274 -2.963 
2.23755 -1.33274 -2.963 
2.24992 -1.33274 -2.963 
2.2623 -1.33274 -2.963 
2.27467 -1.33274 -2.963 
2.28704 -1.33274 -2.963 
2.29941 -1.33274 -2.963 
2.31178 -1.33274 -2.963 
2.32415 -1.33274 -2.963 
2.35466 -1.34308 -2.986 
2.36713 -1.34308 -2.986 
2.3796 -1.34308 -2.986 
2.39207 -1.34308 -2.986 
2.40453 -1.34308 -2.986 
2.417 -1.34308 -2.986 
2.42947 -1.34308 -2.986 
2.44194 -1.34308 -2.986 
2.4544 -1.34308 -2.986 
2.46687 -1.34308 -2.986 
2.47934 -1.34308 -2.986 
2.49181 -1.34308 -2.986 
2.50427 -1.34308 -2.986 
2.51674 -1.34308 -2.986 
2.52921 -1.34308 -2.986 
2.54168 -1.34308 -2.986 
2.55414 -1.34308 -2.986 
2.56661 -1.34308 -2.986 
2.57908 -1.34308 -2.986 
2.61151 -1.35343 -3.009 
2.62407 -1.35343 -3.009 
2.63664 -1.35343 -3.009 
2.6492 -1.35343 -3.009 
2.66176 -1.35343 -3.009 
2.67433 -1.35343 -3.009 
2.68689 -1.35343 -3.009 
2.67882 -1.34308 -2.986 
2.69129 -1.34308 -2.986 
2.68293 -1.33274 -2.963 
2.67438 -1.32239 -2.94 
2.66655 -1.3125 -2.918 
2.65762 -1.30215 -2.895 
2.65034 -1.29271 -2.874 
2.62251 -1.27336 -2.831 
2.57757 -1.24593 -2.77 
2.55175 -1.22793 -2.73 
2.50963 -1.2023 -2.673 
2.4859 -1.18565 -2.636 
2.4628 -1.16946 -2.6 
2.43479 -1.13123 -2.515 
2.42876 -1.12358 -2.498 
2.47142 -1.13843 -2.531 
2.49866 -1.14607 -2.548 
2.50929 -1.14607 -2.548 
2.55356 -1.16137 -2.582 
2.61797 -1.18565 -2.636 
-1.52143 -0.74133 -1.633 
-1.50812 -0.738153 -1.626 
-1.5078 -0.74133 -1.633 
-1.50098 -0.74133 -1.633 
-1.49416 -0.74133 -1.633 
-1.48097 -0.738153 -1.626 
-1.47418 -0.738153 -1.626 
-1.46739 -0.738153 -1.626 
-1.46689 -0.74133 -1.633 
-1.46007 -0.74133 -1.633 
-1.45948 -0.744508 -1.64 
-1.45263 -0.744508 -1.64 
-1.45195 -0.747686 -1.647 
-1.4521 -0.751318 -1.655 
-1.44519 -0.751318 -1.655 
-1.44436 -0.754496 -1.662 
-1.44347 -0.757673 -1.669 
-1.43651 -0.757673 -1.669 
-1.43553 -0.760851 -1.676 
-1.43535 -0.764483 -1.684 
-1.43426 -0.767661 -1.691 
-1.4272 -0.767661 -1.691 
-1.42686 -0.771292 -1.699 
-1.42561 -0.77447 -1.706 
-1.42514 -0.778102 -1.714 
-1.4246 -0.781734 -1.722 
-1.41741 -0.781734 -1.722 
-1.41596 -0.784911 -1.729 
-1.41526 -0.788543 -1.737 
-1.41449 -0.792175 -1.745 
-1.41365 -0.795807 -1.753 
-1.41275 -0.799438 -1.761 
-1.41178 -0.80307 -1.769 
-1.41154 -0.807156 -1.778 
-1.41044 -0.810788 -1.786 
-1.40926 -0.814419 -1.794 
-1.40177 -0.814419 -1.794 
-1.40128 -0.818505 -1.803 
-1.39993 -0.822137 -1.811 
-1.39929 -0.826223 -1.82 
-1.39169 -0.826223 -1.82 
-1.39094 -0.830308 -1.829 
-1.3833 -0.830308 -1.829 
-1.38243 -0.834394 -1.838 
-1.38074 -0.838026 -1.846 
-1.38642 -0.846197 -1.864 
-1.38604 -0.850737 -1.874 
-1.39145 -0.858908 -1.892 
-1.39086 -0.863448 -1.902 
-1.38946 -0.867534 -1.911 
-1.38871 -0.872073 -1.921 
-1.38716 -0.876159 -1.93 
-1.38625 -0.880699 -1.94 
-1.38525 -0.885238 -1.95 
-1.37711 -0.885238 -1.95 
-1.37599 -0.889778 -1.96 
-1.37478 -0.894318 -1.97 
-1.37349 -0.898858 -1.98 
-1.37281 -0.903851 -1.991 
-1.37135 -0.908391 -2.001 
-1.37049 -0.913384 -2.012 
-1.37631 -0.922918 -2.033 
-1.36782 -0.922918 -2.033 
-1.37404 -0.932905 -2.055 
-1.37277 -0.937899 -2.066 
-1.36414 -0.937899 -2.066 
-1.36273 -0.942892 -2.077 
-1.35406 -0.942892 -2.077 
-1.35316 -0.94834 -2.089 
-1.35152 -0.953334 -2.1 
-1.34275 -0.953334 -2.1 
-1.3416 -0.958781 -2.112 
-1.33973 -0.963775 -2.123 
-1.33839 -0.969223 -2.135 
-1.33694 -0.97467 -2.147 
-1.32798 -0.97467 -2.147 
-1.32639 -0.980118 -2.159 
-1.3253 -0.986019 -2.172 
-1.32351 -0.991467 -2.184 
-1.32221 -0.997369 -2.197 
-1.32021 -1.00282 -2.209 
-1.3187 -1.00872 -2.222 
-1.32475 -1.02052 -2.248 
-1.32355 -1.02688 -2.262 
-1.32166 -1.03278 -2.275 
-1.32773 -1.04504 -2.302 
-1.32614 -1.05139 -2.316 
-1.325 -1.0582 -2.331 
-1.32316 -1.06456 -2.345 
-1.32121 -1.07091 -2.359 
-1.3197 -1.07772 -2.374 
-1.31806 -1.08453 -2.389 
-1.3163 -1.09134 -2.404 
-1.31442 -1.09815 -2.419 
-1.30432 -1.09815 -2.419 
-1.29422 -1.09815 -2.419 
-1.29208 -1.10496 -2.434 
-1.29034 -1.11222 -2.45 
-1.28011 -1.11222 -2.45 
-1.27818 -1.11949 -2.466 
-1.26788 -1.11949 -2.466 
-1.25758 -1.11949 -2.466 
-1.25538 -1.12675 -2.482 
-1.24502 -1.12675 -2.482 
-1.24261 -1.13401 -2.498 
-1.24057 -1.14173 -2.515 
-1.23007 -1.14173 -2.515 
-1.22732 -1.14899 -2.531 
-1.21676 -1.14899 -2.531 
-1.21429 -1.15671 -2.548 
-1.21168 -1.16443 -2.565 
-1.20097 -1.16443 -2.565 
-1.19815 -1.17215 -2.582 
-1.18737 -1.17215 -2.582 
-1.17659 -1.17215 -2.582 
-1.15813 -1.16443 -2.565 
-1.14742 -1.16443 -2.565 
-1.12918 -1.15671 -2.548 
-1.10405 -1.14173 -2.515 
-1.06529 -1.11222 -2.45 
-1.02233 -1.07772 -2.374 
-0.97617 -1.03913 -2.289 
-0.93283 -1.00282 -2.209 
-0.892666 -0.969223 -2.135 
-0.811325 -0.898858 -1.98 
-0.782778 -0.876159 -1.93 
-0.755854 -0.854823 -1.883 
-0.730116 -0.834394 -1.838 
-0.708685 -0.818505 -1.803 
-0.691434 -0.807156 -1.778 
-0.674393 -0.795807 -1.753 
-0.660985 -0.788543 -1.737 
-0.648087 -0.781734 -1.722 
-0.634942 -0.77447 -1.706 
-0.625243 -0.771292 -1.699 
-0.615238 -0.767661 -1.691 
-0.608178 -0.767661 -1.691 
-0.601117 -0.767661 -1.691 
-0.591598 -0.764483 -1.684 
-0.584566 -0.764483 -1.684 
-0.577535 -0.764483 -1.684 
-0.570504 -0.764483 -1.684 
-0.560796 -0.760851 -1.676 
-0.553798 -0.760851 -1.676 
-0.5468 -0.760851 -1.676 
-0.537547 -0.757673 -1.669 
-0.528353 -0.754496 -1.662 
-0.521414 -0.754496 -1.662 
-0.514474 -0.754496 -1.662 
-0.507535 -0.754496 -1.662 
-0.500596 -0.754496 -1.662 
-0.493656 -0.754496 -1.662 
-0.486717 -0.754496 -1.662 
-0.479777 -0.754496 -1.662 
-0.470846 -0.751318 -1.655 
-0.463936 -0.751318 -1.655 
-0.457026 -0.751318 -1.655 
-0.450116 -0.751318 -1.655 
-0.443205 -0.751318 -1.655 
-0.438141 -0.754496 -1.662 
-0.433017 -0.757673 -1.669 
-0.426049 -0.757673 -1.669 
-0.41908 -0.757673 -1.669 
-0.41384 -0.760851 -1.676 
-0.408784 -0.764483 -1.684 
-0.401752 -0.764483 -1.684 
-0.394721 -0.764483 -1.684 
-0.38769 -0.764483 -1.684 
-0.380659 -0.764483 -1.684 
-0.371852 -0.760851 -1.676 
-0.36333 -0.757673 -1.669 
-0.356362 -0.757673 -1.669 
-0.347928 -0.754496 -1.662 
-0.340988 -0.754496 -1.662 
-0.334049 -0.754496 -1.662 
-0.325732 -0.751318 -1.655 
-0.32017 -0.754496 -1.662 
-0.313231 -0.754496 -1.662 
-0.305001 -0.751318 -1.655 
-0.298091 -0.751318 -1.655 
-0.291181 -0.751318 -1.655 
-0.28427 -0.751318 -1.655 
-0.27736 -0.751318 -1.655 
-0.271594 -0.754496 -1.662 
-0.264654 -0.754496 -1.662 
-0.2588 -0.757673 -1.669 
-0.254095 -0.764483 -1.684 
-0.249264 -0.771292 -1.699 
-0.243168 -0.77447 -1.706 
-0.241441 -0.792175 -1.745 
-0.24073 -0.814419 -1.794 
-0.24 -0.838026 -1.846 
-0.24173 -0.872073 -1.921 
-0.242226 -0.903851 -1.991 
-0.242724 -0.937899 -2.066 
-0.240556 -0.963775 -2.123 
-0.239768 -0.997369 -2.197 
-0.238781 -1.03278 -2.275 
-0.236337 -1.06456 -2.345 
-0.233695 -1.09815 -2.419 
-0.229418 -1.12675 -2.482 
-0.22488 -1.15671 -2.548 
-0.218613 -1.18032 -2.6 
-0.212072 -1.20483 -2.654 
-0.203869 -1.22208 -2.692 
-0.195348 -1.23933 -2.73 
-0.186644 -1.25749 -2.77 
-0.176343 -1.26657 -2.79 
-0.164694 -1.26657 -2.79 
-0.154141 -1.27565 -2.81 
-0.142409 -1.27565 -2.81 
-0.131652 -1.28518 -2.831 
-0.119832 -1.28518 -2.831 
-0.108012 -1.28518 -2.831 
-0.0961911 -1.28518 -2.831 
-0.0849965 -1.29472 -2.852 
-0.0730884 -1.29472 -2.852 
-0.0611803 -1.29472 -2.852 
-0.0489094 -1.28518 -2.831 
-0.0373641 -1.29472 -2.852 
-0.0252685 -1.28518 -2.831 
-0.0134481 -1.28518 -2.831 
-0.00162762 -1.28518 -2.831 
0.0101928 -1.28518 -2.831 
0.0220133 -1.28518 -2.831 
0.0338337 -1.28518 -2.831 
0.0456541 -1.28518 -2.831 
0.0574746 -1.28518 -2.831 
0.069295 -1.28518 -2.831 
0.0811154 -1.28518 -2.831 
0.0929359 -1.28518 -2.831 
0.103979 -1.27565 -2.81 
0.115712 -1.27565 -2.81 
0.127445 -1.27565 -2.81 
0.139178 -1.27565 -2.81 
0.15091 -1.27565 -2.81 
0.162643 -1.27565 -2.81 
0.174376 -1.27565 -2.81 
0.186109 -1.27565 -2.81 
0.197841 -1.27565 -2.81 
0.209574 -1.27565 -2.81 
0.221307 -1.27565 -2.81 
0.234781 -1.28518 -2.831 
0.246602 -1.28518 -2.831 
0.258422 -1.28518 -2.831 
0.270242 -1.28518 -2.831 
0.282063 -1.28518 -2.831 
0.296063 -1.29472 -2.852 
0.307971 -1.29472 -2.852 
0.31988 -1.29472 -2.852 
0.334347 -1.30471 -2.874 
0.346347 -1.30471 -2.874 
0.358347 -1.30471 -2.874 
0.373053 -1.31424 -2.895 
0.388201 -1.32468 -2.918 
0.400384 -1.32468 -2.918 
0.412568 -1.32468 -2.918 
0.427954 -1.33467 -2.94 
0.44023 -1.33467 -2.94 
0.452505 -1.33467 -2.94 
0.464781 -1.33467 -2.94 
0.477056 -1.33467 -2.94 
0.489332 -1.33467 -2.94 
0.501607 -1.33467 -2.94 
0.513883 -1.33467 -2.94 
0.526158 -1.33467 -2.94 
0.534405 -1.32468 -2.918 
0.546589 -1.32468 -2.918 
0.558772 -1.32468 -2.918 
0.570956 -1.32468 -2.918 
0.578543 -1.31424 -2.895 
0.586347 -1.30471 -2.874 
0.598347 -1.30471 -2.874 
0.610347 -1.30471 -2.874 
0.617583 -1.29472 -2.852 
0.629491 -1.29472 -2.852 
0.641399 -1.29472 -2.852 
0.653307 -1.29472 -2.852 
0.665215 -1.29472 -2.852 
0.677123 -1.29472 -2.852 
0.694346 -1.30471 -2.874 
0.706346 -1.30471 -2.874 
0.718346 -1.30471 -2.874 
0.730346 -1.30471 -2.874 
0.742346 -1.30471 -2.874 
0.754346 -1.30471 -2.874 
0.771946 -1.31424 -2.895 
0.784034 -1.31424 -2.895 
0.796121 -1.31424 -2.895 
0.808209 -1.31424 -2.895 
0.820297 -1.31424 -2.895 
0.832384 -1.31424 -2.895 
0.851181 -1.32468 -2.918 
0.863365 -1.32468 -2.918 
0.875548 -1.32468 -2.918 
0.887732 -1.32468 -2.918 
0.899916 -1.32468 -2.918 
0.90491 -1.31424 -2.895 
0.916998 -1.31424 -2.895 
0.929086 -1.31424 -2.895 
0.941173 -1.31424 -2.895 
0.953261 -1.31424 -2.895 
0.965348 -1.31424 -2.895 
0.977436 -1.31424 -2.895 
0.989524 -1.31424 -2.895 
1.00161 -1.31424 -2.895 
1.0137 -1.31424 -2.895 
1.02579 -1.31424 -2.895 
1.03787 -1.31424 -2.895 
1.04996 -1.31424 -2.895 
1.06205 -1.31424 -2.895 
1.07414 -1.31424 -2.895 
1.08623 -1.31424 -2.895 
1.09831 -1.31424 -2.895 
1.1104 -1.31424 -2.895 
1.13141 -1.32468 -2.918 
1.14359 -1.32468 -2.918 
1.15577 -1.32468 -2.918 
1.16796 -1.32468 -2.918 
1.18014 -1.32468 -2.918 
1.20131 -1.33467 -2.94 
1.21359 -1.33467 -2.94 
1.22586 -1.33467 -2.94 
1.23814 -1.33467 -2.94 
1.25042 -1.33467 -2.94 
1.26269 -1.33467 -2.94 
1.27497 -1.33467 -2.94 
1.28724 -1.33467 -2.94 
1.29952 -1.33467 -2.94 
1.31179 -1.33467 -2.94 
1.31416 -1.32468 -2.918 
1.32635 -1.32468 -2.918 
1.33853 -1.32468 -2.918 
1.35071 -1.32468 -2.918 
1.3629 -1.32468 -2.918 
1.37508 -1.32468 -2.918 
1.38726 -1.32468 -2.918 
1.39945 -1.32468 -2.918 
1.41163 -1.32468 -2.918 
1.42381 -1.32468 -2.918 
1.436 -1.32468 -2.918 
1.44818 -1.32468 -2.918 
1.46037 -1.32468 -2.918 
1.46094 -1.31424 -2.895 
1.47303 -1.31424 -2.895 
1.49692 -1.32468 -2.918 
1.5091 -1.32468 -2.918 
1.52128 -1.32468 -2.918 
1.53347 -1.32468 -2.918 
1.54565 -1.32468 -2.918 
1.55784 -1.32468 -2.918 
1.58186 -1.33467 -2.94 
1.59413 -1.33467 -2.94 
1.60641 -1.33467 -2.94 
1.61868 -1.33467 -2.94 
1.63096 -1.33467 -2.94 
1.64323 -1.33467 -2.94 
1.65551 -1.33467 -2.94 
1.66778 -1.33467 -2.94 
1.68006 -1.33467 -2.94 
1.67967 -1.32468 -2.918 
1.69186 -1.32468 -2.918 
1.70404 -1.32468 -2.918 
1.71622 -1.32468 -2.918 
1.72841 -1.32468 -2.918 
1.74059 -1.32468 -2.918 
1.75277 -1.32468 -2.918 
1.76496 -1.32468 -2.918 
1.77714 -1.32468 -2.918 
1.78933 -1.32468 -2.918 
1.80151 -1.32468 -2.918 
1.81369 -1.32468 -2.918 
1.82588 -1.32468 -2.918 
1.83806 -1.32468 -2.918 
1.85024 -1.32468 -2.918 
1.86243 -1.32468 -2.918 
1.87461 -1.32468 -2.918 
1.88679 -1.32468 -2.918 
1.89898 -1.32468 -2.918 
1.91116 -1.32468 -2.918 
1.92335 -1.32468 -2.918 
1.93553 -1.32468 -2.918 
1.94771 -1.32468 -2.918 
1.9599 -1.32468 -2.918 
1.97208 -1.32468 -2.918 
1.98426 -1.32468 -2.918 
1.99645 -1.32468 -2.918 
2.00863 -1.32468 -2.918 
2.02082 -1.32468 -2.918 
2.033 -1.32468 -2.918 
2.0606 -1.33467 -2.94 
2.07288 -1.33467 -2.94 
2.10147 -1.34511 -2.963 
2.11384 -1.34511 -2.963 
2.12621 -1.34511 -2.963 
2.13858 -1.34511 -2.963 
2.15095 -1.34511 -2.963 
2.16332 -1.34511 -2.963 
2.1757 -1.34511 -2.963 
2.18807 -1.34511 -2.963 
2.20044 -1.34511 -2.963 
2.21281 -1.34511 -2.963 
2.22518 -1.34511 -2.963 
2.23755 -1.34511 -2.963 
2.24992 -1.34511 -2.963 
2.2623 -1.34511 -2.963 
2.27467 -1.34511 -2.963 
2.28704 -1.34511 -2.963 
2.29941 -1.34511 -2.963 
2.31178 -1.34511 -2.963 
2.32415 -1.34511 -2.963 
2.33653 -1.34511 -2.963 
2.3489 -1.34511 -2.963 
2.36127 -1.34511 -2.963 
2.37364 -1.34511 -2.963 
2.38601 -1.34511 -2.963 
2.39838 -1.34511 -2.963 
2.41076 -1.34511 -2.963 
2.42313 -1.34511 -2.963 
2.4355 -1.34511 -2.963 
2.44787 -1.34511 -2.963 
2.46024 -1.34511 -2.963 
2.47261 -1.34511 -2.963 
2.48499 -1.34511 -2.963 
2.49736 -1.34511 -2.963 
2.52921 -1.35555 -2.986 
2.54168 -1.35555 -2.986 
2.55414 -1.35555 -2.986 
2.56661 -1.35555 -2.986 
2.57908 -1.35555 -2.986 
2.59155 -1.35555 -2.986 
2.60402 -1.35555 -2.986 
2.61648 -1.35555 -2.986 
2.62895 -1.35555 -2.986 
2.64142 -1.35555 -2.986 
2.65389 -1.35555 -2.986 
2.66635 -1.35555 -2.986 
2.67882 -1.35555 -2.986 
2.69129 -1.35555 -2.986 
2.68293 -1.34511 -2.963 
2.67438 -1.33467 -2.94 
2.66655 -1.32468 -2.918 
2.65762 -1.31424 -2.895 
2.65034 -1.30471 -2.874 
2.62251 -1.28518 -2.831 
2.59618 -1.26657 -2.79 
2.57044 -1.24841 -2.75 
2.54531 -1.23071 -2.711 
2.52079 -1.21346 -2.673 
2.47985 -1.18849 -2.618 
2.43919 -1.13401 -2.498 
2.46629 -1.14173 -2.515 
2.4768 -1.14173 -2.515 
2.53675 -1.16443 -2.565 
2.60009 -1.18849 -2.618 
-1.50812 -0.744942 -1.626 
-1.50133 -0.744942 -1.626 
-1.49454 -0.744942 -1.626 
-1.49416 -0.748149 -1.633 
-1.48097 -0.744942 -1.626 
