ply
format ascii 1.0
comment pointcloud saved from Realsense Viewer
element vertex 1806
property float32 x
property float32 y
property float32 z
end_header
0.68894 1.66900 -0.17927 
0.70817 1.63300 -0.17541 
0.94281 1.66200 -0.17852 
0.99881 1.64000 -0.17616 
1.00015 1.62000 -0.17401 
1.01604 1.61300 -0.17326 
1.11798 1.72900 -0.18572 
1.25960 1.91100 -0.20527 
1.43679 2.10000 -0.22557 
1.48159 2.08900 -0.22439 
1.50776 2.08900 -0.22439 
1.51648 2.08900 -0.22439 
1.51644 2.07700 -0.22310 
1.57715 2.07700 -0.22310 
1.61193 2.06600 -0.22192 
1.64597 2.04400 -0.21955 
1.68741 2.01200 -0.21612 
1.69474 1.99100 -0.21386 
1.70305 1.99100 -0.21386 
1.89274 2.10000 -0.22557 
2.13573 2.23500 -0.24007 
2.16622 2.20900 -0.23728 
2.19115 2.19700 -0.23599 
2.20032 2.19700 -0.23599 
-1.67982 1.80300 -0.20120 
-1.62712 1.80300 -0.20120 
-1.57383 1.87400 -0.20912 
-1.54175 1.90200 -0.21224 
-1.53381 1.90200 -0.21224 
-1.51705 1.92100 -0.21436 
-1.42675 1.94000 -0.21648 
-1.39435 1.94000 -0.21648 
-1.35011 1.97000 -0.21983 
-1.30328 2.01200 -0.22452 
-1.29142 2.03300 -0.22686 
-1.28293 2.03300 -0.22686 
-1.18527 2.05500 -0.22932 
-1.17436 2.06600 -0.23054 
-1.16127 2.08900 -0.23311 
-1.14108 2.10000 -0.23434 
-1.11553 2.13500 -0.23824 
-1.11283 2.14700 -0.23958 
-1.08951 2.17200 -0.24237 
-1.06536 2.19700 -0.24516 
-1.02867 2.19700 -0.24516 
-1.00115 2.19700 -0.24516 
-0.96972 2.20900 -0.24650 
-0.96615 2.22200 -0.24795 
-0.96247 2.23500 -0.24940 
-0.93794 2.28900 -0.25543 
-0.77948 2.35900 -0.26324 
-0.73487 2.37400 -0.26491 
-0.69397 2.40400 -0.26826 
-0.65790 2.41900 -0.26993 
-0.63770 2.41900 -0.26993 
-0.55742 2.46600 -0.27518 
-0.54713 2.46600 -0.27518 
-0.54031 2.48200 -0.27696 
-0.52995 2.48200 -0.27696 
-0.49886 2.48200 -0.27696 
-0.44249 2.51500 -0.28065 
-0.40845 2.56500 -0.28623 
-0.24271 2.75000 -0.30687 
-0.13263 2.85200 -0.31825 
0.01051 2.91800 -0.32562 
0.02269 2.91800 -0.32562 
0.17555 3.03300 -0.33845 
0.24084 3.05800 -0.34124 
0.31745 3.05800 -0.34124 
0.44862 3.08200 -0.34392 
0.53897 3.15900 -0.35251 
0.59173 3.15900 -0.35251 
0.62320 3.18500 -0.35541 
0.74196 3.23900 -0.36144 
0.78929 3.26700 -0.36456 
0.86367 3.23900 -0.36144 
0.82549 2.79000 -0.31133 
0.56772 1.76900 -0.19740 
0.63288 1.74500 -0.19472 
0.64873 1.72900 -0.19294 
0.65595 1.72900 -0.19294 
0.66701 1.68400 -0.18792 
0.69698 1.65500 -0.18468 
0.72863 1.63300 -0.18223 
0.75229 1.64000 -0.18301 
0.79347 1.66900 -0.18624 
0.87342 1.66200 -0.18546 
0.90811 1.66200 -0.18546 
0.94281 1.66200 -0.18546 
0.95375 1.66900 -0.18624 
0.97174 1.67600 -0.18702 
1.00386 1.62600 -0.18144 
1.15709 1.77800 -0.19841 
1.35699 2.03300 -0.22686 
1.50776 2.08900 -0.23311 
1.51648 2.08900 -0.23311 
1.52521 2.08900 -0.23311 
1.53379 2.07700 -0.23177 
1.56880 2.06600 -0.23054 
1.59468 2.06600 -0.23054 
1.67818 2.00100 -0.22329 
1.71967 1.99100 -0.22217 
1.72799 1.99100 -0.22217 
1.80812 2.04400 -0.22809 
1.89274 2.10000 -0.23434 
1.97777 2.13500 -0.23824 
2.03018 2.17200 -0.24237 
2.14170 2.18400 -0.24371 
2.15082 2.18400 -0.24371 
2.16621 2.17200 -0.24237 
2.17528 2.17200 -0.24237 
-1.66476 1.80300 -0.20872 
-1.64147 1.79400 -0.20768 
-1.60476 1.82900 -0.21173 
-1.54944 1.89200 -0.21903 
-1.54154 1.89200 -0.21903 
-1.47535 1.94000 -0.22458 
-1.45915 1.94000 -0.22458 
-1.41940 1.93000 -0.22343 
-1.38625 1.94000 -0.22458 
-1.37711 1.95000 -0.22574 
-1.35268 1.95000 -0.22574 
-1.34188 1.97000 -0.22806 
-1.30976 2.02200 -0.23408 
-1.29991 2.03300 -0.23535 
-1.27444 2.03300 -0.23535 
-1.25574 2.04400 -0.23662 
-1.21306 2.04400 -0.23662 
-1.19600 2.04400 -0.23662 
-1.18299 2.06600 -0.23917 
-1.10387 2.14700 -0.24855 
-1.10102 2.15900 -0.24994 
-1.07453 2.19700 -0.25433 
-0.96247 2.23500 -0.25873 
-0.77948 2.35900 -0.27309 
-0.74993 2.35900 -0.27309 
-0.74479 2.37400 -0.27483 
-0.69397 2.40400 -0.27830 
-0.50923 2.48200 -0.28733 
-0.47079 2.49800 -0.28918 
-0.35613 2.65400 -0.30724 
-0.32751 2.69200 -0.31164 
-0.31850 2.71100 -0.31384 
-0.27322 2.71100 -0.31384 
-0.23291 2.77000 -0.32067 
-0.10881 2.85200 -0.33016 
0.10964 2.96300 -0.34301 
0.17555 3.03300 -0.35111 
0.18821 3.03300 -0.35111 
0.26637 3.05800 -0.35401 
0.35575 3.05800 -0.35401 
0.38129 3.05800 -0.35401 
0.74837 3.26700 -0.37820 
0.78929 3.26700 -0.37820 
0.81658 3.26700 -0.37820 
0.83238 2.89500 -0.33514 
0.78013 2.60000 -0.30099 
0.56772 1.76900 -0.20479 
0.57722 1.75300 -0.20294 
0.58454 1.75300 -0.20294 
0.66272 1.69100 -0.19576 
0.66701 1.68400 -0.19495 
0.67783 1.67600 -0.19402 
0.77990 1.65500 -0.19159 
0.80364 1.64700 -0.19066 
0.92893 1.66200 -0.19240 
1.00526 1.66200 -0.19240 
1.00136 1.63300 -0.18904 
1.00692 1.62000 -0.18754 
1.01368 1.62000 -0.18754 
1.04940 1.65500 -0.19159 
1.06972 1.67600 -0.19402 
1.41238 2.07700 -0.24044 
1.48063 2.10000 -0.24311 
1.52521 2.08900 -0.24183 
1.61193 2.06600 -0.23917 
1.68654 2.00100 -0.23165 
1.80812 2.04400 -0.23662 
1.84484 2.06600 -0.23917 
2.03925 2.17200 -0.25144 
2.09024 2.19700 -0.25433 
2.12335 2.14700 -0.24855 
2.13231 2.14700 -0.24855 
-1.68727 1.81100 -0.21721 
-1.60499 1.83800 -0.22045 
-1.54154 1.89200 -0.22693 
-1.50903 1.92100 -0.23040 
-1.50101 1.92100 -0.23040 
-1.49192 1.93000 -0.23148 
-1.41940 1.93000 -0.23148 
-1.37711 1.95000 -0.23388 
-1.36897 1.95000 -0.23388 
-1.33216 1.98000 -0.23748 
-1.32009 2.01200 -0.24132 
-1.30976 2.02200 -0.24252 
-1.29991 2.03300 -0.24384 
-1.29142 2.03300 -0.24384 
-1.22160 2.04400 -0.24516 
-1.14760 2.11200 -0.25331 
-1.11553 2.13500 -0.25607 
-1.10102 2.15900 -0.25895 
-1.04351 2.20900 -0.26495 
-1.02506 2.20900 -0.26495 
-0.99739 2.20900 -0.26495 
-0.97895 2.20900 -0.26495 
-0.94170 2.27500 -0.27286 
-0.92404 2.30200 -0.27610 
-0.86756 2.33100 -0.27958 
-0.74479 2.37400 -0.28474 
-0.72954 2.38900 -0.28654 
-0.62133 2.43400 -0.29193 
-0.58831 2.46600 -0.29577 
-0.57802 2.46600 -0.29577 
-0.56772 2.46600 -0.29577 
-0.49165 2.49800 -0.29961 
-0.47079 2.49800 -0.29961 
-0.29586 2.71100 -0.32516 
-0.25234 2.73000 -0.32744 
-0.19964 2.79000 -0.33463 
-0.14347 2.83100 -0.33955 
-0.07309 2.85200 -0.34207 
-0.02584 2.89500 -0.34723 
-0.01375 2.89500 -0.34723 
0.05924 2.91800 -0.34998 
0.08424 2.94000 -0.35262 
0.12201 2.96300 -0.35538 
0.17416 3.00900 -0.36090 
0.24084 3.05800 -0.36678 
0.32752 3.03300 -0.36378 
0.35575 3.05800 -0.36678 
0.43576 3.08200 -0.36965 
0.46913 3.13300 -0.37577 
0.56535 3.15900 -0.37889 
0.59660 3.18500 -0.38201 
0.72843 3.23900 -0.38849 
0.77565 3.26700 -0.39184 
0.85750 3.26700 -0.39184 
0.70033 2.30200 -0.27610 
0.71871 1.62600 -0.19502 
0.78653 1.64000 -0.19670 
0.79338 1.64000 -0.19670 
0.90811 1.66200 -0.19934 
0.92893 1.66200 -0.19934 
0.99556 1.66900 -0.20018 
1.05384 1.66200 -0.19934 
1.48159 2.08900 -0.25055 
1.56009 2.08900 -0.25055 
1.61193 2.05500 -0.24648 
1.64560 2.03300 -0.24384 
1.89154 2.08900 -0.25055 
2.00681 2.14700 -0.25751 
2.13507 2.12300 -0.25463 
-1.71168 1.82900 -0.22701 
-1.64971 1.80300 -0.22378 
-1.59730 1.87400 -0.23259 
-1.56566 1.88300 -0.23371 
-1.54154 1.89200 -0.23483 
-1.52587 1.90200 -0.23607 
-1.50101 1.92100 -0.23843 
-1.47580 1.93000 -0.23954 
-1.37711 1.95000 -0.24203 
-1.33125 1.99100 -0.24711 
-1.32958 2.00100 -0.24835 
-1.32849 2.01200 -0.24972 
-1.32009 2.01200 -0.24972 
-1.18062 2.07700 -0.25779 
-1.16524 2.11200 -0.26213 
-1.13335 2.13500 -0.26499 
-1.05273 2.20900 -0.27417 
-0.98471 2.22200 -0.27578 
-0.96615 2.22200 -0.27578 
-0.94930 2.24800 -0.27901 
-0.91883 2.28900 -0.28410 
-0.91443 2.30200 -0.28571 
-0.88131 2.31600 -0.28745 
-0.82873 2.35900 -0.29279 
-0.75978 2.35900 -0.29279 
-0.74479 2.37400 -0.29465 
-0.65790 2.41900 -0.30024 
-0.64166 2.43400 -0.30210 
-0.32751 2.69200 -0.33412 
-0.27322 2.71100 -0.33648 
-0.22134 2.77000 -0.34380 
-0.09690 2.85200 -0.35398 
-0.06118 2.85200 -0.35398 
0.02269 2.91800 -0.36217 
0.03487 2.91800 -0.36217 
0.07196 2.94000 -0.36490 
0.12201 2.96300 -0.36775 
0.14903 3.00900 -0.37346 
0.18673 3.00900 -0.37346 
0.21354 3.03300 -0.37644 
0.26420 3.03300 -0.37644 
0.38129 3.05800 -0.37954 
0.43576 3.08200 -0.38252 
0.49940 3.15900 -0.39208 
0.68213 3.21200 -0.39866 
0.78929 3.26700 -0.40548 
0.84674 3.03300 -0.37644 
0.81968 2.81000 -0.34876 
0.76453 2.54800 -0.31625 
0.65742 1.71400 -0.21273 
0.66272 1.69100 -0.20988 
0.67783 1.67600 -0.20802 
0.70135 1.63300 -0.20268 
0.75266 1.62600 -0.20181 
0.85817 1.63300 -0.20268 
0.96072 1.66900 -0.20715 
0.98574 1.67600 -0.20802 
1.00794 1.65500 -0.20541 
1.01500 1.63300 -0.20268 
1.02182 1.63300 -0.20268 
1.03745 1.64700 -0.20442 
1.07929 1.69100 -0.20988 
1.37287 2.04400 -0.25369 
1.44555 2.10000 -0.26064 
1.47186 2.10000 -0.26064 
1.50693 2.10000 -0.26064 
1.52521 2.08900 -0.25928 
1.53393 2.08900 -0.25928 
1.61193 2.05500 -0.25506 
1.66983 2.00100 -0.24835 
1.68642 1.99100 -0.24711 
1.77178 2.02200 -0.25096 
2.00681 2.14700 -0.26648 
2.02474 2.14700 -0.26648 
2.09611 2.18400 -0.27107 
2.09366 2.17200 -0.26958 
2.12040 2.13500 -0.26499 
-1.60434 1.86400 -0.23913 
-1.58948 1.87400 -0.24042 
-1.52511 1.91100 -0.24516 
-1.49192 1.93000 -0.24760 
-1.44357 1.93000 -0.24760 
-1.30976 2.02200 -0.25940 
-1.29991 2.03300 -0.26082 
-1.20243 2.05500 -0.26364 
-1.20024 2.06600 -0.26505 
-1.18929 2.07700 -0.26646 
-1.18744 2.08900 -0.26800 
-1.16524 2.11200 -0.27095 
-1.15118 2.13500 -0.27390 
-1.13335 2.13500 -0.27390 
-1.11004 2.15900 -0.27698 
-1.09553 2.18400 -0.28019 
-1.01254 2.22200 -0.28506 
-1.00326 2.22200 -0.28506 
-0.98114 2.23500 -0.28673 
-0.97181 2.23500 -0.28673 
-0.85782 2.33100 -0.29905 
-0.81402 2.34500 -0.30084 
-0.76506 2.34500 -0.30084 
-0.73569 2.34500 -0.30084 
-0.71505 2.37400 -0.30456 
-0.59730 2.41900 -0.31034 
-0.56404 2.45000 -0.31431 
-0.49886 2.48200 -0.31842 
-0.45299 2.51500 -0.32265 
-0.38673 2.63600 -0.33817 
-0.33875 2.69200 -0.34536 
-0.16587 2.81000 -0.36050 
-0.07309 2.85200 -0.36589 
0.02269 2.91800 -0.37435 
0.14903 3.00900 -0.38603 
0.21354 3.03300 -0.38911 
0.24954 3.00900 -0.38603 
0.36852 3.05800 -0.39231 
0.41002 3.08200 -0.39539 
0.54341 3.18500 -0.40861 
0.55671 3.18500 -0.40861 
0.68213 3.21200 -0.41207 
0.70139 3.23900 -0.41553 
0.72843 3.23900 -0.41553 
0.76201 3.26700 -0.41913 
0.77565 3.26700 -0.41913 
0.85109 3.29500 -0.42272 
0.85750 3.26700 -0.41913 
0.82635 2.87400 -0.36871 
0.58757 1.85500 -0.23798 
0.56772 1.76900 -0.22695 
0.58188 1.74500 -0.22387 
0.64448 1.73700 -0.22284 
0.65330 1.72200 -0.22092 
0.66701 1.68400 -0.21604 
0.69007 1.65500 -0.21232 
0.71606 1.62000 -0.20783 
0.89992 1.64700 -0.21129 
0.97174 1.67600 -0.21502 
1.41238 2.07700 -0.26646 
1.45432 2.10000 -0.26941 
1.54265 2.08900 -0.26800 
1.55137 2.08900 -0.26800 
1.57754 2.08900 -0.26800 
1.62051 2.05500 -0.26364 
1.63711 2.03300 -0.26082 
1.63670 2.02200 -0.25940 
1.64540 2.01200 -0.25812 
1.69474 1.99100 -0.25543 
1.75461 2.01200 -0.25812 
1.85346 2.06600 -0.26505 
1.90899 2.08900 -0.26800 
2.02474 2.14700 -0.27544 
2.07853 2.14700 -0.27544 
2.08189 2.12300 -0.27236 
2.10848 2.12300 -0.27236 
-1.71988 1.84600 -0.24453 
-1.65703 1.81100 -0.23990 
-1.60512 1.87400 -0.24824 
-1.57314 1.89200 -0.25063 
-1.50903 1.92100 -0.25447 
-1.33956 1.99100 -0.26374 
-1.30328 2.01200 -0.26652 
-1.24720 2.04400 -0.27076 
-1.18492 2.10000 -0.27818 
-1.17406 2.11200 -0.27977 
-1.10465 2.18400 -0.28931 
-1.02182 2.22200 -0.29434 
-1.00326 2.22200 -0.29434 
-0.98114 2.23500 -0.29606 
-0.94930 2.24800 -0.29778 
-0.93632 2.26200 -0.29964 
-0.84263 2.31600 -0.30679 
-0.79943 2.33100 -0.30878 
-0.67540 2.37400 -0.31447 
-0.56349 2.40400 -0.31845 
-0.54680 2.41900 -0.32044 
-0.49565 2.46600 -0.32666 
-0.47079 2.49800 -0.33090 
-0.46036 2.49800 -0.33090 
-0.41916 2.56500 -0.33978 
-0.24094 2.73000 -0.36163 
-0.10801 2.83100 -0.37501 
0.16160 3.00900 -0.39859 
0.46913 3.13300 -0.41502 
0.62848 3.21200 -0.42548 
0.71491 3.23900 -0.42906 
0.85109 3.29500 -0.43648 
0.80212 2.71100 -0.35912 
0.56730 1.74500 -0.23115 
0.66147 1.70600 -0.22599 
0.68316 1.65500 -0.21923 
0.69453 1.63300 -0.21632 
0.71970 1.61300 -0.21367 
0.73669 1.60600 -0.21274 
0.81046 1.60600 -0.21274 
0.84093 1.61300 -0.21367 
0.89992 1.64700 -0.21817 
0.96769 1.66900 -0.22109 
0.99974 1.67600 -0.22201 
1.00253 1.66900 -0.22109 
1.48027 2.11200 -0.27977 
1.55137 2.08900 -0.27672 
1.57754 2.08900 -0.27672 
1.58582 2.07700 -0.27513 
1.60317 2.07700 -0.27513 
1.62055 2.06600 -0.27367 
1.64540 2.01200 -0.26652 
1.65312 2.00100 -0.26506 
1.70191 1.98000 -0.26228 
1.72799 1.99100 -0.26374 
1.74502 2.00100 -0.26506 
1.76302 2.01200 -0.26652 
1.87201 2.07700 -0.27513 
1.92643 2.08900 -0.27672 
1.98292 2.11200 -0.27977 
2.06956 2.14700 -0.28440 
2.08189 2.12300 -0.28123 
2.10637 2.11200 -0.27977 
-1.67286 1.82000 -0.24869 
-1.66526 1.82000 -0.24869 
-1.61209 1.85500 -0.25347 
-1.57314 1.89200 -0.25853 
-1.56558 1.90200 -0.25989 
-1.54969 1.90200 -0.25989 
-1.45969 1.93000 -0.26372 
-1.45163 1.93000 -0.26372 
-1.44357 1.93000 -0.26372 
-1.42745 1.93000 -0.26372 
-1.40328 1.93000 -0.26372 
-1.29288 2.02200 -0.27629 
-1.26596 2.03300 -0.27779 
-1.23013 2.04400 -0.27930 
-1.21959 2.05500 -0.28080 
-1.12807 2.15900 -0.29501 
-1.12579 2.17200 -0.29679 
-1.11672 2.17200 -0.29679 
-1.11377 2.18400 -0.29842 
-0.99980 2.23500 -0.30539 
-0.98114 2.23500 -0.30539 
-0.82325 2.28900 -0.31277 
-0.78948 2.30200 -0.31455 
-0.75635 2.28900 -0.31277 
-0.74142 2.30200 -0.31455 
-0.70298 2.30200 -0.31455 
-0.68791 2.31600 -0.31646 
-0.66317 2.33100 -0.31851 
-0.61450 2.33100 -0.31851 
-0.59504 2.33100 -0.31851 
-0.56924 2.34500 -0.32042 
-0.53324 2.35900 -0.32234 
-0.50012 2.38900 -0.32644 
-0.44705 2.48200 -0.33914 
-0.44249 2.51500 -0.34365 
-0.41916 2.56500 -0.35049 
-0.40316 2.60000 -0.35527 
-0.32520 2.67300 -0.36524 
-0.29379 2.69200 -0.36784 
-0.26190 2.71100 -0.37043 
-0.24094 2.73000 -0.37303 
-0.21974 2.75000 -0.37576 
-0.20826 2.75000 -0.37576 
-0.18664 2.77000 -0.37850 
-0.09619 2.83100 -0.38683 
-0.08437 2.83100 -0.38683 
-0.07309 2.85200 -0.38970 
-0.02565 2.87400 -0.39271 
0.04706 2.91800 -0.39872 
0.07196 2.94000 -0.40173 
0.09727 2.96300 -0.40487 
0.14903 3.00900 -0.41115 
0.27467 3.00900 -0.41115 
0.45605 3.13300 -0.42810 
0.58825 3.21200 -0.43889 
0.61507 3.21200 -0.43889 
0.62848 3.21200 -0.43889 
0.74837 3.26700 -0.44641 
0.84003 3.00900 -0.41115 
0.82681 2.91800 -0.39872 
0.60650 1.75300 -0.23953 
0.62398 1.76100 -0.24063 
0.68316 1.65500 -0.22614 
0.69066 1.64000 -0.22409 
0.69453 1.63300 -0.22314 
0.70987 1.60600 -0.21945 
0.71658 1.60600 -0.21945 
0.74016 1.59900 -0.21849 
0.80025 1.59900 -0.21849 
0.81360 1.59900 -0.21849 
0.95669 1.66200 -0.22710 
0.98162 1.66900 -0.22805 
1.00526 1.66200 -0.22710 
1.00994 1.64700 -0.22505 
1.01250 1.64000 -0.22409 
1.06779 1.68400 -0.23010 
1.08886 1.70600 -0.23311 
1.14385 1.76900 -0.24172 
1.27212 1.93000 -0.26372 
1.45432 2.10000 -0.28695 
1.52436 2.11200 -0.28859 
1.53318 2.11200 -0.28859 
1.53324 2.10000 -0.28695 
1.57708 2.10000 -0.28695 
1.57754 2.08900 -0.28544 
1.59449 2.07700 -0.28380 
1.63744 2.04400 -0.27930 
1.63670 2.02200 -0.27629 
1.63700 2.01200 -0.27492 
1.66148 1.99100 -0.27205 
1.66884 1.98000 -0.27055 
1.68509 1.97000 -0.26918 
1.72799 1.99100 -0.27205 
1.74502 2.00100 -0.27342 
1.85346 2.06600 -0.28230 
1.88935 2.07700 -0.28380 
1.90669 2.07700 -0.28380 
1.98042 2.10000 -0.28695 
1.98919 2.10000 -0.28695 
2.12401 2.11200 -0.28859 
-1.70447 1.84600 -0.25995 
-1.65006 1.82000 -0.25629 
-1.63531 1.82900 -0.25755 
-1.62767 1.82900 -0.25755 
-1.61983 1.85500 -0.26122 
-1.58925 1.88300 -0.26516 
-1.57314 1.89200 -0.26643 
-1.57352 1.90200 -0.26783 
-1.56558 1.90200 -0.26783 
-1.54175 1.90200 -0.26783 
-1.49998 1.93000 -0.27178 
-1.49192 1.93000 -0.27178 
-1.40328 1.93000 -0.27178 
-1.36897 1.95000 -0.27459 
-1.35962 1.96000 -0.27600 
-1.27599 2.02200 -0.28473 
-1.20887 2.06600 -0.29093 
-1.06821 2.22200 -0.31289 
-0.96807 2.24800 -0.31656 
-0.92688 2.26200 -0.31853 
-0.91321 2.27500 -0.32036 
-0.88471 2.27500 -0.32036 
-0.85132 2.26200 -0.31853 
-0.84188 2.26200 -0.31853 
-0.79465 2.26200 -0.31853 
-0.74743 2.26200 -0.31853 
-0.71373 2.27500 -0.32036 
-0.43668 2.48200 -0.34951 
-0.38409 2.61800 -0.36866 
-0.28255 2.69200 -0.37908 
-0.26190 2.71100 -0.38175 
-0.09619 2.83100 -0.39865 
-0.08437 2.83100 -0.39865 
0.01042 2.89500 -0.40766 
0.08424 2.94000 -0.41400 
0.13543 2.98600 -0.42048 
0.30219 3.03300 -0.42710 
0.32752 3.03300 -0.42710 
0.45605 3.13300 -0.44118 
0.54802 3.21200 -0.45230 
0.56143 3.21200 -0.45230 
0.70139 3.23900 -0.45611 
0.80982 3.29500 -0.46399 
0.73032 2.43400 -0.34275 
0.58916 1.74500 -0.24573 
0.64016 1.74500 -0.24573 
0.64448 1.73700 -0.24460 
0.65330 1.72200 -0.24249 
0.66978 1.69100 -0.23812 
0.72752 1.58600 -0.22334 
0.74739 1.58600 -0.22334 
0.75401 1.58600 -0.22334 
0.79725 1.59300 -0.22432 
0.83363 1.59900 -0.22517 
0.92348 1.64000 -0.23094 
0.98445 1.66200 -0.23404 
1.01250 1.64000 -0.23094 
1.03058 1.64700 -0.23193 
1.08886 1.70600 -0.24023 
1.11590 1.73700 -0.24460 
1.19614 1.83800 -0.25882 
1.23328 1.88300 -0.26516 
1.52436 2.11200 -0.29741 
1.61184 2.07700 -0.29248 
1.62055 2.06600 -0.29093 
1.63744 2.04400 -0.28783 
1.64540 2.01200 -0.28332 
1.68509 1.97000 -0.27741 
1.81666 2.04400 -0.28783 
1.82519 2.04400 -0.28783 
1.84360 2.05500 -0.28938 
1.88935 2.07700 -0.29248 
1.94138 2.07700 -0.29248 
2.06228 2.11200 -0.29741 
2.12621 2.12300 -0.29895 
-1.76162 1.87400 -0.27172 
-1.73665 1.86400 -0.27027 
-1.70447 1.84600 -0.26766 
-1.68173 1.83800 -0.26650 
-1.62801 1.83800 -0.26650 
-1.62739 1.84600 -0.26766 
-1.61983 1.85500 -0.26896 
-1.60497 1.88300 -0.27302 
-1.59711 1.88300 -0.27302 
-1.55763 1.90200 -0.27578 
-1.54107 1.91100 -0.27708 
-1.49998 1.93000 -0.27983 
-1.45163 1.93000 -0.27983 
-1.40245 1.94000 -0.28128 
-1.38525 1.95000 -0.28273 
-1.35962 1.96000 -0.28418 
-1.35696 1.98000 -0.28708 
-1.33125 1.99100 -0.28868 
-1.23675 2.05500 -0.29796 
-1.16524 2.11200 -0.30622 
-0.99980 2.23500 -0.32406 
-0.81316 2.23500 -0.32406 
-0.71051 2.23500 -0.32406 
-0.62078 2.24800 -0.32594 
-0.56446 2.24800 -0.32594 
-0.47919 2.28900 -0.33189 
-0.47230 2.30200 -0.33377 
-0.43300 2.40400 -0.34856 
-0.41864 2.49800 -0.36219 
-0.38409 2.61800 -0.37959 
-0.35613 2.65400 -0.38481 
-0.25059 2.71100 -0.39307 
-0.20826 2.75000 -0.39873 
-0.11983 2.83100 -0.41047 
-0.06118 2.85200 -0.41352 
-0.04927 2.85200 -0.41352 
0.01042 2.89500 -0.41975 
0.03487 2.91800 -0.42309 
0.09727 2.96300 -0.42961 
0.42632 3.10700 -0.45049 
0.45605 3.13300 -0.45426 
0.51681 3.18500 -0.46180 
0.74837 3.26700 -0.47369 
0.79606 3.29500 -0.47775 
0.85858 3.32400 -0.48195 
0.84849 3.13300 -0.45426 
0.82681 2.91800 -0.42309 
0.81968 2.81000 -0.40743 
0.77993 2.63600 -0.38220 
0.59918 1.75300 -0.25417 
0.62846 1.75300 -0.25417 
0.64151 1.72900 -0.25069 
0.64611 1.72200 -0.24968 
0.65026 1.71400 -0.24852 
0.67404 1.68400 -0.24417 
0.70678 1.59900 -0.23184 
0.72752 1.58600 -0.22996 
0.75440 1.57300 -0.22807 
0.83050 1.59300 -0.23097 
0.86787 1.61300 -0.23387 
0.89909 1.63300 -0.23677 
0.91560 1.62600 -0.23576 
0.92239 1.62600 -0.23576 
0.95493 1.64700 -0.23880 
1.00103 1.65500 -0.23996 
1.19614 1.83800 -0.26650 
1.24573 1.90200 -0.27578 
1.35699 2.03300 -0.29477 
1.38026 2.05500 -0.29796 
1.44500 2.11200 -0.30622 
1.47025 2.12300 -0.30782 
1.50672 2.11200 -0.30622 
1.59498 2.08900 -0.30289 
1.63781 2.06600 -0.29955 
1.63767 2.05500 -0.29796 
1.69331 1.97000 -0.28563 
1.75338 2.00100 -0.29013 
1.79839 2.03300 -0.29477 
1.91385 2.06600 -0.29955 
1.97004 2.08900 -0.30289 
2.00672 2.10000 -0.30448 
2.06416 2.12300 -0.30782 
2.08189 2.12300 -0.30782 
2.09075 2.12300 -0.30782 
2.15605 2.13500 -0.30956 
-1.75379 1.87400 -0.27954 
-1.65103 1.83800 -0.27417 
-1.63510 1.84600 -0.27536 
-1.61213 1.86400 -0.27805 
-1.60434 1.86400 -0.27805 
-1.57352 1.88300 -0.28088 
-1.51705 1.92100 -0.28655 
-1.50903 1.92100 -0.28655 
-1.45105 1.94000 -0.28939 
-1.38525 1.95000 -0.29088 
-1.38417 1.96000 -0.29237 
-1.35833 1.97000 -0.29386 
-1.35696 1.98000 -0.29535 
-1.31287 2.00100 -0.29848 
-1.27444 2.03300 -0.30326 
-1.24533 2.05500 -0.30654 
-1.20887 2.06600 -0.30818 
-1.13972 2.14700 -0.32026 
-1.10205 2.19700 -0.32772 
-1.00913 2.23500 -0.33339 
-0.98114 2.23500 -0.33339 
-0.97746 2.24800 -0.33533 
-0.95869 2.24800 -0.33533 
-0.94930 2.24800 -0.33533 
-0.79448 2.20900 -0.32951 
-0.73512 2.19700 -0.32772 
-0.69843 2.19700 -0.32772 
-0.68380 2.20900 -0.32951 
-0.56083 2.19700 -0.32772 
-0.52414 2.19700 -0.32772 
-0.51497 2.19700 -0.32772 
-0.46516 2.22200 -0.33145 
-0.45183 2.24800 -0.33533 
-0.42489 2.35900 -0.35189 
-0.32520 2.67300 -0.39872 
-0.28255 2.69200 -0.40156 
-0.26007 2.69200 -0.40156 
-0.22954 2.73000 -0.40723 
0.01042 2.89500 -0.43184 
0.14903 3.00900 -0.44884 
0.18530 2.98600 -0.44541 
0.24764 2.98600 -0.44541 
0.27467 3.00900 -0.44884 
0.36852 3.05800 -0.45615 
0.60166 3.21200 -0.47913 
0.61507 3.21200 -0.47913 
0.62848 3.21200 -0.47913 
0.84849 3.13300 -0.46734 
0.82719 2.96300 -0.44198 
0.64151 1.72900 -0.25791 
0.77705 1.57900 -0.23554 
0.79024 1.57900 -0.23554 
0.92918 1.62600 -0.24255 
1.00994 1.64700 -0.24568 
1.15484 1.78600 -0.26641 
1.38764 2.06600 -0.30818 
1.42802 2.10000 -0.31325 
1.44500 2.11200 -0.31504 
1.47912 2.12300 -0.31668 
1.53230 2.12300 -0.31668 
1.53318 2.11200 -0.31504 
1.58609 2.11200 -0.31504 
1.59461 2.10000 -0.31325 
1.63786 2.07700 -0.30982 
1.69364 1.98000 -0.29535 
1.87072 2.06600 -0.30818 
1.88935 2.07700 -0.30982 
1.89802 2.07700 -0.30982 
1.96740 2.07700 -0.30982 
1.99621 2.08900 -0.31161 
2.02701 2.11200 -0.31504 
2.05529 2.12300 -0.31668 
2.11148 2.13500 -0.31847 
-1.62758 1.85500 -0.28445 
-1.61213 1.86400 -0.28583 
-1.60434 1.86400 -0.28583 
-1.58138 1.88300 -0.28874 
-1.54969 1.90200 -0.29166 
-1.49998 1.93000 -0.29595 
-1.46725 1.94000 -0.29749 
-1.44295 1.94000 -0.29749 
-1.43485 1.94000 -0.29749 
-1.29799 1.99100 -0.30531 
-1.25574 2.04400 -0.31343 
-1.21749 2.06600 -0.31681 
-1.20887 2.06600 -0.31681 
-1.15862 2.10000 -0.32202 
-1.11672 2.17200 -0.33306 
-1.09288 2.19700 -0.33689 
-1.04037 2.22200 -0.34073 
-0.99980 2.23500 -0.34272 
-0.96807 2.24800 -0.34471 
-0.95869 2.24800 -0.34471 
-0.87421 2.24800 -0.34471 
-0.76725 2.18400 -0.33490 
-0.74490 2.17200 -0.33306 
-0.69955 2.17200 -0.33306 
-0.66328 2.17200 -0.33306 
-0.55113 2.15900 -0.33107 
-0.50043 2.13500 -0.32739 
-0.42985 2.18400 -0.33490 
-0.41715 2.31600 -0.35514 
-0.40791 2.43400 -0.37324 
-0.34271 2.63600 -0.40421 
-0.20826 2.75000 -0.42169 
0.09727 2.96300 -0.45435 
0.12296 2.98600 -0.45788 
0.19776 2.98600 -0.45788 
0.21023 2.98600 -0.45788 
0.23517 2.98600 -0.45788 
0.32752 3.03300 -0.46509 
0.34298 3.05800 -0.46892 
0.38428 3.08200 -0.47260 
0.42632 3.10700 -0.47644 
0.57484 3.21200 -0.49254 
0.70139 3.23900 -0.49668 
0.77565 3.26700 -0.50097 
0.83407 3.03300 -0.46509 
0.82719 2.96300 -0.45435 
0.82002 2.85200 -0.43733 
0.80801 2.77000 -0.42476 
0.56319 1.77800 -0.27264 
0.56730 1.74500 -0.26758 
0.58646 1.73700 -0.26636 
0.62559 1.74500 -0.26758 
0.65876 1.69900 -0.26053 
0.68316 1.65500 -0.25378 
0.73796 1.56600 -0.24014 
0.75758 1.56600 -0.24014 
0.81661 1.57900 -0.24213 
0.90546 1.62000 -0.24842 
0.91501 1.61300 -0.24734 
0.92175 1.61300 -0.24734 
0.96045 1.63300 -0.25041 
1.03745 1.64700 -0.25256 
1.10626 1.72200 -0.26406 
1.24573 1.90200 -0.29166 
1.29190 1.96000 -0.30055 
1.52313 2.13500 -0.32739 
1.53230 2.12300 -0.32555 
1.55889 2.12300 -0.32555 
1.60373 2.11200 -0.32386 
1.62987 2.08900 -0.32033 
1.65450 2.04400 -0.31343 
1.68537 1.98000 -0.30362 
1.70191 1.98000 -0.30362 
1.76302 2.01200 -0.30853 
1.93973 2.06600 -0.31681 
1.94835 2.06600 -0.31681 
1.97607 2.07700 -0.31849 
2.11439 2.14700 -0.32923 
2.17128 2.15900 -0.33107 
-1.80382 1.90200 -0.29960 
-1.72887 1.86400 -0.29361 
-1.62758 1.85500 -0.29220 
-1.56524 1.89200 -0.29802 
-1.54969 1.90200 -0.29960 
-1.54107 1.91100 -0.30102 
-1.52507 1.92100 -0.30259 
-1.51705 1.92100 -0.30259 
-1.51610 1.93000 -0.30401 
-1.50804 1.93000 -0.30401 
-1.49192 1.93000 -0.30401 
-1.34869 1.98000 -0.31189 
-1.16999 2.08900 -0.32906 
-1.13335 2.13500 -0.33630 
-1.12807 2.15900 -0.34008 
-1.06196 2.20900 -0.34796 
-0.99047 2.23500 -0.35205 
-0.94577 2.26200 -0.35631 
-0.89854 2.26200 -0.35631 
-0.88360 2.24800 -0.35410 
-0.86915 2.23500 -0.35205 
-0.82686 2.19700 -0.34607 
-0.77218 2.14700 -0.33819 
-0.76322 2.14700 -0.33819 
-0.75425 2.14700 -0.33819 
-0.65198 2.13500 -0.33630 
-0.61632 2.13500 -0.33630 
-0.40036 2.45000 -0.38592 
-0.29379 2.69200 -0.42404 
-0.21815 2.73000 -0.43002 
-0.15414 2.81000 -0.44263 
-0.00166 2.89500 -0.45602 
0.05924 2.91800 -0.45964 
0.07142 2.91800 -0.45964 
0.32752 3.03300 -0.47775 
0.39715 3.08200 -0.48547 
0.54341 3.18500 -0.50170 
0.64189 3.21200 -0.50595 
0.70139 3.23900 -0.51020 
0.78929 3.26700 -0.51461 
0.85858 3.32400 -0.52359 
0.85015 3.23900 -0.51020 
0.81435 2.87400 -0.45271 
0.81398 2.83100 -0.44593 
0.57459 1.74500 -0.27487 
0.61382 1.75300 -0.27613 
0.66701 1.68400 -0.26526 
0.68673 1.64700 -0.25943 
0.68771 1.63300 -0.25723 
0.69950 1.61300 -0.25408 
0.70766 1.58600 -0.24982 
0.71428 1.58600 -0.24982 
0.90434 1.60600 -0.25297 
1.14966 1.77800 -0.28007 
1.41925 2.10000 -0.33079 
1.49639 2.13500 -0.33630 
1.55003 2.12300 -0.33441 
1.61215 2.10000 -0.33079 
1.66147 2.00100 -0.31519 
1.67811 1.99100 -0.31362 
1.69474 1.99100 -0.31362 
1.72799 1.99100 -0.31362 
1.74502 2.00100 -0.31519 
1.87640 2.04400 -0.32197 
1.97607 2.07700 -0.32717 
2.09916 2.15900 -0.34008 
2.14808 2.17200 -0.34213 
2.18730 2.18400 -0.34402 
2.20554 2.18400 -0.34402 
-1.71278 1.85500 -0.29994 
-1.68134 1.84600 -0.29849 
-1.63510 1.84600 -0.29849 
-1.62739 1.84600 -0.29849 
-1.59660 1.85500 -0.29994 
-1.57352 1.88300 -0.30447 
-1.53309 1.92100 -0.31061 
-1.44225 1.95000 -0.31530 
-1.41782 1.95000 -0.31530 
-1.35696 1.98000 -0.32015 
-1.34869 1.98000 -0.32015 
-1.30631 1.99100 -0.32193 
-1.28968 1.99100 -0.32193 
-1.17871 2.08900 -0.33778 
-1.15862 2.10000 -0.33956 
-1.14985 2.10000 -0.33956 
-1.13585 2.12300 -0.34328 
-1.12180 2.14700 -0.34716 
-1.11905 2.15900 -0.34910 
-1.07118 2.20900 -0.35718 
-1.03110 2.22200 -0.35928 
-0.97746 2.24800 -0.36349 
-0.96807 2.24800 -0.36349 
-0.92270 2.27500 -0.36785 
-0.90799 2.26200 -0.36575 
-0.87849 2.23500 -0.36139 
-0.86410 2.22200 -0.35928 
-0.84982 2.20900 -0.35718 
-0.83603 2.19700 -0.35524 
-0.80838 2.17200 -0.35120 
-0.76787 2.13500 -0.34522 
-0.75469 2.12300 -0.34328 
-0.70668 2.11200 -0.34150 
-0.64129 2.10000 -0.33956 
-0.63252 2.10000 -0.33956 
-0.60304 2.08900 -0.33778 
-0.59432 2.08900 -0.33778 
-0.58560 2.08900 -0.33778 
-0.57687 2.08900 -0.33778 
-0.51600 2.05500 -0.33228 
-0.49617 2.04400 -0.33050 
-0.46203 2.04400 -0.33050 
-0.41525 2.06600 -0.33406 
-0.40011 2.12300 -0.34328 
-0.39787 2.20900 -0.35718 
-0.38703 2.56500 -0.41474 
-0.37316 2.61800 -0.42331 
-0.18799 2.79000 -0.45113 
-0.10881 2.85200 -0.46115 
-0.06165 2.87400 -0.46471 
-0.04965 2.87400 -0.46471 
-0.01375 2.89500 -0.46810 
0.01042 2.89500 -0.46810 
0.04706 2.91800 -0.47182 
0.21023 2.98600 -0.48282 
0.31485 3.03300 -0.49042 
0.36852 3.05800 -0.49446 
0.39715 3.08200 -0.49834 
0.77565 3.26700 -0.52825 
0.85015 3.23900 -0.52373 
0.79080 2.71100 -0.43835 
0.58264 1.86400 -0.30140 
0.55745 1.73700 -0.28086 
0.61831 1.74500 -0.28216 
0.72156 1.57300 -0.25434 
0.73513 1.56000 -0.25224 
0.80027 1.56000 -0.25224 
0.82007 1.57300 -0.25434 
0.84381 1.59300 -0.25758 
0.85046 1.59300 -0.25758 
0.89372 1.59900 -0.25855 
0.92848 1.61300 -0.26081 
0.97142 1.64000 -0.26518 
0.98244 1.64700 -0.26631 
1.10113 1.71400 -0.27714 
1.47791 2.14700 -0.34716 
1.55889 2.12300 -0.34328 
1.61254 2.11200 -0.34150 
1.62092 2.10000 -0.33956 
1.62969 2.10000 -0.33956 
1.63860 2.08900 -0.33778 
1.66258 2.03300 -0.32872 
1.67107 2.03300 -0.32872 
1.67901 2.01200 -0.32533 
1.68654 2.00100 -0.32355 
1.71996 2.00100 -0.32355 
1.79839 2.03300 -0.32872 
1.82519 2.04400 -0.33050 
1.83373 2.04400 -0.33050 
1.86630 2.03300 -0.32872 
1.93798 2.05500 -0.33228 
1.97607 2.07700 -0.33584 
2.00672 2.10000 -0.33956 
2.19389 2.20900 -0.35718 
-1.75222 1.86400 -0.30918 
-1.72052 1.85500 -0.30769 
-1.68134 1.84600 -0.30619 
-1.65103 1.83800 -0.30487 
-1.55734 1.89200 -0.31382 
-1.53309 1.91100 -0.31698 
-1.50804 1.93000 -0.32013 
-1.50775 1.94000 -0.32179 
-1.44146 1.96000 -0.32510 
-1.39946 1.97000 -0.32676 
-1.35833 1.97000 -0.32676 
-1.34043 1.98000 -0.32842 
-1.27599 2.02200 -0.33539 
-1.13878 2.11200 -0.35032 
-1.11553 2.13500 -0.35413 
-1.10102 2.15900 -0.35811 
-1.08641 2.18400 -0.36226 
-1.08040 2.20900 -0.36640 
-1.06196 2.20900 -0.36640 
-0.99980 2.23500 -0.37072 
-0.99047 2.23500 -0.37072 
-0.91743 2.26200 -0.37520 
-0.89298 2.24800 -0.37287 
-0.83108 2.18400 -0.36226 
-0.79907 2.14700 -0.35612 
-0.75959 2.11200 -0.35032 
-0.56749 2.05500 -0.34086 
-0.53884 2.04400 -0.33904 
-0.47160 2.01200 -0.33373 
-0.44396 2.00100 -0.33190 
-0.42725 2.00100 -0.33190 
-0.39530 2.41900 -0.40124 
-0.37316 2.61800 -0.43424 
-0.34271 2.63600 -0.43723 
-0.32520 2.67300 -0.44337 
-0.25234 2.73000 -0.45282 
-0.20978 2.77000 -0.45946 
-0.14347 2.83100 -0.46957 
-0.09690 2.85200 -0.47306 
0.13543 2.98600 -0.49528 
0.17416 3.00900 -0.49910 
0.22270 2.98600 -0.49528 
0.53897 3.15900 -0.52398 
0.62320 3.18500 -0.52829 
0.85015 3.23900 -0.53725 
0.78526 2.69200 -0.44652 
0.60374 1.74500 -0.28944 
0.67986 1.64700 -0.27319 
0.70678 1.59900 -0.26522 
0.71772 1.57900 -0.26191 
0.72156 1.57300 -0.26091 
0.75177 1.55400 -0.25776 
0.76475 1.55400 -0.25776 
0.93522 1.61300 -0.26755 
0.96727 1.63300 -0.27086 
1.01065 1.62600 -0.26970 
1.15484 1.78600 -0.29624 
1.31233 1.99100 -0.33025 
1.37039 2.06600 -0.34269 
1.51325 2.17200 -0.36027 
1.53169 2.14700 -0.35612 
1.55879 2.13500 -0.35413 
1.61215 2.10000 -0.34832 
1.62987 2.08900 -0.34650 
1.64653 2.07700 -0.34451 
1.71996 2.00100 -0.33190 
1.83235 2.03300 -0.33721 
1.91723 2.03300 -0.33721 
2.25704 2.23500 -0.37072 
-1.70447 1.84600 -0.31390 
-1.64336 1.83800 -0.31254 
-1.63510 1.84600 -0.31390 
-1.57321 1.86400 -0.31696 
-1.54944 1.89200 -0.32172 
-1.54107 1.91100 -0.32495 
-1.53309 1.92100 -0.32666 
-1.52395 1.94000 -0.32989 
-1.49965 1.94000 -0.32989 
-1.46667 1.95000 -0.33159 
-1.44146 1.96000 -0.33329 
-1.44059 1.97000 -0.33499 
-1.42414 1.97000 -0.33499 
-1.39830 1.98000 -0.33669 
-1.33366 1.97000 -0.33499 
-1.30631 1.99100 -0.33856 
-1.26596 2.03300 -0.34570 
-1.18929 2.07700 -0.35318 
-1.16127 2.08900 -0.35522 
-1.09490 2.14700 -0.36509 
-1.08951 2.17200 -0.36934 
-1.08641 2.18400 -0.37138 
-1.08371 2.19700 -0.37359 
-1.07453 2.19700 -0.37359 
-1.06196 2.20900 -0.37563 
-1.05273 2.20900 -0.37563 
-1.03110 2.22200 -0.37784 
-1.02182 2.22200 -0.37784 
-0.96807 2.24800 -0.38226 
-0.95521 2.26200 -0.38464 
-0.73388 2.08900 -0.35522 
-0.71232 2.07700 -0.35318 
-0.69497 2.07700 -0.35318 
-0.50521 2.01200 -0.34213 
-0.46668 1.99100 -0.33856 
-0.43343 1.99100 -0.33856 
-0.38455 2.13500 -0.36304 
-0.38654 2.19700 -0.37359 
-0.36472 2.63600 -0.44824 
-0.34505 2.65400 -0.45130 
-0.33397 2.65400 -0.45130 
-0.31627 2.69200 -0.45776 
-0.30503 2.69200 -0.45776 
-0.08565 2.87400 -0.48871 
-0.04965 2.87400 -0.48871 
0.03487 2.91800 -0.49619 
0.04706 2.91800 -0.49619 
0.13543 2.98600 -0.50775 
0.31485 3.03300 -0.51574 
0.32752 3.03300 -0.51574 
0.52146 3.13300 -0.53275 
0.56535 3.15900 -0.53717 
0.57854 3.15900 -0.53717 
0.73577 3.21200 -0.54618 
0.76901 3.23900 -0.55077 
0.83733 3.29500 -0.56030 
0.80821 2.89500 -0.49228 
0.78494 2.73000 -0.46422 
0.57196 1.73700 -0.29537 
0.64457 1.69900 -0.28891 
0.65167 1.69900 -0.28891 
0.65566 1.69100 -0.28755 
0.68771 1.63300 -0.27768 
0.70317 1.60600 -0.27309 
0.79070 1.55400 -0.26425 
0.85996 1.58600 -0.26969 
1.48605 2.17200 -0.36934 
1.53985 2.18400 -0.37138 
1.54046 2.17200 -0.36934 
1.56770 2.13500 -0.36304 
1.65506 2.06600 -0.35131 
1.68735 2.02200 -0.34383 
1.81765 1.98000 -0.33669 
1.81669 1.97000 -0.33499 
2.23262 2.24800 -0.38226 
2.24201 2.24800 -0.38226 
-1.76000 1.86400 -0.32475 
-1.64336 1.83800 -0.32022 
-1.60427 1.84600 -0.32161 
-1.57321 1.86400 -0.32475 
-1.54175 1.90200 -0.33137 
-1.54111 1.92100 -0.33468 
-1.49924 1.95000 -0.33973 
-1.46601 1.96000 -0.34147 
-1.44059 1.97000 -0.34321 
-1.43137 1.98000 -0.34495 
-1.39830 1.98000 -0.34495 
-1.33366 1.97000 -0.34321 
-1.32389 1.98000 -0.34495 
-1.23013 2.04400 -0.35611 
-1.20887 2.06600 -0.35994 
-1.18929 2.07700 -0.36185 
-1.14383 2.08900 -0.36394 
-1.09770 2.13500 -0.37196 
-1.09490 2.14700 -0.37405 
-0.86355 2.19700 -0.38276 
-0.69129 2.06600 -0.35994 
-0.68266 2.06600 -0.35994 
-0.67404 2.06600 -0.35994 
-0.66541 2.06600 -0.35994 
-0.63613 2.05500 -0.35802 
-0.53041 2.01200 -0.35053 
-0.49162 1.99100 -0.34687 
-0.41241 1.97000 -0.34321 
-0.33636 2.67300 -0.46569 
-0.23291 2.77000 -0.48259 
-0.13165 2.83100 -0.49322 
0.02269 2.91800 -0.50837 
0.17416 3.00900 -0.52423 
0.39406 3.05800 -0.53276 
0.52146 3.13300 -0.54583 
0.53454 3.13300 -0.54583 
0.63650 3.18500 -0.55489 
0.81658 3.26700 -0.56918 
0.59371 1.73700 -0.30262 
0.60097 1.73700 -0.30262 
0.61986 1.72900 -0.30123 
0.62879 1.71400 -0.29861 
0.68771 1.63300 -0.28450 
0.70317 1.60600 -0.27980 
0.72156 1.57300 -0.27405 
0.90632 1.58600 -0.27631 
0.97409 1.63300 -0.28450 
0.98091 1.63300 -0.28450 
0.99707 1.62600 -0.28328 
1.42507 2.13500 -0.37196 
1.48514 2.18400 -0.38050 
1.55860 2.17200 -0.37841 
1.56730 2.15900 -0.37614 
1.60336 2.13500 -0.37196 
1.61254 2.11200 -0.36795 
1.63018 2.11200 -0.36795 
1.64653 2.07700 -0.36185 
1.65506 2.06600 -0.35994 
1.66304 2.04400 -0.35611 
1.72831 2.00100 -0.34861 
1.74621 2.01200 -0.35053 
1.85898 1.98000 -0.34495 
1.88705 2.00100 -0.34861 
1.91530 2.02200 -0.35227 
2.00672 2.10000 -0.36586 
2.08459 2.17200 -0.37841 
2.15114 2.22200 -0.38712 
2.20447 2.24800 -0.39165 
2.24653 2.26200 -0.39408 
2.26542 2.26200 -0.39408 
-1.74376 1.85500 -0.33092 
-1.69708 1.83800 -0.32789 
-1.64336 1.83800 -0.32789 
-1.63568 1.83800 -0.32789 
-1.55734 1.89200 -0.33752 
-1.46601 1.96000 -0.34965 
-1.40656 1.98000 -0.35322 
-1.35833 1.97000 -0.35144 
-1.31562 1.98000 -0.35322 
-1.30631 1.99100 -0.35518 
-1.26596 2.03300 -0.36268 
-1.21101 2.05500 -0.36660 
-1.09490 2.14700 -0.38301 
-1.08594 2.14700 -0.38301 
-1.06536 2.19700 -0.39193 
-1.03429 2.20900 -0.39407 
-1.00913 2.23500 -0.39871 
-0.98684 2.24800 -0.40103 
-0.93632 2.26200 -0.40353 
-0.92688 2.26200 -0.40353 
-0.89715 2.23500 -0.39871 
-0.75132 2.08900 -0.37267 
-0.72966 2.07700 -0.37053 
-0.58370 2.02200 -0.36071 
-0.49717 1.98000 -0.35322 
-0.47821 1.97000 -0.35144 
-0.46998 1.97000 -0.35144 
-0.46176 1.97000 -0.35144 
-0.43486 1.96000 -0.34965 
-0.41850 1.96000 -0.34965 
-0.37872 2.05500 -0.36660 
-0.39247 2.53100 -0.45152 
-0.38409 2.61800 -0.46704 
-0.31627 2.69200 -0.48024 
-0.28654 2.73000 -0.48702 
-0.16711 2.83100 -0.50504 
-0.08500 2.85200 -0.50878 
-0.04965 2.87400 -0.51271 
0.04706 2.91800 -0.52056 
0.14789 2.98600 -0.53269 
0.18673 3.00900 -0.53679 
0.26211 3.00900 -0.53679 
0.27467 3.00900 -0.53679 
0.36852 3.05800 -0.54553 
0.38129 3.05800 -0.54553 
0.46524 3.10700 -0.55427 
0.60990 3.18500 -0.56819 
0.70895 3.21200 -0.57300 
0.72236 3.21200 -0.57300 
0.73577 3.21200 -0.57300 
0.84386 3.26700 -0.58282 
0.57421 1.72200 -0.30720 
0.58376 1.72900 -0.30845 
0.59820 1.72900 -0.30845 
0.61264 1.72900 -0.30845 
0.63298 1.70600 -0.30434 
0.64154 1.69100 -0.30167 
0.68771 1.63300 -0.29132 
0.70678 1.59900 -0.28525 
0.71078 1.59300 -0.28418 
0.72813 1.57300 -0.28062 
0.73513 1.56000 -0.27830 
0.73880 1.55400 -0.27723 
0.74193 1.54700 -0.27598 
0.81643 1.56600 -0.27937 
0.83978 1.57300 -0.28062 
0.84635 1.57300 -0.28062 
0.85291 1.57300 -0.28062 
0.86935 1.57900 -0.28169 
0.94195 1.61300 -0.28775 
1.26407 1.93000 -0.34430 
1.53903 2.20900 -0.39407 
1.56730 2.15900 -0.38515 
1.60321 2.12300 -0.37873 
1.63846 2.10000 -0.37463 
1.70421 2.01200 -0.35893 
1.71160 2.00100 -0.35697 
1.77142 2.01200 -0.35893 
1.79515 2.00100 -0.35697 
1.79449 1.99100 -0.35518 
2.17305 2.23500 -0.39871 
2.27844 2.27500 -0.40585 
-1.65871 1.83800 -0.33556 
-1.60427 1.84600 -0.33703 
-1.56543 1.86400 -0.34031 
-1.56566 1.88300 -0.34378 
-1.54913 1.92100 -0.35072 
-1.54027 1.93000 -0.35236 
-1.53205 1.94000 -0.35419 
-1.51552 1.95000 -0.35601 
-1.48238 1.96000 -0.35784 
-1.44881 1.97000 -0.35966 
-1.35833 1.97000 -0.35966 
-1.34188 1.97000 -0.35966 
-1.31562 1.98000 -0.36149 
-1.30736 1.98000 -0.36149 
-1.26596 2.03300 -0.37117 
-1.23013 2.04400 -0.37317 
-1.06818 2.18400 -0.39873 
-1.00913 2.23500 -0.40804 
-0.97410 2.26200 -0.41297 
-0.85844 2.18400 -0.39873 
-0.73833 2.07700 -0.37920 
-0.69992 2.06600 -0.37719 
-0.67903 2.05500 -0.37518 
-0.40822 1.95000 -0.35601 
-0.40008 1.95000 -0.35601 
-0.39394 1.96000 -0.35784 
-0.38040 2.11200 -0.38559 
-0.33636 2.67300 -0.48801 
-0.25419 2.75000 -0.50207 
-0.22294 2.79000 -0.50937 
-0.18934 2.81000 -0.51302 
-0.16711 2.83100 -0.51686 
-0.02584 2.89500 -0.52854 
0.16160 3.00900 -0.54935 
0.17416 3.00900 -0.54935 
0.18673 3.00900 -0.54935 
0.23698 3.00900 -0.54935 
0.34018 3.03300 -0.55374 
0.38129 3.05800 -0.55830 
0.46524 3.10700 -0.56725 
0.49118 3.10700 -0.56725 
0.70895 3.21200 -0.58642 
0.79620 2.85200 -0.52069 
0.55780 1.76100 -0.32151 
0.55264 1.72200 -0.31439 
0.64154 1.69100 -0.30873 
0.66243 1.65500 -0.30215 
0.66610 1.64700 -0.30069 
0.68090 1.63300 -0.29814 
0.69646 1.60600 -0.29321 
0.70317 1.60600 -0.29321 
0.70678 1.59900 -0.29193 
0.93116 1.60600 -0.29321 
0.96991 1.62600 -0.29686 
1.48481 2.19700 -0.40111 
1.54826 2.20900 -0.40330 
1.56721 2.18400 -0.39873 
1.58553 2.13500 -0.38979 
1.61208 2.12300 -0.38760 
1.66387 2.07700 -0.37920 
1.67254 2.07700 -0.37920 
1.68011 2.04400 -0.37317 
1.71996 2.00100 -0.36532 
1.74502 2.00100 -0.36532 
1.77631 1.98000 -0.36149 
1.74633 1.91100 -0.34889 
2.27334 2.28900 -0.41790 
-1.72759 1.84600 -0.34473 
-1.65822 1.82900 -0.34156 
-1.56600 1.87400 -0.34996 
-1.55763 1.90200 -0.35519 
-1.54111 1.92100 -0.35874 
-1.53181 1.95000 -0.36415 
-1.49924 1.95000 -0.36415 
-1.41483 1.98000 -0.36976 
-1.37349 1.98000 -0.36976 
-1.32543 1.97000 -0.36789 
-1.29799 1.99100 -0.37181 
-1.26596 2.03300 -0.37965 
-1.26427 2.04400 -0.38171 
-1.23013 2.04400 -0.38171 
-1.20024 2.06600 -0.38582 
-1.18929 2.07700 -0.38787 
-1.18062 2.07700 -0.38787 
-1.13231 2.10000 -0.39217 
-1.09770 2.13500 -0.39870 
-0.96466 2.26200 -0.42242 
-0.86756 2.18400 -0.40785 
-0.79035 2.10000 -0.39217 
-0.76004 2.08900 -0.39011 
-0.71717 2.06600 -0.38582 
-0.69129 2.06600 -0.38582 
-0.67045 2.05500 -0.38376 
-0.62932 2.03300 -0.37965 
-0.62083 2.03300 -0.37965 
-0.60903 2.02200 -0.37760 
-0.59762 2.01200 -0.37573 
-0.57764 2.00100 -0.37368 
-0.46760 1.96000 -0.36602 
-0.38576 1.96000 -0.36602 
-0.39065 2.33100 -0.43530 
-0.39285 2.40400 -0.44894 
-0.38409 2.61800 -0.48890 
-0.24447 2.77000 -0.51729 
-0.13165 2.83100 -0.52868 
-0.08500 2.85200 -0.53260 
-0.00166 2.89500 -0.54063 
0.04706 2.91800 -0.54492 
0.07196 2.94000 -0.54903 
0.27467 3.00900 -0.56192 
0.29751 2.98600 -0.55762 
0.33749 3.00900 -0.56192 
0.40683 3.05800 -0.57107 
0.49118 3.10700 -0.58022 
0.59173 3.15900 -0.58993 
0.70895 3.21200 -0.59983 
0.72867 2.49800 -0.46649 
0.67312 2.27500 -0.42485 
0.55264 1.72200 -0.32158 
0.56438 1.71400 -0.32008 
0.61016 1.72200 -0.32158 
0.63888 1.68400 -0.31448 
0.67697 1.64000 -0.30626 
0.70317 1.60600 -0.29991 
0.71743 1.59300 -0.29749 
0.72090 1.58600 -0.29618 
0.73469 1.57300 -0.29375 
0.83978 1.57300 -0.29375 
0.84635 1.57300 -0.29375 
0.88254 1.57900 -0.29487 
0.89572 1.57900 -0.29487 
0.98910 1.61300 -0.30122 
1.60321 2.12300 -0.39646 
1.62094 2.12300 -0.39646 
1.62136 2.11200 -0.39441 
1.67348 2.08900 -0.39011 
1.70424 2.02200 -0.37760 
1.74461 1.99100 -0.37181 
1.75754 1.95000 -0.36415 
1.81963 1.92100 -0.35874 
-1.76699 1.85500 -0.35416 
-1.73530 1.84600 -0.35244 
-1.70475 1.83800 -0.35091 
-1.61968 1.84600 -0.35244 
-1.61197 1.84600 -0.35244 
-1.59656 1.84600 -0.35244 
-1.58885 1.85500 -0.35416 
-1.56600 1.87400 -0.35779 
-1.53205 1.94000 -0.37039 
-1.49874 1.96000 -0.37421 
-1.48238 1.96000 -0.37421 
-1.44881 1.97000 -0.37611 
-1.44790 1.98000 -0.37802 
-1.41483 1.98000 -0.37802 
-1.40656 1.98000 -0.37802 
-1.33366 1.97000 -0.37611 
-1.32389 1.98000 -0.37802 
-1.25747 2.03300 -0.38814 
-1.23867 2.04400 -0.39024 
-1.23013 2.04400 -0.39024 
-1.14985 2.10000 -0.40093 
-1.11233 2.11200 -0.40323 
-1.07138 2.17200 -0.41468 
-1.04701 2.19700 -0.41945 
-1.02867 2.19700 -0.41945 
-1.01254 2.22200 -0.42423 
-0.85372 2.17200 -0.41468 
-0.82135 2.13500 -0.40762 
-0.80787 2.12300 -0.40533 
-0.74701 2.07700 -0.39654 
-0.58599 2.00100 -0.38203 
-0.52756 1.97000 -0.37611 
-0.48396 1.96000 -0.37421 
-0.39193 1.95000 -0.37230 
-0.22134 2.77000 -0.52885 
-0.18799 2.79000 -0.53267 
-0.13165 2.83100 -0.54050 
-0.11983 2.83100 -0.54050 
-0.03765 2.87400 -0.54871 
-0.02584 2.89500 -0.55272 
0.03487 2.91800 -0.55711 
0.04741 2.94000 -0.56131 
0.09727 2.96300 -0.56570 
0.30997 2.98600 -0.57009 
0.39406 3.05800 -0.58384 
0.46524 3.10700 -0.59319 
0.58330 3.18500 -0.60808 
0.66872 3.21200 -0.61324 
0.78253 3.23900 -0.61839 
0.79605 3.23900 -0.61839 
0.81658 3.26700 -0.62374 
0.82915 3.15900 -0.60312 
0.81491 3.00900 -0.57448 
0.78448 2.81000 -0.53649 
0.66927 2.26200 -0.43186 
0.57870 1.71400 -0.32724 
0.58585 1.71400 -0.32724 
0.63038 1.69900 -0.32438 
0.68477 1.62600 -0.31044 
0.72752 1.58600 -0.30280 
0.73750 1.57900 -0.30146 
0.82664 1.57300 -0.30032 
0.83978 1.57300 -0.30032 
0.84258 1.56600 -0.29898 
0.88254 1.57900 -0.30146 
0.89970 1.58600 -0.30280 
1.44109 2.15900 -0.41220 
1.60321 2.12300 -0.40533 
1.66476 2.10000 -0.40093 
1.68122 2.07700 -0.39654 
1.68956 2.06600 -0.39444 
1.69773 2.05500 -0.39234 
1.72671 1.98000 -0.37802 
1.74324 1.98000 -0.37802 
1.75978 1.98000 -0.37802 
1.80163 1.90200 -0.36313 
-1.66526 1.82000 -0.35508 
-1.65766 1.82000 -0.35508 
-1.63531 1.82900 -0.35683 
-1.61968 1.84600 -0.36015 
-1.59660 1.85500 -0.36190 
-1.54015 1.94000 -0.37849 
-1.53205 1.94000 -0.37849 
-1.47419 1.96000 -0.38239 
-1.44881 1.97000 -0.38434 
-1.33216 1.98000 -0.38629 
-1.31462 1.99100 -0.38844 
-1.28648 2.01200 -0.39253 
-1.26596 2.03300 -0.39663 
-1.24898 2.03300 -0.39663 
-1.24720 2.04400 -0.39878 
-1.14985 2.10000 -0.40970 
-1.08594 2.14700 -0.41887 
-1.03170 2.18400 -0.42609 
-0.99623 2.24800 -0.43858 
-0.96466 2.26200 -0.44131 
-0.93632 2.26200 -0.44131 
-0.92114 2.24800 -0.43858 
-0.88671 2.20900 -0.43097 
-0.86756 2.18400 -0.42609 
-0.82135 2.13500 -0.41653 
-0.76004 2.08900 -0.40756 
-0.70854 2.06600 -0.40307 
-0.69619 2.05500 -0.40092 
-0.56644 1.99100 -0.38844 
-0.47578 1.96000 -0.38239 
-0.46760 1.96000 -0.38239 
-0.38576 1.96000 -0.38239 
-0.38238 2.12300 -0.41419 
-0.39065 2.33100 -0.45477 
-0.37316 2.61800 -0.51076 
-0.23291 2.77000 -0.54042 
-0.16587 2.81000 -0.54822 
0.07253 2.96300 -0.57807 
0.11049 2.98600 -0.58256 
0.13543 2.98600 -0.58256 
0.24954 3.00900 -0.58705 
0.33749 3.00900 -0.58705 
0.36551 3.03300 -0.59173 
0.49529 3.13300 -0.61124 
0.50837 3.13300 -0.61124 
0.64189 3.21200 -0.62665 
0.56175 1.70600 -0.33283 
0.60017 1.71400 -0.33440 
0.68477 1.62600 -0.31723 
0.70010 1.59900 -0.31196 
0.87321 1.58600 -0.30942 
0.91032 1.59300 -0.31079 
0.96633 1.62000 -0.31606 
0.98051 1.59900 -0.31196 
0.98348 1.59300 -0.31079 
1.14385 1.76900 -0.34513 
1.55819 2.19700 -0.42863 
1.56767 2.17200 -0.42375 
1.63900 2.11200 -0.41204 
1.67427 2.11200 -0.41204 
1.68221 2.08900 -0.40756 
1.69773 2.05500 -0.40092 
1.74200 1.96000 -0.38239 
1.75019 1.96000 -0.38239 
-1.72778 1.83800 -0.36626 
-1.65766 1.82000 -0.36267 
-1.64246 1.82000 -0.36267 
-1.63531 1.82900 -0.36447 
-1.56566 1.88300 -0.37523 
-1.55715 1.92100 -0.38280 
-1.54833 1.93000 -0.38459 
-1.54027 1.93000 -0.38459 
-1.40656 1.98000 -0.39456 
-1.30631 1.99100 -0.39675 
-1.28648 2.01200 -0.40093 
-1.23013 2.04400 -0.40731 
-1.10039 2.12300 -0.42305 
-1.09770 2.13500 -0.42545 
-1.07398 2.15900 -0.43023 
-1.01950 2.19700 -0.43780 
-1.00326 2.22200 -0.44278 
-0.99623 2.24800 -0.44796 
-0.95120 2.27500 -0.45334 
-0.93632 2.26200 -0.45075 
-0.74701 2.07700 -0.41389 
-0.71717 2.06600 -0.41170 
-0.65833 2.04400 -0.40731 
-0.60602 2.01200 -0.40093 
-0.59762 2.01200 -0.40093 
-0.46760 1.96000 -0.39057 
-0.38853 2.26200 -0.45075 
-0.19821 2.77000 -0.55198 
-0.11894 2.81000 -0.55995 
-0.00166 2.89500 -0.57689 
0.03487 2.91800 -0.58147 
0.13543 2.98600 -0.59503 
0.21185 3.00900 -0.59961 
0.28504 2.98600 -0.59503 
0.42289 3.08200 -0.61416 
0.44862 3.08200 -0.61416 
0.50837 3.13300 -0.62432 
0.68213 3.21200 -0.64006 
0.69554 3.21200 -0.64006 
0.82268 3.18500 -0.63468 
0.75201 2.65400 -0.52887 
0.70562 2.41900 -0.48204 
0.54750 1.70600 -0.33996 
0.55463 1.70600 -0.33996 
0.61448 1.71400 -0.34155 
0.68976 1.60600 -0.32003 
0.72090 1.58600 -0.31605 
0.73750 1.57900 -0.31465 
0.75440 1.57300 -0.31345 
0.78067 1.57300 -0.31345 
0.84912 1.56600 -0.31206 
0.87983 1.58600 -0.31605 
1.08635 1.69100 -0.33697 
1.42507 2.13500 -0.42545 
1.48514 2.18400 -0.43521 
1.59445 2.14700 -0.42784 
1.69773 2.05500 -0.40950 
1.69579 2.02200 -0.40293 
1.71799 1.97000 -0.39257 
1.73951 1.93000 -0.38459 
1.73835 1.91100 -0.38081 
1.71894 1.86400 -0.37144 
1.73388 1.85500 -0.36965 
-1.63486 1.82000 -0.37027 
-1.59730 1.87400 -0.38126 
-1.58138 1.88300 -0.38309 
-1.53181 1.95000 -0.39672 
-1.46601 1.96000 -0.39876 
-1.45783 1.96000 -0.39876 
-1.44964 1.96000 -0.39876 
-1.42310 1.98000 -0.40283 
-1.31562 1.98000 -0.40283 
-1.30631 1.99100 -0.40506 
-1.24898 2.03300 -0.41361 
-1.20243 2.05500 -0.41808 
-1.16127 2.08900 -0.42500 
-1.09770 2.13500 -0.43436 
-1.06496 2.15900 -0.43924 
-1.05324 2.17200 -0.44189 
-1.00326 2.22200 -0.45206 
-0.98684 2.24800 -0.45735 
-0.97020 2.27500 -0.46284 
-0.74701 2.07700 -0.42256 
-0.71717 2.06600 -0.42032 
-0.65833 2.04400 -0.41585 
-0.62591 2.02200 -0.41137 
-0.61747 2.02200 -0.41137 
-0.52756 1.97000 -0.40079 
-0.44305 1.96000 -0.39876 
-0.41850 1.96000 -0.39876 
-0.40213 1.96000 -0.39876 
-0.38455 2.13500 -0.43436 
-0.39530 2.41900 -0.49214 
-0.37060 2.60000 -0.52896 
-0.34271 2.63600 -0.53629 
-0.21974 2.75000 -0.55948 
-0.20978 2.77000 -0.56355 
-0.07309 2.85200 -0.58023 
-0.00166 2.89500 -0.58898 
0.01042 2.89500 -0.58898 
0.02269 2.91800 -0.59366 
0.04706 2.91800 -0.59366 
0.16160 3.00900 -0.61217 
0.21185 3.00900 -0.61217 
0.24954 3.00900 -0.61217 
0.35284 3.03300 -0.61706 
0.42289 3.08200 -0.62702 
0.50837 3.13300 -0.63740 
0.76901 3.23900 -0.65897 
0.77601 3.21200 -0.65347 
0.58072 1.88300 -0.38309 
0.55944 1.69900 -0.34566 
0.63448 1.69100 -0.34403 
0.65135 1.66200 -0.33813 
0.66243 1.65500 -0.33671 
0.68090 1.63300 -0.33223 
0.79024 1.57900 -0.32124 
0.94195 1.61300 -0.32816 
0.95542 1.61300 -0.32816 
0.97484 1.57900 -0.32124 
1.16229 1.78600 -0.36336 
1.22739 1.87400 -0.38126 
1.48605 2.17200 -0.44189 
1.53139 2.17200 -0.44189 
1.56755 2.14700 -0.43680 
1.60336 2.13500 -0.43436 
1.70571 2.04400 -0.41585 
1.70976 1.97000 -0.40079 
1.72563 1.96000 -0.39876 
1.75398 1.90200 -0.38696 
1.76193 1.90200 -0.38696 
-1.72010 1.83800 -0.38161 
-1.62034 1.83800 -0.38161 
-1.60434 1.86400 -0.38701 
-1.59656 1.86400 -0.38701 
-1.53205 1.94000 -0.40279 
-1.51511 1.96000 -0.40694 
-1.49874 1.96000 -0.40694 
-1.44059 1.97000 -0.40902 
-1.43236 1.97000 -0.40902 
-1.42414 1.97000 -0.40902 
-1.41591 1.97000 -0.40902 
-1.34043 1.98000 -0.41109 
-1.30631 1.99100 -0.41338 
-1.25911 2.02200 -0.41981 
-1.17194 2.07700 -0.43123 
-1.12115 2.11200 -0.43850 
-1.00326 2.22200 -0.46134 
-0.99980 2.23500 -0.46404 
-0.97020 2.27500 -0.47234 
-0.63436 2.02200 -0.41981 
-0.60602 2.01200 -0.41774 
-0.58306 1.99100 -0.41338 
-0.57475 1.99100 -0.41338 
-0.51111 1.97000 -0.40902 
-0.50289 1.97000 -0.40902 
-0.45941 1.96000 -0.40694 
-0.42668 1.96000 -0.40694 
-0.38773 1.97000 -0.40902 
-0.38498 2.08900 -0.43372 
-0.38703 2.56500 -0.53255 
-0.35130 2.61800 -0.54356 
-0.29379 2.69200 -0.55892 
-0.28255 2.69200 -0.55892 
-0.22954 2.73000 -0.56681 
-0.19821 2.77000 -0.57511 
-0.14241 2.81000 -0.58342 
-0.03736 2.85200 -0.59214 
-0.00166 2.89500 -0.60107 
0.01042 2.89500 -0.60107 
0.07196 2.94000 -0.61041 
0.18673 3.00900 -0.62474 
0.19929 3.00900 -0.62474 
0.45226 3.10700 -0.64508 
0.61507 3.21200 -0.66688 
0.64189 3.21200 -0.66688 
0.66872 3.21200 -0.66688 
0.72236 3.21200 -0.66688 
0.80958 3.23900 -0.67249 
0.80234 3.00900 -0.62474 
0.68404 2.34500 -0.48687 
0.56358 1.80300 -0.37434 
0.55681 1.69100 -0.35109 
0.57363 1.69900 -0.35275 
0.60449 1.70600 -0.35420 
0.67298 1.64700 -0.34195 
