ply
format ascii 1.0
comment pointcloud saved from Realsense Viewer
element vertex 1948
property float32 x
property float32 y
property float32 z
end_header
2.12087 1.1633 -2.172 
2.11719 1.15634 -2.159 
2.1262 1.15634 -2.159 
2.13522 1.15634 -2.159 
2.13231 1.14991 -2.147 
2.14128 1.14991 -2.147 
2.15024 1.14991 -2.147 
2.15921 1.14991 -2.147 
2.16817 1.14991 -2.147 
-2.38992 1.32748 -2.498 
-2.349 1.31047 -2.466 
-2.30836 1.29347 -2.434 
-2.28403 1.2855 -2.419 
-2.25983 1.27752 -2.404 
-2.23576 1.26955 -2.389 
-2.21181 1.26158 -2.374 
-2.175 1.24617 -2.345 
-2.15228 1.23873 -2.331 
-2.12876 1.23076 -2.316 
-2.10628 1.22332 -2.302 
-2.09667 1.22332 -2.302 
-2.08706 1.22332 -2.302 
-2.06571 1.21641 -2.289 
-2.05616 1.21641 -2.289 
-2.0466 1.21641 -2.289 
-2.03704 1.21641 -2.289 
-2.02748 1.21641 -2.289 
-2.01793 1.21641 -2.289 
-2.00837 1.21641 -2.289 
-1.99881 1.21641 -2.289 
-2.00055 1.22332 -2.302 
-1.99094 1.22332 -2.302 
-1.98133 1.22332 -2.302 
-1.97172 1.22332 -2.302 
-1.9621 1.22332 -2.302 
-1.95249 1.22332 -2.302 
-1.94288 1.22332 -2.302 
-1.93327 1.22332 -2.302 
-1.92366 1.22332 -2.302 
-1.91405 1.22332 -2.302 
-1.90443 1.22332 -2.302 
-1.88412 1.21641 -2.289 
-1.87457 1.21641 -2.289 
-1.86501 1.21641 -2.289 
-1.85545 1.21641 -2.289 
-1.84589 1.21641 -2.289 
-1.83634 1.21641 -2.289 
-1.83715 1.22332 -2.302 
-1.82754 1.22332 -2.302 
-1.81793 1.22332 -2.302 
-1.80832 1.22332 -2.302 
-1.79871 1.22332 -2.302 
-1.78909 1.22332 -2.302 
-1.77948 1.22332 -2.302 
-1.78064 1.23076 -2.316 
-1.77097 1.23076 -2.316 
-1.76129 1.23076 -2.316 
-1.75162 1.23076 -2.316 
-1.74195 1.23076 -2.316 
-1.7435 1.23873 -2.331 
-1.73377 1.23873 -2.331 
-1.72404 1.23873 -2.331 
-1.71431 1.23873 -2.331 
-1.70457 1.23873 -2.331 
-1.69484 1.23873 -2.331 
-1.68511 1.23873 -2.331 
-1.67537 1.23873 -2.331 
-1.65492 1.23076 -2.316 
-1.64525 1.23076 -2.316 
-1.63558 1.23076 -2.316 
-1.62591 1.23076 -2.316 
-1.61624 1.23076 -2.316 
-1.60657 1.23076 -2.316 
-1.5969 1.23076 -2.316 
-1.58723 1.23076 -2.316 
-1.57756 1.23076 -2.316 
-1.56789 1.23076 -2.316 
-1.55822 1.23076 -2.316 
-1.55858 1.23873 -2.331 
-1.54885 1.23873 -2.331 
-1.53912 1.23873 -2.331 
-1.52938 1.23873 -2.331 
-1.51965 1.23873 -2.331 
-1.50992 1.23873 -2.331 
-1.50019 1.23873 -2.331 
-1.49045 1.23873 -2.331 
-1.48072 1.23873 -2.331 
-1.47099 1.23873 -2.331 
-1.46125 1.23873 -2.331 
-1.44218 1.23076 -2.316 
-1.43251 1.23076 -2.316 
-1.42284 1.23076 -2.316 
-1.41317 1.23076 -2.316 
-1.4035 1.23076 -2.316 
-1.39383 1.23076 -2.316 
-1.38416 1.23076 -2.316 
-1.37449 1.23076 -2.316 
-1.37366 1.23873 -2.331 
-1.36393 1.23873 -2.331 
-1.35419 1.23873 -2.331 
-1.35254 1.24617 -2.345 
-1.34274 1.24617 -2.345 
-1.34091 1.25361 -2.359 
-1.33106 1.25361 -2.359 
-1.32121 1.25361 -2.359 
-1.3197 1.26158 -2.374 
-1.30979 1.26158 -2.374 
-1.29988 1.26158 -2.374 
-1.28996 1.26158 -2.374 
-1.28005 1.26158 -2.374 
-1.27014 1.26158 -2.374 
-1.26023 1.26158 -2.374 
-1.25821 1.26955 -2.389 
-1.2404 1.26158 -2.374 
-1.23049 1.26158 -2.374 
-1.22829 1.26955 -2.389 
-1.21067 1.26158 -2.374 
-1.20834 1.26955 -2.389 
-1.19837 1.26955 -2.389 
-1.18839 1.26955 -2.389 
-1.17842 1.26955 -2.389 
-1.16844 1.26955 -2.389 
-1.15847 1.26955 -2.389 
-1.14849 1.26955 -2.389 
-1.14566 1.27752 -2.404 
-1.13563 1.27752 -2.404 
-1.12559 1.27752 -2.404 
-1.11555 1.27752 -2.404 
-1.11241 1.2855 -2.419 
-1.10231 1.2855 -2.419 
-1.09221 1.2855 -2.419 
-1.08211 1.2855 -2.419 
-1.07201 1.2855 -2.419 
-1.0685 1.29347 -2.434 
-1.05833 1.29347 -2.434 
-1.04817 1.29347 -2.434 
-1.03801 1.29347 -2.434 
-1.02784 1.29347 -2.434 
-1.01768 1.29347 -2.434 
-1.00752 1.29347 -2.434 
-1.00391 1.30197 -2.45 
-0.993682 1.30197 -2.45 
-0.983453 1.30197 -2.45 
-0.973223 1.30197 -2.45 
-0.962993 1.30197 -2.45 
-0.952764 1.30197 -2.45 
-0.942534 1.30197 -2.45 
-0.938393 1.31047 -2.466 
-0.928097 1.31047 -2.466 
-0.9178 1.31047 -2.466 
-0.907504 1.31047 -2.466 
-0.903029 1.31897 -2.482 
-0.89842 1.32748 -2.498 
-0.88799 1.32748 -2.498 
-0.883532 1.33651 -2.515 
-0.873031 1.33651 -2.515 
-0.86253 1.33651 -2.515 
-0.857449 1.34501 -2.531 
-0.846882 1.34501 -2.531 
-0.836314 1.34501 -2.531 
-0.825746 1.34501 -2.531 
-0.810025 1.33651 -2.515 
-0.799524 1.33651 -2.515 
-0.794042 1.34501 -2.531 
-0.783475 1.34501 -2.531 
-0.768021 1.33651 -2.515 
-0.762339 1.34501 -2.531 
-0.751771 1.34501 -2.531 
-0.741203 1.34501 -2.531 
-0.730635 1.34501 -2.531 
-0.720068 1.34501 -2.531 
-0.7095 1.34501 -2.531 
-0.698932 1.34501 -2.531 
-0.688364 1.34501 -2.531 
-0.682349 1.35405 -2.548 
-0.67171 1.35405 -2.548 
-0.661071 1.35405 -2.548 
-0.650432 1.35405 -2.548 
-0.639794 1.35405 -2.548 
-0.629155 1.35405 -2.548 
-0.618516 1.35405 -2.548 
-0.607877 1.35405 -2.548 
-0.597238 1.35405 -2.548 
-0.590513 1.36308 -2.565 
-0.579803 1.36308 -2.565 
-0.569094 1.36308 -2.565 
-0.558384 1.36308 -2.565 
-0.547674 1.36308 -2.565 
-0.536964 1.36308 -2.565 
-0.529742 1.37212 -2.582 
-0.518962 1.37212 -2.582 
-0.508181 1.37212 -2.582 
-0.500868 1.38168 -2.6 
-0.493404 1.39125 -2.618 
-0.482473 1.39125 -2.618 
-0.471542 1.39125 -2.618 
-0.463778 1.40081 -2.636 
-0.452772 1.40081 -2.636 
-0.444782 1.41038 -2.654 
-0.4337 1.41038 -2.654 
-0.422619 1.41038 -2.654 
-0.414484 1.42048 -2.673 
-0.403323 1.42048 -2.673 
-0.392162 1.42048 -2.673 
-0.38371 1.43057 -2.692 
-0.37247 1.43057 -2.692 
-0.363779 1.44067 -2.711 
-0.35246 1.44067 -2.711 
-0.34114 1.44067 -2.711 
-0.332133 1.45077 -2.73 
-0.320734 1.45077 -2.73 
-0.309335 1.45077 -2.73 
-0.297936 1.45077 -2.73 
-0.288637 1.46139 -2.75 
-0.277155 1.46139 -2.75 
-0.265672 1.46139 -2.75 
-0.25419 1.46139 -2.75 
-0.242708 1.46139 -2.75 
-0.229544 1.45077 -2.73 
-0.218145 1.45077 -2.73 
-0.206747 1.45077 -2.73 
-0.193988 1.44067 -2.711 
-0.182669 1.44067 -2.711 
-0.170149 1.43057 -2.692 
-0.158909 1.43057 -2.692 
-0.147669 1.43057 -2.692 
-0.135466 1.42048 -2.673 
-0.124305 1.42048 -2.673 
-0.113144 1.42048 -2.673 
-0.101983 1.42048 -2.673 
-0.0908226 1.42048 -2.673 
-0.0796619 1.42048 -2.673 
-0.0685012 1.42048 -2.673 
-0.0573404 1.42048 -2.673 
-0.046508 1.43057 -2.692 
-0.0352679 1.43057 -2.692 
-0.0240278 1.43057 -2.692 
-0.0127878 1.43057 -2.692 
-0.0015477 1.43057 -2.692 
0.00969236 1.43057 -2.692 
0.0209324 1.43057 -2.692 
0.0321725 1.43057 -2.692 
0.0434126 1.43057 -2.692 
0.0546526 1.43057 -2.692 
0.0663577 1.44067 -2.711 
0.0776771 1.44067 -2.711 
0.0896203 1.45077 -2.73 
0.101019 1.45077 -2.73 
0.113241 1.46139 -2.75 
0.125631 1.47202 -2.77 
0.138187 1.48265 -2.79 
0.15091 1.49328 -2.81 
0.162643 1.49328 -2.81 
0.175679 1.50444 -2.831 
0.187499 1.50444 -2.831 
0.200798 1.5156 -2.852 
0.212706 1.5156 -2.852 
0.224615 1.5156 -2.852 
0.236523 1.5156 -2.852 
0.248431 1.5156 -2.852 
0.256505 1.49328 -2.81 
0.268238 1.49328 -2.81 
0.279971 1.49328 -2.81 
0.289627 1.48265 -2.79 
0.301276 1.48265 -2.79 
0.312926 1.48265 -2.79 
0.324575 1.48265 -2.79 
0.336224 1.48265 -2.79 
0.347873 1.48265 -2.79 
0.3621 1.49328 -2.81 
0.373833 1.49328 -2.81 
0.382821 1.48265 -2.79 
0.39447 1.48265 -2.79 
0.40612 1.48265 -2.79 
0.417769 1.48265 -2.79 
0.429418 1.48265 -2.79 
0.437906 1.47202 -2.77 
0.446226 1.46139 -2.75 
0.457708 1.46139 -2.75 
0.465778 1.45077 -2.73 
0.473856 1.44067 -2.711 
0.485175 1.44067 -2.711 
0.493015 1.43057 -2.692 
0.500696 1.42048 -2.673 
0.508219 1.41038 -2.654 
0.515778 1.40081 -2.636 
0.523187 1.39125 -2.618 
0.534118 1.39125 -2.618 
0.537554 1.37212 -2.582 
0.544725 1.36308 -2.565 
0.551753 1.35405 -2.548 
0.566144 1.36308 -2.565 
0.576854 1.36308 -2.565 
0.587564 1.36308 -2.565 
0.598274 1.36308 -2.565 
0.608983 1.36308 -2.565 
0.6238 1.37212 -2.582 
0.634581 1.37212 -2.582 
0.645362 1.37212 -2.582 
0.656143 1.37212 -2.582 
0.662532 1.36308 -2.565 
0.673242 1.36308 -2.565 
0.683952 1.36308 -2.565 
0.694662 1.36308 -2.565 
0.700697 1.35405 -2.548 
0.711335 1.35405 -2.548 
0.717157 1.34501 -2.531 
0.723125 1.33651 -2.515 
0.733626 1.33651 -2.515 
0.739097 1.32748 -2.498 
0.749527 1.32748 -2.498 
0.755089 1.31897 -2.482 
0.760518 1.31047 -2.466 
0.765813 1.30197 -2.45 
0.776043 1.30197 -2.45 
0.786273 1.30197 -2.45 
0.796502 1.30197 -2.45 
0.806732 1.30197 -2.45 
0.822297 1.31047 -2.466 
0.832593 1.31047 -2.466 
0.945854 1.31047 -2.466 
0.95615 1.31047 -2.466 
0.960176 1.30197 -2.45 
0.970406 1.30197 -2.45 
0.980636 1.30197 -2.45 
0.984394 1.29347 -2.434 
1.00109 1.30197 -2.45 
1.01132 1.30197 -2.45 
1.02155 1.30197 -2.45 
1.03852 1.31047 -2.466 
1.05562 1.31897 -2.482 
1.07286 1.32748 -2.498 
1.09066 1.33651 -2.515 
1.10116 1.33651 -2.515 
1.11873 1.34501 -2.531 
1.1293 1.34501 -2.531 
1.14753 1.35405 -2.548 
1.16589 1.36308 -2.565 
1.1766 1.36308 -2.565 
1.18731 1.36308 -2.565 
1.19802 1.36308 -2.565 
1.21674 1.37212 -2.582 
1.22752 1.37212 -2.582 
1.2383 1.37212 -2.582 
1.24909 1.37212 -2.582 
1.25987 1.37212 -2.582 
1.27065 1.37212 -2.582 
1.29036 1.38168 -2.6 
1.30122 1.38168 -2.6 
1.32116 1.39125 -2.618 
1.34125 1.40081 -2.636 
1.35225 1.40081 -2.636 
1.37257 1.41038 -2.654 
1.39355 1.42048 -2.673 
1.40472 1.42048 -2.673 
1.42594 1.43057 -2.692 
1.43718 1.43057 -2.692 
1.44842 1.43057 -2.692 
1.44936 1.42048 -2.673 
1.46052 1.42048 -2.673 
1.47168 1.42048 -2.673 
1.48284 1.42048 -2.673 
1.48338 1.41038 -2.654 
1.48433 1.40081 -2.636 
1.48512 1.39125 -2.618 
1.47548 1.37212 -2.582 
1.46669 1.35405 -2.548 
1.4582 1.33651 -2.515 
1.44943 1.31897 -2.482 
1.44097 1.30197 -2.45 
1.44172 1.29347 -2.434 
1.43399 1.27752 -2.404 
1.42601 1.26158 -2.374 
1.42685 1.25361 -2.359 
1.42817 1.24617 -2.345 
1.42938 1.23873 -2.331 
1.43911 1.23873 -2.331 
1.43952 1.23076 -2.316 
1.44919 1.23076 -2.316 
1.45886 1.23076 -2.316 
1.47804 1.23873 -2.331 
1.48777 1.23873 -2.331 
1.4975 1.23873 -2.331 
1.51629 1.24617 -2.345 
1.54495 1.26158 -2.374 
1.57451 1.27752 -2.404 
1.59444 1.2855 -2.419 
1.6251 1.30197 -2.45 
1.64601 1.31047 -2.466 
1.66705 1.31897 -2.482 
1.67742 1.31897 -2.482 
1.68778 1.31897 -2.482 
1.69814 1.31897 -2.482 
1.68648 1.30197 -2.45 
1.68563 1.29347 -2.434 
1.68534 1.2855 -2.419 
1.67441 1.26955 -2.389 
1.67381 1.26158 -2.374 
1.67309 1.25361 -2.359 
1.67295 1.24617 -2.345 
1.67269 1.23873 -2.331 
1.6716 1.23076 -2.316 
1.68127 1.23076 -2.316 
1.69094 1.23076 -2.316 
1.71163 1.23873 -2.331 
1.72136 1.23873 -2.331 
1.73109 1.23873 -2.331 
1.74082 1.23873 -2.331 
1.75056 1.23873 -2.331 
1.76029 1.23873 -2.331 
1.78065 1.24617 -2.345 
1.79044 1.24617 -2.345 
1.80024 1.24617 -2.345 
1.81003 1.24617 -2.345 
1.81982 1.24617 -2.345 
1.82961 1.24617 -2.345 
1.8394 1.24617 -2.345 
1.84919 1.24617 -2.345 
1.85898 1.24617 -2.345 
1.86877 1.24617 -2.345 
1.87856 1.24617 -2.345 
1.88836 1.24617 -2.345 
1.89815 1.24617 -2.345 
1.90794 1.24617 -2.345 
1.91773 1.24617 -2.345 
1.92752 1.24617 -2.345 
1.93731 1.24617 -2.345 
1.95873 1.25361 -2.359 
1.96858 1.25361 -2.359 
1.99101 1.26158 -2.374 
2.0262 1.27752 -2.404 
2.04895 1.2855 -2.419 
2.08544 1.30197 -2.45 
2.12304 1.31897 -2.482 
2.14715 1.32748 -2.498 
2.17227 1.33651 -2.515 
2.19665 1.34501 -2.531 
2.20722 1.34501 -2.531 
2.23269 1.35405 -2.548 
2.25829 1.36308 -2.565 
2.269 1.36308 -2.565 
2.2646 1.35405 -2.548 
2.27524 1.35405 -2.548 
2.27063 1.34501 -2.531 
2.26678 1.33651 -2.515 
2.26188 1.32748 -2.498 
2.2432 1.31047 -2.466 
2.22426 1.29347 -2.434 
2.20688 1.27752 -2.404 
2.18925 1.26158 -2.374 
2.1723 1.24617 -2.345 
2.15511 1.23076 -2.316 
2.13954 1.21641 -2.289 
2.13595 1.20897 -2.275 
2.13319 1.20206 -2.262 
2.11706 1.18771 -2.235 
2.11403 1.18081 -2.222 
2.11088 1.1739 -2.209 
2.10859 1.16752 -2.197 
2.10523 1.16061 -2.184 
2.10273 1.15424 -2.172 
2.1118 1.15424 -2.172 
2.12087 1.15424 -2.172 
2.11719 1.14733 -2.159 
2.1262 1.14733 -2.159 
2.13522 1.14733 -2.159 
2.13231 1.14095 -2.147 
2.14128 1.14095 -2.147 
2.15024 1.14095 -2.147 
2.15921 1.14095 -2.147 
2.15605 1.13457 -2.135 
-2.40035 1.31705 -2.498 
-2.37461 1.30861 -2.482 
-2.349 1.30018 -2.466 
-2.30836 1.2833 -2.434 
-2.28403 1.2754 -2.419 
-2.25983 1.26749 -2.404 
-2.23576 1.25958 -2.389 
-2.19783 1.24376 -2.359 
-2.175 1.23638 -2.345 
-2.15228 1.229 -2.331 
-2.12876 1.22109 -2.316 
-2.10628 1.21371 -2.302 
-2.09667 1.21371 -2.302 
-2.08706 1.21371 -2.302 
-2.07745 1.21371 -2.302 
-2.05616 1.20685 -2.289 
-2.0466 1.20685 -2.289 
-2.03704 1.20685 -2.289 
-2.02748 1.20685 -2.289 
-2.01793 1.20685 -2.289 
-2.00837 1.20685 -2.289 
-1.99881 1.20685 -2.289 
-2.00055 1.21371 -2.302 
-1.99094 1.21371 -2.302 
-1.98133 1.21371 -2.302 
-1.97172 1.21371 -2.302 
-1.9621 1.21371 -2.302 
-1.95249 1.21371 -2.302 
-1.94288 1.21371 -2.302 
-1.93327 1.21371 -2.302 
-1.92366 1.21371 -2.302 
-1.91405 1.21371 -2.302 
-1.90443 1.21371 -2.302 
-1.89482 1.21371 -2.302 
-1.88521 1.21371 -2.302 
-1.8756 1.21371 -2.302 
-1.86599 1.21371 -2.302 
-1.85638 1.21371 -2.302 
-1.84676 1.21371 -2.302 
-1.83715 1.21371 -2.302 
-1.82754 1.21371 -2.302 
-1.81793 1.21371 -2.302 
-1.80832 1.21371 -2.302 
-1.80965 1.22109 -2.316 
-1.79998 1.22109 -2.316 
-1.79031 1.22109 -2.316 
-1.78064 1.22109 -2.316 
-1.77097 1.22109 -2.316 
-1.76129 1.22109 -2.316 
-1.75162 1.22109 -2.316 
-1.74195 1.22109 -2.316 
-1.7435 1.229 -2.331 
-1.73377 1.229 -2.331 
-1.72404 1.229 -2.331 
-1.71431 1.229 -2.331 
-1.70457 1.229 -2.331 
-1.69484 1.229 -2.331 
-1.68511 1.229 -2.331 
-1.67537 1.229 -2.331 
-1.66564 1.229 -2.331 
-1.64525 1.22109 -2.316 
-1.64618 1.229 -2.331 
-1.63644 1.229 -2.331 
-1.62671 1.229 -2.331 
-1.61698 1.229 -2.331 
-1.60725 1.229 -2.331 
-1.58723 1.22109 -2.316 
-1.57756 1.22109 -2.316 
-1.57805 1.229 -2.331 
-1.56831 1.229 -2.331 
-1.55858 1.229 -2.331 
-1.54885 1.229 -2.331 
-1.53912 1.229 -2.331 
-1.52938 1.229 -2.331 
-1.51965 1.229 -2.331 
-1.50992 1.229 -2.331 
-1.50019 1.229 -2.331 
-1.49045 1.229 -2.331 
-1.48072 1.229 -2.331 
-1.47099 1.229 -2.331 
-1.46125 1.229 -2.331 
-1.44218 1.22109 -2.316 
-1.43251 1.22109 -2.316 
-1.42284 1.22109 -2.316 
-1.41317 1.22109 -2.316 
-1.4035 1.22109 -2.316 
-1.39383 1.22109 -2.316 
-1.39312 1.229 -2.331 
-1.38339 1.229 -2.331 
-1.37366 1.229 -2.331 
-1.36393 1.229 -2.331 
-1.36233 1.23638 -2.345 
-1.35254 1.23638 -2.345 
-1.35076 1.24376 -2.359 
-1.34091 1.24376 -2.359 
-1.33953 1.25167 -2.374 
-1.32961 1.25167 -2.374 
-1.3197 1.25167 -2.374 
-1.31806 1.25958 -2.389 
-1.30809 1.25958 -2.389 
-1.29811 1.25958 -2.389 
-1.28814 1.25958 -2.389 
-1.27816 1.25958 -2.389 
-1.26819 1.25958 -2.389 
-1.25821 1.25958 -2.389 
-1.24824 1.25958 -2.389 
-1.23826 1.25958 -2.389 
-1.22829 1.25958 -2.389 
-1.21832 1.25958 -2.389 
-1.20834 1.25958 -2.389 
-1.19837 1.25958 -2.389 
-1.18839 1.25958 -2.389 
-1.17842 1.25958 -2.389 
-1.16844 1.25958 -2.389 
-1.15847 1.25958 -2.389 
-1.14849 1.25958 -2.389 
-1.13852 1.25958 -2.389 
-1.12854 1.25958 -2.389 
-1.12559 1.26749 -2.404 
-1.11555 1.26749 -2.404 
-1.11241 1.2754 -2.419 
-1.10231 1.2754 -2.419 
-1.09221 1.2754 -2.419 
-1.08211 1.2754 -2.419 
-1.07201 1.2754 -2.419 
-1.0685 1.2833 -2.434 
-1.05833 1.2833 -2.434 
-1.04817 1.2833 -2.434 
-1.03801 1.2833 -2.434 
-1.02784 1.2833 -2.434 
-1.01768 1.2833 -2.434 
-1.00752 1.2833 -2.434 
-0.997356 1.2833 -2.434 
-0.987193 1.2833 -2.434 
-0.983453 1.29174 -2.45 
-0.973223 1.29174 -2.45 
-0.962993 1.29174 -2.45 
-0.952764 1.29174 -2.45 
-0.94869 1.30018 -2.466 
-0.938393 1.30018 -2.466 
-0.928097 1.30018 -2.466 
-0.9178 1.30018 -2.466 
-0.913392 1.30861 -2.482 
-0.903029 1.30861 -2.482 
-0.89842 1.31705 -2.498 
-0.894033 1.32601 -2.515 
-0.883532 1.32601 -2.515 
-0.873031 1.32601 -2.515 
-0.86253 1.32601 -2.515 
-0.857449 1.33445 -2.531 
-0.846882 1.33445 -2.531 
-0.831027 1.32601 -2.515 
-0.820526 1.32601 -2.515 
-0.810025 1.32601 -2.515 
-0.799524 1.32601 -2.515 
-0.789023 1.32601 -2.515 
-0.778522 1.32601 -2.515 
-0.768021 1.32601 -2.515 
-0.75752 1.32601 -2.515 
-0.747019 1.32601 -2.515 
-0.736518 1.32601 -2.515 
-0.730635 1.33445 -2.531 
-0.720068 1.33445 -2.531 
-0.7095 1.33445 -2.531 
-0.698932 1.33445 -2.531 
-0.688364 1.33445 -2.531 
-0.677796 1.33445 -2.531 
-0.667228 1.33445 -2.531 
-0.661071 1.34341 -2.548 
-0.650432 1.34341 -2.548 
-0.639794 1.34341 -2.548 
-0.629155 1.34341 -2.548 
-0.618516 1.34341 -2.548 
-0.607877 1.34341 -2.548 
-0.597238 1.34341 -2.548 
-0.5866 1.34341 -2.548 
-0.575961 1.34341 -2.548 
-0.565322 1.34341 -2.548 
-0.554683 1.34341 -2.548 
-0.547674 1.35237 -2.565 
-0.536964 1.35237 -2.565 
-0.526255 1.35237 -2.565 
-0.515545 1.35237 -2.565 
-0.508181 1.36134 -2.582 
-0.500868 1.37083 -2.6 
-0.490012 1.37083 -2.6 
-0.479156 1.37083 -2.6 
-0.4683 1.37083 -2.6 
-0.460611 1.38032 -2.618 
-0.44968 1.38032 -2.618 
-0.441765 1.38981 -2.636 
-0.430759 1.38981 -2.636 
-0.422619 1.3993 -2.654 
-0.411538 1.3993 -2.654 
-0.403323 1.40931 -2.673 
-0.39495 1.41933 -2.692 
-0.38371 1.41933 -2.692 
-0.37247 1.41933 -2.692 
-0.363779 1.42935 -2.711 
-0.35246 1.42935 -2.711 
-0.34114 1.42935 -2.711 
-0.332133 1.43937 -2.73 
-0.320734 1.43937 -2.73 
-0.311601 1.44991 -2.75 
-0.300119 1.44991 -2.75 
-0.288637 1.44991 -2.75 
-0.27917 1.46046 -2.77 
-0.267605 1.46046 -2.77 
-0.256039 1.46046 -2.77 
-0.244473 1.46046 -2.77 
-0.232907 1.46046 -2.77 
-0.219744 1.44991 -2.75 
-0.208261 1.44991 -2.75 
-0.196779 1.44991 -2.75 
-0.183949 1.43937 -2.73 
-0.17255 1.43937 -2.73 
-0.16003 1.42935 -2.711 
-0.148711 1.42935 -2.711 
-0.137391 1.42935 -2.711 
-0.125188 1.41933 -2.692 
-0.113948 1.41933 -2.692 
-0.102708 1.41933 -2.692 
-0.0914682 1.41933 -2.692 
-0.0802281 1.41933 -2.692 
-0.0689881 1.41933 -2.692 
-0.057748 1.41933 -2.692 
-0.0468362 1.42935 -2.711 
-0.0355168 1.42935 -2.711 
-0.0241974 1.42935 -2.711 
-0.012878 1.42935 -2.711 
-0.00155863 1.42935 -2.711 
0.00976077 1.42935 -2.711 
0.0212279 1.43937 -2.73 
0.0326266 1.43937 -2.73 
0.0440254 1.43937 -2.73 
0.0554241 1.43937 -2.73 
0.0668228 1.43937 -2.73 
0.0787946 1.44991 -2.75 
0.0902768 1.44991 -2.75 
0.102499 1.46046 -2.77 
0.114888 1.471 -2.79 
0.127445 1.48155 -2.81 
0.140218 1.49262 -2.831 
0.153166 1.50369 -2.852 
0.166347 1.51529 -2.874 
0.179651 1.52636 -2.895 
0.191738 1.52636 -2.895 
0.203826 1.52636 -2.895 
0.215913 1.52636 -2.895 
0.228001 1.52636 -2.895 
0.240089 1.52636 -2.895 
0.250347 1.51529 -2.874 
0.262347 1.51529 -2.874 
0.272247 1.50369 -2.852 
0.284155 1.50369 -2.852 
0.296063 1.50369 -2.852 
0.305704 1.49262 -2.831 
0.317524 1.49262 -2.831 
0.329345 1.49262 -2.831 
0.341165 1.49262 -2.831 
0.352986 1.49262 -2.831 
0.364806 1.49262 -2.831 
0.376626 1.49262 -2.831 
0.388447 1.49262 -2.831 
0.400267 1.49262 -2.831 
0.412088 1.49262 -2.831 
0.423908 1.49262 -2.831 
0.432496 1.48155 -2.81 
0.444229 1.48155 -2.81 
0.452717 1.471 -2.79 
0.461037 1.46046 -2.77 
0.469191 1.44991 -2.75 
0.480673 1.44991 -2.75 
0.488576 1.43937 -2.73 
0.496495 1.42935 -2.711 
0.504255 1.41933 -2.692 
0.511857 1.40931 -2.673 
0.5193 1.3993 -2.654 
0.530381 1.3993 -2.654 
0.53779 1.38981 -2.636 
0.545049 1.38032 -2.618 
0.552158 1.37083 -2.6 
0.563014 1.37083 -2.6 
0.569897 1.36134 -2.582 
0.580677 1.36134 -2.582 
0.591458 1.36134 -2.582 
0.606437 1.37083 -2.6 
0.617293 1.37083 -2.6 
0.6238 1.36134 -2.582 
0.639005 1.37083 -2.6 
0.649861 1.37083 -2.6 
0.660717 1.37083 -2.6 
0.666923 1.36134 -2.582 
0.677704 1.36134 -2.582 
0.688485 1.36134 -2.582 
0.694662 1.35237 -2.565 
0.705372 1.35237 -2.565 
0.711335 1.34341 -2.548 
0.717157 1.33445 -2.531 
0.727725 1.33445 -2.531 
0.738293 1.33445 -2.531 
0.744127 1.32601 -2.515 
0.749527 1.31705 -2.498 
0.759957 1.31705 -2.498 
0.765453 1.30861 -2.482 
0.770815 1.30018 -2.466 
0.781111 1.30018 -2.466 
0.796542 1.30861 -2.482 
0.806906 1.30861 -2.482 
0.817269 1.30861 -2.482 
0.827632 1.30861 -2.482 
0.837995 1.30861 -2.482 
0.910538 1.30861 -2.482 
0.937268 1.31705 -2.498 
0.941628 1.30861 -2.482 
0.951991 1.30861 -2.482 
0.966447 1.30018 -2.466 
0.983081 1.30861 -2.482 
0.98704 1.30018 -2.466 
0.997336 1.30018 -2.466 
1.00763 1.30018 -2.466 
1.02453 1.30861 -2.482 
1.0349 1.30861 -2.482 
1.052 1.31705 -2.498 
1.06966 1.32601 -2.515 
1.08703 1.33445 -2.531 
1.0976 1.33445 -2.531 
1.11561 1.34341 -2.548 
1.13376 1.35237 -2.565 
1.14447 1.35237 -2.565 
1.16284 1.36134 -2.582 
1.17362 1.36134 -2.582 
1.19266 1.37083 -2.6 
1.20351 1.37083 -2.6 
1.21437 1.37083 -2.6 
1.22523 1.37083 -2.6 
1.23608 1.37083 -2.6 
1.24694 1.37083 -2.6 
1.25779 1.37083 -2.6 
1.26865 1.37083 -2.6 
1.27951 1.37083 -2.6 
1.29929 1.38032 -2.618 
1.31023 1.38032 -2.618 
1.33024 1.38981 -2.636 
1.34125 1.38981 -2.636 
1.36149 1.3993 -2.654 
1.37257 1.3993 -2.654 
1.39355 1.40931 -2.673 
1.40472 1.40931 -2.673 
1.42594 1.41933 -2.692 
1.43718 1.41933 -2.692 
1.44842 1.41933 -2.692 
1.45966 1.41933 -2.692 
1.4709 1.41933 -2.692 
1.48214 1.41933 -2.692 
1.49338 1.41933 -2.692 
1.50462 1.41933 -2.692 
1.49446 1.3993 -2.654 
1.50554 1.3993 -2.654 
1.49605 1.38032 -2.618 
1.48626 1.36134 -2.582 
1.47733 1.34341 -2.548 
1.4687 1.32601 -2.515 
1.45038 1.30018 -2.466 
1.4512 1.29174 -2.45 
1.44294 1.2754 -2.419 
1.43502 1.25958 -2.389 
1.43592 1.25167 -2.374 
1.4367 1.24376 -2.359 
1.43796 1.23638 -2.345 
1.44775 1.23638 -2.345 
1.44884 1.229 -2.331 
1.45857 1.229 -2.331 
1.46831 1.229 -2.331 
1.47804 1.229 -2.331 
1.49671 1.23638 -2.345 
1.5065 1.23638 -2.345 
1.53504 1.25167 -2.374 
1.55472 1.25958 -2.389 
1.58434 1.2754 -2.419 
1.60433 1.2833 -2.434 
1.63572 1.30018 -2.466 
1.64601 1.30018 -2.466 
1.66705 1.30861 -2.482 
1.67742 1.30861 -2.482 
1.69866 1.31705 -2.498 
1.69814 1.30861 -2.482 
1.70851 1.30861 -2.482 
1.69671 1.29174 -2.45 
1.69579 1.2833 -2.434 
1.68493 1.26749 -2.404 
1.68439 1.25958 -2.389 
1.68373 1.25167 -2.374 
1.68294 1.24376 -2.359 
1.68274 1.23638 -2.345 
1.69253 1.23638 -2.345 
1.69216 1.229 -2.331 
1.70189 1.229 -2.331 
1.71163 1.229 -2.331 
1.72136 1.229 -2.331 
1.73109 1.229 -2.331 
1.75128 1.23638 -2.345 
1.75056 1.229 -2.331 
1.77086 1.23638 -2.345 
1.78065 1.23638 -2.345 
1.79044 1.23638 -2.345 
1.80024 1.23638 -2.345 
1.81003 1.23638 -2.345 
1.81982 1.23638 -2.345 
1.82961 1.23638 -2.345 
1.8394 1.23638 -2.345 
1.84919 1.23638 -2.345 
1.85898 1.23638 -2.345 
1.86877 1.23638 -2.345 
1.87856 1.23638 -2.345 
1.88836 1.23638 -2.345 
1.89815 1.23638 -2.345 
1.90794 1.23638 -2.345 
1.90628 1.229 -2.331 
1.92752 1.23638 -2.345 
1.93731 1.23638 -2.345 
1.9471 1.23638 -2.345 
1.96858 1.24376 -2.359 
1.99101 1.25167 -2.374 
2.01356 1.25958 -2.389 
2.04895 1.2754 -2.419 
2.08544 1.29174 -2.45 
2.10935 1.30018 -2.466 
2.14715 1.31705 -2.498 
2.17227 1.32601 -2.515 
2.19665 1.33445 -2.531 
2.20722 1.33445 -2.531 
2.23269 1.34341 -2.548 
2.24332 1.34341 -2.548 
2.25396 1.34341 -2.548 
2.2646 1.34341 -2.548 
2.27524 1.34341 -2.548 
2.27063 1.33445 -2.531 
2.26678 1.32601 -2.515 
2.2474 1.30861 -2.482 
2.2432 1.30018 -2.466 
2.22426 1.2833 -2.434 
2.20688 1.26749 -2.404 
2.18925 1.25167 -2.374 
2.1723 1.23638 -2.345 
2.15511 1.22109 -2.316 
2.13954 1.20685 -2.289 
2.13595 1.19947 -2.275 
2.11999 1.18524 -2.248 
2.11706 1.17838 -2.235 
2.11403 1.17153 -2.222 
2.11088 1.16467 -2.209 
2.09611 1.15149 -2.184 
2.10523 1.15149 -2.184 
2.10273 1.14517 -2.172 
2.09916 1.13831 -2.159 
2.10817 1.13831 -2.159 
2.10542 1.13199 -2.147 
2.11439 1.13199 -2.147 
2.11148 1.12566 -2.135 
2.1204 1.12566 -2.135 
2.12931 1.12566 -2.135 
2.13823 1.12566 -2.135 
2.13507 1.11933 -2.123 
2.14394 1.11933 -2.123 
-2.40035 1.30662 -2.498 
-2.37461 1.29825 -2.482 
-2.33376 1.28151 -2.45 
-2.30836 1.27314 -2.434 
-2.28403 1.26529 -2.419 
-2.25983 1.25745 -2.404 
-2.22172 1.24176 -2.374 
-2.19783 1.23391 -2.359 
-2.175 1.22659 -2.345 
-2.13843 1.21142 -2.316 
-2.11589 1.2041 -2.302 
-2.10628 1.2041 -2.302 
-2.09667 1.2041 -2.302 
-2.08706 1.2041 -2.302 
-2.07745 1.2041 -2.302 
-2.06783 1.2041 -2.302 
-2.05822 1.2041 -2.302 
-2.04861 1.2041 -2.302 
-2.039 1.2041 -2.302 
-2.02939 1.2041 -2.302 
-2.01977 1.2041 -2.302 
-2.01016 1.2041 -2.302 
-2.00055 1.2041 -2.302 
-1.99094 1.2041 -2.302 
-1.98133 1.2041 -2.302 
-1.97172 1.2041 -2.302 
-1.9621 1.2041 -2.302 
-1.95249 1.2041 -2.302 
-1.94288 1.2041 -2.302 
-1.93327 1.2041 -2.302 
-1.92366 1.2041 -2.302 
-1.91405 1.2041 -2.302 
-1.90443 1.2041 -2.302 
-1.89482 1.2041 -2.302 
-1.88521 1.2041 -2.302 
-1.8756 1.2041 -2.302 
-1.86599 1.2041 -2.302 
-1.85638 1.2041 -2.302 
-1.84676 1.2041 -2.302 
-1.83715 1.2041 -2.302 
-1.83866 1.21142 -2.316 
-1.82899 1.21142 -2.316 
-1.81932 1.21142 -2.316 
-1.80965 1.21142 -2.316 
-1.79998 1.21142 -2.316 
-1.79031 1.21142 -2.316 
-1.78064 1.21142 -2.316 
-1.77097 1.21142 -2.316 
-1.76129 1.21142 -2.316 
-1.75162 1.21142 -2.316 
-1.74195 1.21142 -2.316 
-1.7435 1.21927 -2.331 
-1.73377 1.21927 -2.331 
-1.72404 1.21927 -2.331 
-1.71431 1.21927 -2.331 
-1.70457 1.21927 -2.331 
-1.69484 1.21927 -2.331 
-1.68511 1.21927 -2.331 
-1.67537 1.21927 -2.331 
-1.66564 1.21927 -2.331 
-1.64525 1.21142 -2.316 
-1.63558 1.21142 -2.316 
-1.63644 1.21927 -2.331 
-1.62671 1.21927 -2.331 
-1.60657 1.21142 -2.316 
-1.5969 1.21142 -2.316 
-1.58723 1.21142 -2.316 
-1.57756 1.21142 -2.316 
-1.56789 1.21142 -2.316 
-1.56831 1.21927 -2.331 
-1.55858 1.21927 -2.331 
-1.54885 1.21927 -2.331 
-1.53912 1.21927 -2.331 
-1.52938 1.21927 -2.331 
-1.51965 1.21927 -2.331 
-1.50992 1.21927 -2.331 
-1.50019 1.21927 -2.331 
-1.49045 1.21927 -2.331 
-1.48072 1.21927 -2.331 
-1.47099 1.21927 -2.331 
-1.46125 1.21927 -2.331 
-1.45152 1.21927 -2.331 
-1.43251 1.21142 -2.316 
-1.42284 1.21142 -2.316 
-1.41317 1.21142 -2.316 
-1.4035 1.21142 -2.316 
-1.39383 1.21142 -2.316 
-1.39312 1.21927 -2.331 
-1.38339 1.21927 -2.331 
-1.37366 1.21927 -2.331 
-1.37212 1.22659 -2.345 
-1.36233 1.22659 -2.345 
-1.36061 1.23391 -2.359 
-1.35935 1.24176 -2.374 
-1.34944 1.24176 -2.374 
-1.33953 1.24176 -2.374 
-1.33801 1.2496 -2.389 
-1.32804 1.2496 -2.389 
-1.32634 1.25745 -2.404 
-1.3163 1.25745 -2.404 
-1.29811 1.2496 -2.389 
-1.28814 1.2496 -2.389 
-1.27816 1.2496 -2.389 
-1.26819 1.2496 -2.389 
-1.25821 1.2496 -2.389 
-1.24824 1.2496 -2.389 
-1.23826 1.2496 -2.389 
-1.22829 1.2496 -2.389 
-1.21832 1.2496 -2.389 
-1.20834 1.2496 -2.389 
-1.19837 1.2496 -2.389 
-1.18839 1.2496 -2.389 
-1.17842 1.2496 -2.389 
-1.16844 1.2496 -2.389 
-1.15847 1.2496 -2.389 
-1.14849 1.2496 -2.389 
-1.13852 1.2496 -2.389 
-1.12854 1.2496 -2.389 
-1.12559 1.25745 -2.404 
-1.11555 1.25745 -2.404 
-1.11241 1.26529 -2.419 
-1.10231 1.26529 -2.419 
-1.09221 1.26529 -2.419 
-1.08211 1.26529 -2.419 
-1.07201 1.26529 -2.419 
-1.06191 1.26529 -2.419 
-1.05181 1.26529 -2.419 
-1.04171 1.26529 -2.419 
-1.03801 1.27314 -2.434 
-1.02784 1.27314 -2.434 
-1.01768 1.27314 -2.434 
-1.00752 1.27314 -2.434 
-0.997356 1.27314 -2.434 
-0.987193 1.27314 -2.434 
-0.97703 1.27314 -2.434 
-0.966867 1.27314 -2.434 
-0.962993 1.28151 -2.45 
-0.952764 1.28151 -2.45 
-0.94869 1.28988 -2.466 
-0.938393 1.28988 -2.466 
-0.928097 1.28988 -2.466 
-0.9178 1.28988 -2.466 
-0.913392 1.29825 -2.482 
-0.903029 1.29825 -2.482 
-0.89842 1.30662 -2.498 
-0.894033 1.31551 -2.515 
-0.883532 1.31551 -2.515 
-0.873031 1.31551 -2.515 
-0.86253 1.31551 -2.515 
-0.852029 1.31551 -2.515 
-0.841528 1.31551 -2.515 
-0.831027 1.31551 -2.515 
-0.820526 1.31551 -2.515 
-0.810025 1.31551 -2.515 
-0.799524 1.31551 -2.515 
-0.789023 1.31551 -2.515 
-0.778522 1.31551 -2.515 
-0.768021 1.31551 -2.515 
-0.75752 1.31551 -2.515 
-0.747019 1.31551 -2.515 
-0.736518 1.31551 -2.515 
-0.730635 1.32388 -2.531 
-0.720068 1.32388 -2.531 
-0.7095 1.32388 -2.531 
-0.698932 1.32388 -2.531 
-0.688364 1.32388 -2.531 
-0.677796 1.32388 -2.531 
-0.667228 1.32388 -2.531 
-0.656661 1.32388 -2.531 
-0.646093 1.32388 -2.531 
-0.635525 1.32388 -2.531 
-0.624957 1.32388 -2.531 
-0.618516 1.33277 -2.548 
-0.607877 1.33277 -2.548 
-0.597238 1.33277 -2.548 
-0.582686 1.32388 -2.531 
-0.572118 1.32388 -2.531 
-0.56155 1.32388 -2.531 
-0.554683 1.33277 -2.548 
-0.544044 1.33277 -2.548 
-0.533405 1.33277 -2.548 
-0.522767 1.33277 -2.548 
-0.515545 1.34166 -2.565 
-0.504835 1.34166 -2.565 
-0.4974 1.35055 -2.582 
-0.490012 1.35997 -2.6 
-0.479156 1.35997 -2.6 
-0.4683 1.35997 -2.6 
-0.460611 1.36938 -2.618 
-0.44968 1.36938 -2.618 
-0.441765 1.3788 -2.636 
-0.430759 1.3788 -2.636 
-0.422619 1.38822 -2.654 
-0.411538 1.38822 -2.654 
-0.403323 1.39815 -2.673 
-0.392162 1.39815 -2.673 
-0.38371 1.40809 -2.692 
-0.37247 1.40809 -2.692 
-0.363779 1.41803 -2.711 
-0.35246 1.41803 -2.711 
-0.343531 1.42797 -2.73 
-0.332133 1.42797 -2.73 
-0.323084 1.43843 -2.75 
-0.311601 1.43843 -2.75 
-0.302302 1.44889 -2.77 
-0.290736 1.44889 -2.77 
-0.27917 1.44889 -2.77 
-0.269537 1.45935 -2.79 
-0.257888 1.45935 -2.79 
-0.246238 1.45935 -2.79 
-0.234589 1.45935 -2.79 
-0.22294 1.45935 -2.79 
-0.209776 1.44889 -2.77 
-0.19821 1.44889 -2.77 
-0.186644 1.44889 -2.77 
-0.173815 1.43843 -2.75 
-0.162332 1.43843 -2.75 
-0.149753 1.42797 -2.73 
-0.138354 1.42797 -2.73 
-0.126956 1.42797 -2.73 
-0.115557 1.42797 -2.73 
-0.104158 1.42797 -2.73 
-0.0927594 1.42797 -2.73 
-0.0813606 1.42797 -2.73 
-0.0699619 1.42797 -2.73 
-0.0585632 1.42797 -2.73 
-0.0471645 1.42797 -2.73 
-0.0357657 1.42797 -2.73 
-0.024367 1.42797 -2.73 
-0.0129683 1.42797 -2.73 
-0.00156955 1.42797 -2.73 
0.00982917 1.42797 -2.73 
0.0212279 1.42797 -2.73 
0.0328657 1.43843 -2.75 
0.0443479 1.43843 -2.75 
0.0558301 1.43843 -2.75 
0.0678019 1.44889 -2.77 
0.0793676 1.44889 -2.77 
0.0915899 1.45935 -2.79 
0.103979 1.46981 -2.81 
0.116577 1.4808 -2.831 
0.12935 1.49178 -2.852 
0.142347 1.50329 -2.874 
0.15671 1.5263 -2.918 
0.168894 1.5263 -2.918 
0.182443 1.53781 -2.94 
0.196242 1.54984 -2.963 
0.208613 1.54984 -2.963 
0.2227 1.56187 -2.986 
0.233357 1.54984 -2.963 
0.245728 1.54984 -2.963 
0.256096 1.53781 -2.94 
0.266364 1.5263 -2.918 
0.278547 1.5263 -2.918 
0.288439 1.51427 -2.895 
0.300527 1.51427 -2.895 
0.310347 1.50329 -2.874 
0.322347 1.50329 -2.874 
0.334347 1.50329 -2.874 
0.343696 1.49178 -2.852 
0.358347 1.50329 -2.874 
0.370347 1.50329 -2.874 
0.382347 1.50329 -2.874 
0.391328 1.49178 -2.852 
0.403236 1.49178 -2.852 
0.415145 1.49178 -2.852 
0.427053 1.49178 -2.852 
0.435729 1.4808 -2.831 
0.447549 1.4808 -2.831 
0.455962 1.46981 -2.81 
0.464366 1.45935 -2.79 
0.476015 1.45935 -2.79 
0.484169 1.44889 -2.77 
0.492155 1.43843 -2.75 
0.499974 1.42797 -2.73 
0.507814 1.41803 -2.711 
0.515495 1.40809 -2.692 
0.523018 1.39815 -2.673 
0.534178 1.39815 -2.673 
0.545339 1.39815 -2.673 
0.552544 1.38822 -2.654 
0.559803 1.3788 -2.636 
0.570809 1.3788 -2.636 
0.577842 1.36938 -2.618 
0.588773 1.36938 -2.618 
0.599705 1.36938 -2.618 
0.610636 1.36938 -2.618 
0.621567 1.36938 -2.618 
0.632498 1.36938 -2.618 
0.643429 1.36938 -2.618 
0.65436 1.36938 -2.618 
0.665291 1.36938 -2.618 
0.671573 1.35997 -2.6 
0.682429 1.35997 -2.6 
0.693285 1.35997 -2.6 
0.699266 1.35055 -2.582 
0.710047 1.35055 -2.582 
0.716081 1.34166 -2.565 
0.721974 1.33277 -2.548 
0.727725 1.32388 -2.531 
0.738293 1.32388 -2.531 
0.744127 1.31551 -2.515 
0.754628 1.31551 -2.515 
0.765129 1.31551 -2.515 
0.770387 1.30662 -2.498 
0.775816 1.29825 -2.482 
0.786179 1.29825 -2.482 
0.796542 1.29825 -2.482 
0.806906 1.29825 -2.482 
0.817269 1.29825 -2.482 
0.827632 1.29825 -2.482 
0.837995 1.29825 -2.482 
0.853827 1.30662 -2.498 
0.864257 1.30662 -2.498 
0.869085 1.29825 -2.482 
0.879448 1.29825 -2.482 
0.889811 1.29825 -2.482 
0.900175 1.29825 -2.482 
0.910538 1.29825 -2.482 
0.926838 1.30662 -2.498 
0.937268 1.30662 -2.498 
0.947698 1.30662 -2.498 
0.951991 1.29825 -2.482 
0.968558 1.30662 -2.498 
0.978988 1.30662 -2.498 
0.989418 1.30662 -2.498 
0.999848 1.30662 -2.498 
1.01028 1.30662 -2.498 
1.02071 1.30662 -2.498 
1.03816 1.31551 -2.515 
1.04866 1.31551 -2.515 
1.0659 1.32388 -2.531 
1.08369 1.33277 -2.548 
1.10163 1.34166 -2.565 
1.11234 1.34166 -2.565 
1.1305 1.35055 -2.582 
1.14923 1.35997 -2.6 
1.16009 1.35997 -2.6 
1.17905 1.36938 -2.618 
1.18998 1.36938 -2.618 
1.20091 1.36938 -2.618 
1.21185 1.36938 -2.618 
1.22278 1.36938 -2.618 
1.23371 1.36938 -2.618 
1.2532 1.3788 -2.636 
1.2642 1.3788 -2.636 
1.2665 1.36938 -2.618 
1.27743 1.36938 -2.618 
1.28836 1.36938 -2.618 
1.29929 1.36938 -2.618 
1.31923 1.3788 -2.636 
1.33024 1.3788 -2.636 
1.34125 1.3788 -2.636 
1.35225 1.3788 -2.636 
1.37257 1.38822 -2.654 
1.39355 1.39815 -2.673 
1.40472 1.39815 -2.673 
1.41588 1.39815 -2.673 
1.43718 1.40809 -2.692 
1.44842 1.40809 -2.692 
1.45966 1.40809 -2.692 
1.4709 1.40809 -2.692 
1.48214 1.40809 -2.692 
1.49338 1.40809 -2.692 
1.50462 1.40809 -2.692 
1.50516 1.39815 -2.673 
1.50554 1.38822 -2.654 
1.50634 1.3788 -2.636 
1.49662 1.35997 -2.6 
1.49704 1.35055 -2.582 
1.47804 1.32388 -2.531 
1.4692 1.30662 -2.498 
1.47015 1.29825 -2.482 
1.46143 1.28151 -2.45 
1.45304 1.26529 -2.419 
1.45406 1.25745 -2.404 
1.45497 1.2496 -2.389 
1.45574 1.24176 -2.374 
1.45639 1.23391 -2.359 
1.46624 1.23391 -2.359 
1.47609 1.23391 -2.359 
1.48594 1.23391 -2.359 
1.5053 1.24176 -2.374 
1.52479 1.2496 -2.389 
1.53477 1.2496 -2.389 
1.56414 1.26529 -2.419 
1.57424 1.26529 -2.419 
1.60464 1.28151 -2.45 
1.62542 1.28988 -2.466 
1.64633 1.29825 -2.482 
1.66737 1.30662 -2.498 
1.6778 1.30662 -2.498 
1.68823 1.30662 -2.498 
1.71022 1.31551 -2.515 
1.70909 1.30662 -2.498 
1.70851 1.29825 -2.482 
1.70779 1.28988 -2.466 
1.70694 1.28151 -2.45 
1.70595 1.27314 -2.434 
1.70554 1.26529 -2.419 
1.705 1.25745 -2.404 
1.70434 1.2496 -2.389 
1.70355 1.24176 -2.374 
1.71346 1.24176 -2.374 
1.72338 1.24176 -2.374 
1.73329 1.24176 -2.374 
1.73219 1.23391 -2.359 
1.74204 1.23391 -2.359 
1.75188 1.23391 -2.359 
1.76173 1.23391 -2.359 
1.76107 1.22659 -2.345 
1.77086 1.22659 -2.345 
1.78065 1.22659 -2.345 
1.79044 1.22659 -2.345 
1.78949 1.21927 -2.331 
1.79922 1.21927 -2.331 
1.80895 1.21927 -2.331 
1.81869 1.21927 -2.331 
1.82842 1.21927 -2.331 
1.83815 1.21927 -2.331 
1.84788 1.21927 -2.331 
1.85762 1.21927 -2.331 
1.86735 1.21927 -2.331 
1.87708 1.21927 -2.331 
1.88682 1.21927 -2.331 
1.89655 1.21927 -2.331 
1.90628 1.21927 -2.331 
1.91601 1.21927 -2.331 
1.93731 1.22659 -2.345 
1.9471 1.22659 -2.345 
1.95689 1.22659 -2.345 
1.97843 1.23391 -2.359 
2.00092 1.24176 -2.374 
2.03624 1.25745 -2.404 
2.07182 1.27314 -2.434 
2.09566 1.28151 -2.45 
2.11965 1.28988 -2.466 
2.15758 1.30662 -2.498 
2.16801 1.30662 -2.498 
2.20722 1.32388 -2.531 
2.21779 1.32388 -2.531 
2.22836 1.32388 -2.531 
2.25396 1.33277 -2.548 
2.24949 1.32388 -2.531 
2.26006 1.32388 -2.531 
2.25627 1.31551 -2.515 
2.25145 1.30662 -2.498 
2.2474 1.29825 -2.482 
2.22865 1.28151 -2.45 
2.22426 1.27314 -2.434 
2.20688 1.25745 -2.404 
2.18925 1.24176 -2.374 
2.1723 1.22659 -2.345 
2.15511 1.21142 -2.316 
2.13954 1.1973 -2.289 
2.12375 1.18317 -2.262 
2.11999 1.17585 -2.248 
2.11706 1.16905 -2.235 
2.10166 1.15545 -2.209 
2.09941 1.14917 -2.197 
2.09611 1.14237 -2.184 
2.09366 1.1361 -2.172 
2.10273 1.1361 -2.172 
2.09916 1.1293 -2.159 
2.09646 1.12302 -2.147 
2.10542 1.12302 -2.147 
2.10257 1.11674 -2.135 
2.09961 1.11047 -2.123 
2.10848 1.11047 -2.123 
2.11734 1.11047 -2.123 
2.12621 1.11047 -2.123 
2.12401 1.10471 -2.112 
2.13283 1.10471 -2.112 
-2.40035 1.29619 -2.498 
-2.37461 1.28788 -2.482 
-2.33376 1.27128 -2.45 
-2.30836 1.26298 -2.434 
-2.28403 1.25519 -2.419 
-2.24573 1.23963 -2.389 
-2.22172 1.23184 -2.374 
-2.18479 1.2168 -2.345 
-2.16201 1.20953 -2.331 
-2.13843 1.20175 -2.316 
-2.11589 1.19448 -2.302 
-2.10628 1.19448 -2.302 
-2.09667 1.19448 -2.302 
-2.08706 1.19448 -2.302 
-2.07745 1.19448 -2.302 
-2.06783 1.19448 -2.302 
-2.05822 1.19448 -2.302 
-2.04861 1.19448 -2.302 
-2.039 1.19448 -2.302 
-2.02939 1.19448 -2.302 
-2.01977 1.19448 -2.302 
-2.01016 1.19448 -2.302 
-2.00055 1.19448 -2.302 
-1.99094 1.19448 -2.302 
-1.98133 1.19448 -2.302 
-1.97172 1.19448 -2.302 
-1.9621 1.19448 -2.302 
-1.95249 1.19448 -2.302 
-1.94288 1.19448 -2.302 
-1.93327 1.19448 -2.302 
-1.92366 1.19448 -2.302 
-1.91405 1.19448 -2.302 
-1.90443 1.19448 -2.302 
-1.89482 1.19448 -2.302 
-1.88521 1.19448 -2.302 
-1.8756 1.19448 -2.302 
-1.86599 1.19448 -2.302 
-1.85638 1.19448 -2.302 
-1.84676 1.19448 -2.302 
-1.84833 1.20175 -2.316 
-1.83866 1.20175 -2.316 
-1.82899 1.20175 -2.316 
-1.81932 1.20175 -2.316 
-1.80965 1.20175 -2.316 
-1.79998 1.20175 -2.316 
-1.79031 1.20175 -2.316 
-1.78064 1.20175 -2.316 
-1.77097 1.20175 -2.316 
-1.76129 1.20175 -2.316 
-1.75162 1.20175 -2.316 
-1.74195 1.20175 -2.316 
-1.73228 1.20175 -2.316 
-1.72261 1.20175 -2.316 
-1.72404 1.20953 -2.331 
-1.71431 1.20953 -2.331 
-1.70457 1.20953 -2.331 
-1.69484 1.20953 -2.331 
-1.68511 1.20953 -2.331 
-1.67537 1.20953 -2.331 
-1.66564 1.20953 -2.331 
-1.64525 1.20175 -2.316 
-1.63558 1.20175 -2.316 
-1.62591 1.20175 -2.316 
-1.61624 1.20175 -2.316 
-1.60657 1.20175 -2.316 
-1.5969 1.20175 -2.316 
-1.58723 1.20175 -2.316 
-1.57756 1.20175 -2.316 
-1.56789 1.20175 -2.316 
-1.55822 1.20175 -2.316 
-1.54855 1.20175 -2.316 
-1.53888 1.20175 -2.316 
-1.53912 1.20953 -2.331 
-1.52938 1.20953 -2.331 
-1.51965 1.20953 -2.331 
-1.50992 1.20953 -2.331 
-1.50019 1.20953 -2.331 
-1.49045 1.20953 -2.331 
-1.48072 1.20953 -2.331 
-1.47099 1.20953 -2.331 
-1.46125 1.20953 -2.331 
-1.45152 1.20953 -2.331 
-1.43251 1.20175 -2.316 
-1.42284 1.20175 -2.316 
-1.41317 1.20175 -2.316 
-1.4035 1.20175 -2.316 
-1.40286 1.20953 -2.331 
-1.39312 1.20953 -2.331 
-1.38339 1.20953 -2.331 
-1.38191 1.2168 -2.345 
-1.37212 1.2168 -2.345 
-1.37046 1.22406 -2.359 
-1.36061 1.22406 -2.359 
-1.35935 1.23184 -2.374 
-1.34944 1.23184 -2.374 
-1.34799 1.23963 -2.389 
-1.33801 1.23963 -2.389 
-1.33638 1.24741 -2.404 
-1.32634 1.24741 -2.404 
-1.3163 1.24741 -2.404 
-1.30626 1.24741 -2.404 
-1.29623 1.24741 -2.404 
-1.28619 1.24741 -2.404 
-1.27615 1.24741 -2.404 
-1.26611 1.24741 -2.404 
-1.24824 1.23963 -2.389 
-1.23826 1.23963 -2.389 
-1.22829 1.23963 -2.389 
-1.21832 1.23963 -2.389 
-1.20834 1.23963 -2.389 
-1.19837 1.23963 -2.389 
-1.18839 1.23963 -2.389 
-1.17842 1.23963 -2.389 
-1.16844 1.23963 -2.389 
-1.15847 1.23963 -2.389 
-1.14849 1.23963 -2.389 
-1.13852 1.23963 -2.389 
-1.12854 1.23963 -2.389 
-1.12559 1.24741 -2.404 
-1.11555 1.24741 -2.404 
-1.10551 1.24741 -2.404 
-1.09548 1.24741 -2.404 
-1.09221 1.25519 -2.419 
-1.08211 1.25519 -2.419 
-1.07201 1.25519 -2.419 
-1.06191 1.25519 -2.419 
-1.05181 1.25519 -2.419 
-1.04171 1.25519 -2.419 
-1.03161 1.25519 -2.419 
-1.02151 1.25519 -2.419 
-1.01768 1.26298 -2.434 
-1.00752 1.26298 -2.434 
-0.997356 1.26298 -2.434 
-0.987193 1.26298 -2.434 
-0.97703 1.26298 -2.434 
-0.966867 1.26298 -2.434 
-0.962993 1.27128 -2.45 
-0.952764 1.27128 -2.45 
-0.942534 1.27128 -2.45 
-0.938393 1.27958 -2.466 
-0.928097 1.27958 -2.466 
-0.9178 1.27958 -2.466 
-0.913392 1.28788 -2.482 
-0.903029 1.28788 -2.482 
-0.89842 1.29619 -2.498 
-0.88799 1.29619 -2.498 
-0.883532 1.30501 -2.515 
-0.873031 1.30501 -2.515 
-0.86253 1.30501 -2.515 
-0.852029 1.30501 -2.515 
-0.841528 1.30501 -2.515 
-0.831027 1.30501 -2.515 
-0.820526 1.30501 -2.515 
-0.80455 1.29619 -2.498 
-0.79412 1.29619 -2.498 
-0.789023 1.30501 -2.515 
-0.778522 1.30501 -2.515 
-0.768021 1.30501 -2.515 
-0.75752 1.30501 -2.515 
-0.747019 1.30501 -2.515 
-0.736518 1.30501 -2.515 
-0.726017 1.30501 -2.515 
-0.720068 1.31331 -2.531 
-0.7095 1.31331 -2.531 
-0.698932 1.31331 -2.531 
-0.688364 1.31331 -2.531 
-0.677796 1.31331 -2.531 
-0.667228 1.31331 -2.531 
-0.656661 1.31331 -2.531 
-0.646093 1.31331 -2.531 
-0.635525 1.31331 -2.531 
-0.624957 1.31331 -2.531 
-0.614389 1.31331 -2.531 
-0.603822 1.31331 -2.531 
-0.593254 1.31331 -2.531 
-0.582686 1.31331 -2.531 
-0.572118 1.31331 -2.531 
-0.56155 1.31331 -2.531 
-0.550982 1.31331 -2.531 
-0.540415 1.31331 -2.531 
-0.533405 1.32213 -2.548 
-0.522767 1.32213 -2.548 
-0.512128 1.32213 -2.548 
-0.504835 1.33095 -2.565 
-0.494125 1.33095 -2.565 
-0.486619 1.33977 -2.582 
-0.479156 1.34911 -2.6 
-0.4683 1.34911 -2.6 
-0.460611 1.35845 -2.618 
-0.44968 1.35845 -2.618 
-0.441765 1.36779 -2.636 
-0.430759 1.36779 -2.636 
-0.422619 1.37713 -2.654 
-0.411538 1.37713 -2.654 
-0.403323 1.38699 -2.673 
-0.392162 1.38699 -2.673 
-0.38371 1.39685 -2.692 
-0.37247 1.39685 -2.692 
-0.363779 1.40671 -2.711 
-0.35246 1.40671 -2.711 
-0.343531 1.41657 -2.73 
-0.332133 1.41657 -2.73 
-0.320734 1.41657 -2.73 
-0.311601 1.42695 -2.75 
-0.302302 1.43733 -2.77 
-0.290736 1.43733 -2.77 
-0.281186 1.4477 -2.79 
-0.269537 1.4477 -2.79 
-0.257888 1.4477 -2.79 
-0.246238 1.4477 -2.79 
-0.236271 1.45808 -2.81 
-0.22294 1.4477 -2.79 
-0.211291 1.4477 -2.79 
-0.199641 1.4477 -2.79 
-0.186644 1.43733 -2.77 
-0.175079 1.43733 -2.77 
-0.162332 1.42695 -2.75 
-0.15085 1.42695 -2.75 
-0.139368 1.42695 -2.75 
-0.127886 1.42695 -2.75 
-0.115557 1.41657 -2.73 
-0.104158 1.41657 -2.73 
-0.0927594 1.41657 -2.73 
-0.0813606 1.41657 -2.73 
-0.0699619 1.41657 -2.73 
-0.0589922 1.42695 -2.75 
-0.04751 1.42695 -2.75 
-0.0360278 1.42695 -2.75 
-0.0245455 1.42695 -2.75 
-0.0130633 1.42695 -2.75 
-0.00158105 1.42695 -2.75 
0.00990118 1.42695 -2.75 
0.0213834 1.42695 -2.75 
0.0328657 1.42695 -2.75 
0.0446704 1.43733 -2.77 
0.0562362 1.43733 -2.77 
0.0682914 1.4477 -2.79 
0.0799407 1.4477 -2.79 
0.0922465 1.45808 -2.81 
0.104756 1.46898 -2.831 
0.118347 1.49129 -2.874 
0.1313 1.50219 -2.895 
0.144527 1.51412 -2.918 
0.157892 1.52554 -2.94 
0.171499 1.53747 -2.963 
0.185298 1.54941 -2.986 
0.199288 1.56134 -3.009 
0.211852 1.56134 -3.009 
0.226206 1.57379 -3.033 
0.236979 1.56134 -3.009 
0.249543 1.56134 -3.009 
0.260103 1.54941 -2.986 
0.270471 1.53747 -2.963 
0.282843 1.53747 -2.963 
0.295215 1.53747 -2.963 
0.305199 1.52554 -2.94 
0.315098 1.51412 -2.918 
0.327282 1.51412 -2.918 
0.33679 1.50219 -2.895 
0.348878 1.50219 -2.895 
0.360965 1.50219 -2.895 
0.373053 1.50219 -2.895 
0.385141 1.50219 -2.895 
0.397228 1.50219 -2.895 
0.406347 1.49129 -2.874 
0.418347 1.49129 -2.874 
0.430347 1.49129 -2.874 
0.442347 1.49129 -2.874 
0.450869 1.47987 -2.852 
0.459369 1.46898 -2.831 
0.47119 1.46898 -2.831 
0.479427 1.45808 -2.81 
0.487664 1.4477 -2.79 
0.495734 1.43733 -2.77 
0.503637 1.42695 -2.75 
0.511373 1.41657 -2.73 
0.519134 1.40671 -2.711 
0.530453 1.40671 -2.711 
0.537975 1.39685 -2.692 
0.549215 1.39685 -2.692 
0.5565 1.38699 -2.673 
0.567661 1.38699 -2.673 
0.574707 1.37713 -2.654 
0.585788 1.37713 -2.654 
0.59687 1.37713 -2.654 
0.607951 1.37713 -2.654 
0.614834 1.36779 -2.636 
0.62584 1.36779 -2.636 
0.636847 1.36779 -2.636 
0.647853 1.36779 -2.636 
0.658859 1.36779 -2.636 
0.669865 1.36779 -2.636 
0.676222 1.35845 -2.618 
0.687153 1.35845 -2.618 
0.693285 1.34911 -2.6 
0.704141 1.34911 -2.6 
0.710047 1.33977 -2.582 
0.720827 1.33977 -2.582 
0.721974 1.32213 -2.548 
0.732613 1.32213 -2.548 
0.743252 1.32213 -2.548 
0.748861 1.31331 -2.531 
0.754628 1.30501 -2.515 
0.765129 1.30501 -2.515 
0.770387 1.29619 -2.498 
0.780817 1.29619 -2.498 
0.791247 1.29619 -2.498 
0.801677 1.29619 -2.498 
0.812107 1.29619 -2.498 
0.822537 1.29619 -2.498 
0.832967 1.29619 -2.498 
0.843397 1.29619 -2.498 
0.853827 1.29619 -2.498 
0.864257 1.29619 -2.498 
0.869085 1.28788 -2.482 
0.879448 1.28788 -2.482 
0.889811 1.28788 -2.482 
0.900175 1.28788 -2.482 
0.910538 1.28788 -2.482 
0.926838 1.29619 -2.498 
0.937268 1.29619 -2.498 
0.947698 1.29619 -2.498 
0.958128 1.29619 -2.498 
0.975149 1.30501 -2.515 
0.98565 1.30501 -2.515 
0.996151 1.30501 -2.515 
1.00665 1.30501 -2.515 
1.02362 1.31331 -2.531 
1.03419 1.31331 -2.531 
1.05178 1.32213 -2.548 
1.06242 1.32213 -2.548 
1.08021 1.33095 -2.565 
1.09815 1.33977 -2.582 
1.10894 1.33977 -2.582 
1.12752 1.34911 -2.6 
1.14626 1.35845 -2.618 
1.15719 1.35845 -2.618 
1.17615 1.36779 -2.636 
1.18716 1.36779 -2.636 
1.20635 1.37713 -2.654 
1.21743 1.37713 -2.654 
1.22851 1.37713 -2.654 
1.23959 1.37713 -2.654 
1.25067 1.37713 -2.654 
1.26175 1.37713 -2.654 
1.27284 1.37713 -2.654 
1.27521 1.36779 -2.636 
1.28621 1.36779 -2.636 
1.29722 1.36779 -2.636 
1.30823 1.36779 -2.636 
1.31923 1.36779 -2.636 
1.33932 1.37713 -2.654 
1.34125 1.36779 -2.636 
1.36149 1.37713 -2.654 
1.38239 1.38699 -2.673 
1.39355 1.38699 -2.673 
1.40472 1.38699 -2.673 
1.41588 1.38699 -2.673 
1.43718 1.39685 -2.692 
1.44842 1.39685 -2.692 
1.45966 1.39685 -2.692 
1.4709 1.39685 -2.692 
1.48214 1.39685 -2.692 
1.49338 1.39685 -2.692 
1.50462 1.39685 -2.692 
1.50516 1.38699 -2.673 
1.51632 1.38699 -2.673 
1.50634 1.36779 -2.636 
1.50698 1.35845 -2.618 
1.50748 1.34911 -2.6 
1.4979 1.33095 -2.565 
1.49861 1.32213 -2.548 
1.47963 1.29619 -2.498 
1.48052 1.28788 -2.482 
1.48127 1.27958 -2.466 
1.47221 1.26298 -2.434 
1.47324 1.25519 -2.419 
1.47414 1.24741 -2.404 
1.48418 1.24741 -2.404 
1.49421 1.24741 -2.404 
1.50425 1.24741 -2.404 
1.51429 1.24741 -2.404 
1.53384 1.25519 -2.419 
1.55351 1.26298 -2.434 
1.56367 1.26298 -2.434 
1.59453 1.27958 -2.466 
1.61524 1.28788 -2.482 
1.6256 1.28788 -2.482 
1.64651 1.29619 -2.498 
1.67883 1.31331 -2.531 
1.6894 1.31331 -2.531 
1.69997 1.31331 -2.531 
1.71053 1.31331 -2.531 
1.7211 1.31331 -2.531 
1.73167 1.31331 -2.531 
1.73122 1.30501 -2.515 
1.72995 1.29619 -2.498 
1.72923 1.28788 -2.482 
1.72838 1.27958 -2.466 
1.7274 1.27128 -2.45 
1.72628 1.26298 -2.434 
1.72574 1.25519 -2.419 
1.72508 1.24741 -2.404 
1.73512 1.24741 -2.404 
1.74515 1.24741 -2.404 
1.75519 1.24741 -2.404 
1.75421 1.23963 -2.389 
1.76419 1.23963 -2.389 
1.76302 1.23184 -2.374 
1.76173 1.22406 -2.359 
1.77158 1.22406 -2.359 
1.78143 1.22406 -2.359 
1.79128 1.22406 -2.359 
1.79044 1.2168 -2.345 
1.78949 1.20953 -2.331 
1.79922 1.20953 -2.331 
1.80895 1.20953 -2.331 
1.81869 1.20953 -2.331 
1.82842 1.20953 -2.331 
1.83815 1.20953 -2.331 
1.84788 1.20953 -2.331 
1.85762 1.20953 -2.331 
1.86735 1.20953 -2.331 
1.87708 1.20953 -2.331 
1.88682 1.20953 -2.331 
1.89655 1.20953 -2.331 
1.90628 1.20953 -2.331 
1.91601 1.20953 -2.331 
1.92575 1.20953 -2.331 
1.9471 1.2168 -2.345 
1.95689 1.2168 -2.345 
1.97843 1.22406 -2.359 
2.00092 1.23184 -2.374 
2.02354 1.23963 -2.389 
2.05905 1.25519 -2.419 
2.09566 1.27128 -2.45 
2.10589 1.27128 -2.45 
2.12994 1.27958 -2.466 
2.15413 1.28788 -2.482 
2.17844 1.29619 -2.498 
2.18887 1.29619 -2.498 
2.1993 1.29619 -2.498 
2.22477 1.30501 -2.515 
2.23527 1.30501 -2.515 
2.24577 1.30501 -2.515 
2.24102 1.29619 -2.498 
2.25145 1.29619 -2.498 
2.23291 1.27958 -2.466 
2.2141 1.26298 -2.434 
2.21055 1.25519 -2.419 
2.19311 1.23963 -2.389 
2.17542 1.22406 -2.359 
2.15933 1.20953 -2.331 
2.15511 1.20175 -2.316 
2.13954 1.18774 -2.289 
2.12375 1.17373 -2.262 
2.11999 1.16646 -2.248 
2.10475 1.15297 -2.222 
2.10166 1.14623 -2.209 
2.09941 1.14 -2.197 
2.09611 1.13326 -2.184 
2.09366 1.12703 -2.172 
2.09015 1.12028 -2.159 
2.08749 1.11406 -2.147 
2.09646 1.11406 -2.147 
2.09365 1.10783 -2.135 
2.09075 1.1016 -2.123 
2.08874 1.0959 -2.112 
2.09755 1.0959 -2.112 
2.0944 1.08967 -2.1 
2.10317 1.08967 -2.1 
2.11194 1.08967 -2.1 
2.1096 1.08396 -2.089 
-2.42718 1.29451 -2.515 
-2.40035 1.28576 -2.498 
-2.3593 1.26929 -2.466 
-2.33376 1.26105 -2.45 
-2.30836 1.25282 -2.434 
-2.28403 1.24509 -2.419 
-2.24573 1.22965 -2.389 
-2.22172 1.22193 -2.374 
-2.18479 1.20701 -2.345 
-2.16201 1.1998 -2.331 
-2.13843 1.19208 -2.316 
-2.11589 1.18487 -2.302 
-2.10628 1.18487 -2.302 
-2.09667 1.18487 -2.302 
-2.08706 1.18487 -2.302 
-2.07745 1.18487 -2.302 
-2.06783 1.18487 -2.302 
-2.05822 1.18487 -2.302 
-2.04861 1.18487 -2.302 
-2.039 1.18487 -2.302 
-2.02939 1.18487 -2.302 
-2.01977 1.18487 -2.302 
-2.01016 1.18487 -2.302 
-2.00055 1.18487 -2.302 
-1.99094 1.18487 -2.302 
-1.98133 1.18487 -2.302 
-1.97172 1.18487 -2.302 
-1.9621 1.18487 -2.302 
-1.95249 1.18487 -2.302 
-1.94288 1.18487 -2.302 
-1.93327 1.18487 -2.302 
-1.92366 1.18487 -2.302 
-1.91405 1.18487 -2.302 
-1.90443 1.18487 -2.302 
-1.89482 1.18487 -2.302 
-1.88521 1.18487 -2.302 
-1.8756 1.18487 -2.302 
-1.86599 1.18487 -2.302 
-1.85638 1.18487 -2.302 
-1.858 1.19208 -2.316 
-1.84833 1.19208 -2.316 
-1.83866 1.19208 -2.316 
-1.82899 1.19208 -2.316 
-1.81932 1.19208 -2.316 
-1.80965 1.19208 -2.316 
-1.79998 1.19208 -2.316 
-1.79031 1.19208 -2.316 
-1.78064 1.19208 -2.316 
-1.77097 1.19208 -2.316 
-1.76129 1.19208 -2.316 
-1.75162 1.19208 -2.316 
-1.74195 1.19208 -2.316 
-1.73228 1.19208 -2.316 
-1.72261 1.19208 -2.316 
-1.71294 1.19208 -2.316 
-1.70327 1.19208 -2.316 
-1.70457 1.1998 -2.331 
-1.69484 1.1998 -2.331 
-1.68511 1.1998 -2.331 
-1.67537 1.1998 -2.331 
-1.65492 1.19208 -2.316 
-1.64525 1.19208 -2.316 
-1.63558 1.19208 -2.316 
-1.62591 1.19208 -2.316 
-1.61624 1.19208 -2.316 
-1.60657 1.19208 -2.316 
