ply
format ascii 1.0
comment pointcloud saved from Realsense Viewer
element vertex 1877
property float32 x
property float32 y
property float32 z
end_header
-1.40020 1.68400 0.40974 
-1.38613 1.68400 0.40974 
-1.37011 1.69900 0.41339 
-1.35098 1.72900 0.42069 
-1.34658 1.76100 0.42848 
-1.35078 1.78600 0.43456 
-1.35649 1.85500 0.45135 
-1.33881 1.93000 0.46960 
-1.33765 1.94000 0.47203 
-1.32543 1.97000 0.47933 
-1.30132 2.02200 0.49199 
-1.32634 2.40400 0.58493 
-1.32068 2.54800 0.61997 
-1.30596 2.58200 0.62824 
-1.27594 2.56500 0.62411 
-1.13982 2.54800 0.61997 
-1.08445 2.73000 0.66425 
-1.04092 2.96300 0.72095 
-0.98772 3.10700 0.75598 
-0.85916 3.15900 0.76864 
-0.76811 3.00900 0.73214 
-0.53363 3.03300 0.73798 
-0.50364 3.08200 0.74990 
-0.49475 3.10700 0.75598 
-0.46881 3.10700 0.75598 
-0.24120 3.18500 0.77496 
-0.22984 3.21200 0.78153 
-0.18960 3.21200 0.78153 
-0.14811 3.18500 0.77496 
0.02304 2.96300 0.72095 
0.11049 2.98600 0.72654 
0.22621 3.03300 0.73798 
0.27686 3.03300 0.73798 
0.37141 3.08200 0.74990 
0.44149 3.03300 0.73798 
0.47569 3.00900 0.73214 
0.53439 2.98600 0.72654 
0.83673 3.94000 0.95867 
1.01641 4.60500 1.12047 
1.41510 6.06700 1.47620 
1.79491 6.94900 1.69081 
1.81987 6.82500 1.66063 
1.90536 6.82500 1.66063 
1.99085 6.82500 1.66063 
2.37579 6.70500 1.63144 
2.50013 6.59000 1.60345 
2.52765 6.59000 1.60345 
2.47144 5.53900 1.34773 
2.49865 5.16500 1.25673 
3.54872 6.16500 1.50005 
3.81616 6.26600 1.52462 
3.86849 6.26600 1.52462 
3.89465 6.26600 1.52462 
3.81166 5.97200 1.45309 
3.46176 5.02900 1.22364 
3.22702 4.55000 1.10709 
3.24576 4.49700 1.09419 
3.37901 4.55000 1.10709 
3.47400 4.55000 1.10709 
3.40915 4.39300 1.06889 
3.27422 4.06600 0.98932 
3.22211 3.94000 0.95867 
3.08522 3.57200 0.86913 
2.99172 3.38200 0.82290 
2.99407 3.35300 0.81584 
2.82230 3.03300 0.73798 
2.73015 2.89500 0.70440 
2.68519 2.81000 0.68372 
2.70479 2.77000 0.67399 
2.72792 2.77000 0.67399 
2.79422 2.79000 0.67885 
-1.50298 1.60600 0.38406 
-1.44436 1.66200 0.39745 
-1.39317 1.68400 0.40271 
-1.37720 1.69900 0.40630 
-1.36789 1.71400 0.40989 
-1.35820 1.72900 0.41347 
-1.35098 1.72900 0.41347 
-1.35195 1.89200 0.45245 
-1.33507 1.96000 0.46872 
-1.28987 2.04400 0.48880 
-1.28903 2.17200 0.51941 
-1.28909 2.23500 0.53448 
-1.28720 2.24800 0.53759 
-1.30680 2.31600 0.55385 
-1.33995 2.46600 0.58972 
-1.33132 2.54800 0.60933 
-1.13671 2.56500 0.61340 
-1.10967 2.65400 0.63468 
-1.04565 2.87400 0.68729 
-0.99768 3.05800 0.73129 
-0.94366 3.13300 0.74923 
-0.93273 3.18500 0.76166 
-0.71367 2.94000 0.70307 
-0.65229 2.94000 0.70307 
-0.62028 2.96300 0.70857 
-0.58769 2.98600 0.71407 
-0.55895 3.03300 0.72531 
-0.54629 3.03300 0.72531 
-0.51684 3.00900 0.71957 
-0.40732 3.13300 0.74923 
-0.29440 3.18500 0.76166 
-0.24325 3.21200 0.76812 
-0.11953 3.13300 0.74923 
-0.03942 3.00900 0.71957 
-0.01418 2.98600 0.71407 
0.14903 3.00900 0.71957 
0.16036 2.98600 0.71407 
0.18673 3.00900 0.71957 
0.33281 3.08200 0.73703 
0.34848 3.10700 0.74301 
0.42883 3.03300 0.72531 
0.52192 2.98600 0.71407 
0.53439 2.98600 0.71407 
0.58079 3.03300 0.72531 
0.92984 4.29400 1.02687 
1.16158 5.16500 1.23516 
1.30684 5.70500 1.36430 
1.67739 6.82500 1.63214 
1.95585 6.70500 1.60344 
2.03984 6.70500 1.60344 
2.20781 6.70500 1.60344 
2.48777 6.70500 1.60344 
2.68264 6.37000 1.52333 
2.58983 5.97200 1.42815 
2.55916 5.38300 1.28730 
2.56783 5.30800 1.26936 
2.61216 5.30800 1.26936 
2.69402 5.38300 1.28730 
2.95711 5.53900 1.32460 
2.98024 5.53900 1.32460 
3.68535 6.26600 1.49846 
3.79000 6.26600 1.49846 
3.89465 6.26600 1.49846 
3.68151 5.62100 1.34421 
3.24576 4.49700 1.07542 
3.34101 4.55000 1.08809 
3.45500 4.55000 1.08809 
3.43353 4.49700 1.07542 
3.20569 3.90000 0.93265 
3.01595 3.47500 0.83101 
2.98205 3.32400 0.79490 
2.96979 3.29500 0.78797 
2.76031 2.94000 0.70307 
2.69692 2.81000 0.67199 
2.68937 2.79000 0.66720 
2.70479 2.77000 0.66242 
2.75927 2.79000 0.66720 
2.80251 2.81000 0.67199 
2.82598 2.81000 0.67199 
-1.49606 1.61300 0.37900 
-1.47550 1.62000 0.38064 
-1.47370 1.63300 0.38370 
-1.45901 1.65500 0.38887 
-1.45130 1.66200 0.39051 
-1.43651 1.66900 0.39216 
-1.42257 1.66900 0.39216 
-1.41426 1.68400 0.39568 
-1.40020 1.68400 0.39568 
-1.37720 1.69900 0.39921 
-1.36708 1.72200 0.40461 
-1.35820 1.72900 0.40626 
-1.35269 1.76900 0.41565 
-1.35115 1.90200 0.44690 
-1.32389 1.98000 0.46523 
-1.32122 2.00100 0.47017 
-1.29488 2.01200 0.47275 
-1.29288 2.02200 0.47510 
-1.28293 2.03300 0.47768 
-1.28338 2.08900 0.49084 
-1.28137 2.10000 0.49343 
-1.27988 2.11200 0.49625 
-1.27635 2.19700 0.51622 
-1.27409 2.20900 0.51904 
-1.33126 2.45000 0.57567 
-1.14278 2.53100 0.59470 
-1.08059 2.69200 0.63253 
-1.05408 2.77000 0.65085 
-1.04875 3.05800 0.71852 
-0.93384 3.05800 0.71852 
-0.91192 3.15900 0.74226 
-0.89873 3.15900 0.74226 
-0.84502 3.10700 0.73004 
-0.79957 3.03300 0.71265 
-0.72595 2.94000 0.69080 
-0.63757 2.98600 0.70161 
-0.56709 3.00900 0.70701 
-0.52940 3.00900 0.70701 
-0.43588 3.05800 0.71852 
-0.40732 3.13300 0.73615 
-0.33156 3.15900 0.74226 
-0.25450 3.18500 0.74837 
-0.24120 3.18500 0.74837 
-0.16141 3.18500 0.74837 
-0.01418 2.98600 0.70161 
0.01075 2.98600 0.70161 
0.12391 3.00900 0.70701 
0.20088 3.03300 0.71265 
0.46313 3.00900 0.70701 
0.49215 3.03300 0.71265 
0.54686 2.98600 0.70161 
0.56363 3.00900 0.70701 
1.43796 6.16500 1.44856 
1.67739 6.82500 1.60364 
1.79491 6.94900 1.63278 
2.10484 6.82500 1.60364 
2.33281 6.82500 1.60364 
2.77529 6.59000 1.54842 
2.64779 6.16500 1.44856 
2.47144 5.53900 1.30147 
2.45899 5.46000 1.28291 
2.45702 5.30800 1.24720 
2.73256 5.46000 1.28291 
2.84147 5.53900 1.30147 
2.98024 5.53900 1.30147 
3.33557 5.88000 1.38160 
3.57447 6.16500 1.44856 
3.85291 6.37000 1.49673 
3.68888 5.70500 1.34048 
3.65804 5.62100 1.32074 
3.58732 5.30800 1.24720 
3.48660 5.09600 1.19738 
3.28629 4.66100 1.09517 
3.20821 4.49700 1.05664 
3.33965 4.49700 1.05664 
3.41475 4.49700 1.05664 
3.39306 4.44400 1.04419 
3.18945 3.82200 0.89804 
3.18933 3.78400 0.88911 
2.74223 2.89500 0.68022 
2.81425 2.81000 0.66025 
-1.50280 1.61300 0.37226 
-1.48933 1.61300 0.37226 
-1.47370 1.63300 0.37688 
-1.46007 1.63300 0.37688 
-1.41454 1.67600 0.38680 
-1.41426 1.68400 0.38865 
-1.37011 1.69900 0.39211 
-1.35215 1.77800 0.41034 
-1.35611 1.80300 0.41611 
-1.36533 1.84600 0.42604 
-1.35985 1.89200 0.43665 
-1.34575 1.94000 0.44773 
-1.30328 2.01200 0.46435 
-1.28293 2.03300 0.46920 
-1.28338 2.08900 0.48212 
-1.27089 2.17200 0.50128 
-1.26717 2.19700 0.50705 
-1.35091 2.56500 0.59198 
-1.34020 2.56500 0.59198 
-1.33830 2.58200 0.59590 
-1.29518 2.58200 0.59590 
-1.14742 2.56500 0.59198 
-1.11854 2.54800 0.58805 
-1.07305 2.73000 0.63006 
-1.05004 2.79000 0.64390 
-1.04955 2.85200 0.65821 
-0.98952 3.03300 0.69999 
-0.96913 3.00900 0.69445 
-0.94400 3.00900 0.69445 
-0.91354 3.03300 0.69999 
-0.89691 3.10700 0.71706 
-0.87097 3.10700 0.71706 
-0.66250 2.98600 0.68914 
-0.60479 3.00900 0.69445 
-0.46659 3.00900 0.69445 
-0.45402 3.00900 0.69445 
-0.31838 3.15900 0.72907 
-0.23924 3.15900 0.72907 
-0.22604 3.15900 0.72907 
-0.18801 3.18500 0.73507 
-0.14811 3.18500 0.73507 
-0.11953 3.13300 0.72307 
-0.03974 3.03300 0.69999 
0.08556 2.98600 0.68914 
0.11134 3.00900 0.69445 
0.12391 3.00900 0.69445 
0.18821 3.03300 0.69999 
0.32254 3.10700 0.71706 
0.37141 3.08200 0.71130 
0.40350 3.03300 0.69999 
0.41616 3.03300 0.69999 
0.44149 3.03300 0.69999 
0.46313 3.00900 0.69445 
0.48825 3.00900 0.69445 
0.51338 3.00900 0.69445 
0.61811 3.15900 0.72907 
0.78010 3.74700 0.86477 
0.95128 4.39300 1.01386 
1.43796 6.16500 1.42282 
1.59212 6.59000 1.52091 
1.84837 6.82500 1.57514 
1.96236 6.82500 1.57514 
2.16183 6.82500 1.57514 
2.36131 6.82500 1.57514 
2.56079 6.82500 1.57514 
2.76027 6.82500 1.57514 
2.78876 6.82500 1.57514 
2.81726 6.82500 1.57514 
2.79572 6.70500 1.54745 
2.64779 6.16500 1.42282 
2.51421 5.38300 1.24234 
2.61857 5.46000 1.26011 
3.09477 5.62100 1.29727 
3.84696 6.06700 1.40020 
3.75294 5.88000 1.35705 
3.72031 5.79100 1.33651 
3.54811 5.38300 1.24234 
3.49068 5.16500 1.19203 
3.37296 4.90000 1.13087 
3.30748 4.71900 1.08910 
3.24680 4.60500 1.06279 
3.18895 4.44400 1.02563 
3.29910 4.39300 1.01386 
3.35412 4.39300 1.01386 
3.27691 4.20000 0.96932 
3.29445 4.20000 0.96932 
3.12527 3.86100 0.89108 
3.15774 3.78400 0.87331 
3.05539 3.57200 0.82438 
2.93807 3.35300 0.77384 
2.94041 3.32400 0.76715 
2.94455 3.26700 0.75399 
2.84556 3.05800 0.70576 
2.73434 2.87400 0.66329 
2.72432 2.79000 0.64390 
2.79078 2.81000 0.64852 
-1.49606 1.61300 0.36553 
-1.48259 1.61300 0.36553 
-1.46739 1.62600 0.36848 
-1.45195 1.64700 0.37323 
-1.44519 1.65500 0.37505 
-1.40723 1.68400 0.38162 
-1.40020 1.68400 0.38162 
-1.39896 1.69100 0.38321 
-1.38429 1.69900 0.38502 
-1.35989 1.72200 0.39023 
-1.34891 1.74500 0.39544 
-1.35985 1.89200 0.42875 
-1.34957 1.91100 0.43306 
-1.33956 1.99100 0.45119 
-1.32958 2.00100 0.45346 
-1.32849 2.01200 0.45595 
-1.28443 2.02200 0.45821 
-1.28293 2.03300 0.46071 
-1.27966 2.05500 0.46569 
-1.27601 2.07700 0.47068 
-1.27466 2.08900 0.47340 
-1.27106 2.11200 0.47861 
-1.26523 2.14700 0.48654 
-1.26717 2.19700 0.49787 
-1.32452 2.41900 0.54818 
-1.33830 2.58200 0.58512 
-1.30596 2.58200 0.58512 
-1.29518 2.58200 0.58512 
-1.26523 2.56500 0.58127 
-1.20619 2.53100 0.57356 
-1.16392 2.53100 0.57356 
-1.15813 2.56500 0.58127 
-1.11854 2.54800 0.57741 
-1.10458 2.56500 0.58127 
-1.05795 2.75000 0.62319 
-1.05739 2.94000 0.66625 
-1.05329 2.96300 0.67146 
-1.05284 3.03300 0.68732 
-1.02322 3.05800 0.69299 
-0.89938 2.98600 0.67667 
-0.88119 3.00900 0.68188 
-0.68912 2.94000 0.66625 
-0.46659 3.00900 0.68188 
-0.41034 3.05800 0.69299 
-0.34192 3.13300 0.70998 
-0.32884 3.13300 0.70998 
-0.30267 3.13300 0.70998 
-0.25035 3.13300 0.70998 
-0.21110 3.13300 0.70998 
-0.18494 3.13300 0.70998 
-0.01441 3.03300 0.68732 
0.04852 3.00900 0.68188 
0.08622 3.00900 0.68188 
0.09878 3.00900 0.68188 
0.11134 3.00900 0.68188 
0.22807 3.05800 0.69299 
0.27914 3.05800 0.69299 
0.30956 3.10700 0.70409 
0.55933 2.98600 0.67667 
1.34693 5.88000 1.33250 
2.01935 6.82500 1.54665 
2.13334 6.82500 1.54665 
2.21883 6.82500 1.54665 
2.27582 6.82500 1.54665 
2.40378 6.70500 1.51945 
2.44510 6.59000 1.49339 
2.61857 5.46000 1.23732 
2.82375 5.46000 1.23732 
2.91086 5.53900 1.25522 
2.93773 5.46000 1.23732 
3.94528 6.47800 1.46801 
3.72031 5.79100 1.31233 
3.22758 4.60500 1.04356 
3.20821 4.49700 1.01909 
3.24576 4.49700 1.01909 
3.26061 4.29400 0.97308 
3.09370 3.82200 0.86612 
3.09557 3.74700 0.84913 
2.90100 3.29500 0.74670 
2.93284 3.23900 0.73401 
2.86521 3.10700 0.70409 
2.71267 2.79000 0.63226 
2.84440 2.85200 0.64631 
-1.46874 1.62000 0.36035 
-1.43894 1.64000 0.36480 
-1.42354 1.66200 0.36969 
-1.41454 1.67600 0.37281 
-1.39139 1.69900 0.37792 
-1.37720 1.69900 0.37792 
-1.36863 1.70600 0.37948 
-1.35820 1.72900 0.38460 
-1.34998 1.73700 0.38638 
-1.35393 1.76100 0.39172 
-1.35663 1.92100 0.42731 
-1.34687 1.93000 0.42931 
-1.33689 2.01200 0.44755 
-1.27466 2.08900 0.46468 
-1.26707 2.13500 0.47491 
-1.28746 2.31600 0.51517 
-1.21429 2.54800 0.56678 
-1.10112 2.58200 0.57434 
-1.07956 2.58200 0.57434 
-1.00219 3.03300 0.67466 
-0.91008 2.94000 0.65397 
-0.88553 2.94000 0.65397 
-0.87325 2.94000 0.65397 
-0.49171 3.00900 0.66932 
-0.46659 3.00900 0.66932 
-0.32611 3.10700 0.69112 
-0.27422 3.10700 0.69112 
-0.20767 3.08200 0.68556 
-0.11854 3.10700 0.69112 
-0.10557 3.10700 0.69112 
0.01092 3.03300 0.67466 
0.08622 3.00900 0.66932 
0.09878 3.00900 0.66932 
0.15022 3.03300 0.67466 
0.16289 3.03300 0.67466 
0.21530 3.05800 0.68022 
0.32254 3.10700 0.69112 
0.33551 3.10700 0.69112 
0.34848 3.10700 0.69112 
0.42289 3.08200 0.68556 
0.50082 3.00900 0.66932 
0.57620 3.00900 0.66932 
0.71529 3.50600 0.77987 
1.19374 5.30800 1.18071 
1.46151 6.26600 1.39381 
1.67739 6.82500 1.51815 
1.76288 6.82500 1.51815 
1.81987 6.82500 1.51815 
1.90536 6.82500 1.51815 
2.08505 6.94900 1.54573 
2.17210 6.94900 1.54573 
2.23013 6.94900 1.54573 
2.28816 6.94900 1.54573 
2.41831 6.82500 1.51815 
2.44680 6.82500 1.51815 
2.56079 6.82500 1.51815 
2.58929 6.82500 1.51815 
2.64779 6.16500 1.37134 
2.34769 5.16500 1.14890 
2.42369 5.23600 1.16469 
2.70271 5.53900 1.23209 
2.76145 5.38300 1.19739 
3.81004 6.47800 1.44096 
3.89118 6.47800 1.44096 
3.66506 5.70500 1.26902 
3.35484 4.96400 1.10419 
3.20682 4.29400 0.95515 
3.24265 4.24700 0.94470 
3.20669 4.11000 0.91423 
3.09302 3.86100 0.85884 
3.07774 3.82200 0.85016 
2.97380 3.44300 0.76586 
2.93524 3.38200 0.75229 
2.90100 3.29500 0.73294 
2.93284 3.23900 0.72048 
2.92181 3.21200 0.71448 
2.81253 3.00900 0.66932 
2.83249 2.85200 0.63440 
-1.50298 1.60600 0.35053 
-1.46913 1.61300 0.35206 
-1.46874 1.62000 0.35359 
-1.43894 1.64000 0.35795 
-1.42445 1.64700 0.35948 
-1.42446 1.65500 0.36123 
-1.41454 1.67600 0.36581 
-1.36129 1.82000 0.39724 
-1.36307 1.86400 0.40684 
-1.36256 1.87400 0.40903 
-1.35755 1.91100 0.41710 
-1.35493 1.93000 0.42125 
-1.33689 2.01200 0.43915 
-1.25626 2.14700 0.46861 
-1.28201 2.28900 0.49961 
-1.30151 2.35900 0.51488 
-1.23310 2.56500 0.55985 
-1.20365 2.54800 0.55614 
-1.06912 2.63600 0.57534 
-1.07297 2.67300 0.58342 
-1.05408 2.77000 0.60459 
-1.05765 2.87400 0.62729 
-1.01485 3.03300 0.66199 
-0.84235 2.91800 0.63689 
-0.75110 2.89500 0.63187 
-0.68559 3.03300 0.66199 
-0.67637 3.10700 0.67815 
-0.65043 3.10700 0.67815 
-0.56356 3.05800 0.66745 
-0.50428 3.00900 0.65676 
-0.32611 3.10700 0.67815 
-0.21882 3.05800 0.66745 
-0.18051 3.05800 0.66745 
-0.10557 3.10700 0.67815 
-0.05368 3.10700 0.67815 
0.01092 3.03300 0.66199 
0.03625 3.03300 0.66199 
0.18977 3.05800 0.66745 
0.34848 3.10700 0.67815 
0.50946 2.98600 0.65174 
0.60794 3.10700 0.67815 
1.73688 6.94900 1.51672 
1.73438 6.82500 1.48965 
1.75988 6.70500 1.46346 
1.93386 6.82500 1.48965 
1.96236 6.82500 1.48965 
2.09421 7.07800 1.54487 
2.34432 7.21100 1.57390 
2.54929 6.94900 1.51672 
2.86259 7.07800 1.54487 
2.89214 7.07800 1.54487 
2.34769 5.16500 1.12733 
2.47918 5.30800 1.15855 
2.66416 5.46000 1.19172 
2.67865 5.30800 1.15855 
2.89630 5.38300 1.17492 
2.91878 5.38300 1.17492 
3.04962 5.53900 1.20897 
3.89118 6.47800 1.41392 
3.64124 5.70500 1.24520 
3.35893 5.09600 1.11227 
3.29112 4.90000 1.06949 
3.17070 4.39300 0.95883 
3.18904 4.39300 0.95883 
3.20739 4.39300 0.95883 
3.17096 4.29400 0.93723 
3.20719 4.24700 0.92697 
3.18923 4.20000 0.91671 
2.92653 3.32400 0.72551 
2.94041 3.32400 0.72551 
2.95603 3.29500 0.71918 
2.91054 3.18500 0.69517 
2.84556 3.05800 0.66745 
2.81253 3.00900 0.65676 
2.78190 2.96300 0.64672 
2.77258 2.94000 0.64170 
2.74634 2.87400 0.62729 
2.91146 2.89500 0.63187 
-1.44023 1.62600 0.34811 
-1.43961 1.63300 0.34961 
-1.42598 1.63300 0.34961 
-1.42524 1.64000 0.35111 
-1.42445 1.64700 0.35260 
-1.42446 1.65500 0.35432 
-1.39848 1.69900 0.36374 
-1.36708 1.72200 0.36866 
-1.35269 1.76900 0.37872 
-1.35683 1.79400 0.38407 
-1.36307 1.86400 0.39906 
-1.35985 1.89200 0.40506 
-1.30840 2.03300 0.43524 
-1.25800 2.19700 0.47035 
-1.26304 2.22200 0.47570 
-1.28201 2.28900 0.49005 
-1.33830 2.58200 0.55278 
-1.23310 2.56500 0.54914 
-1.18206 2.61800 0.56048 
-1.07275 2.61800 0.56048 
-1.06935 2.69200 0.57633 
-1.05284 3.03300 0.64933 
-0.95432 2.96300 0.63434 
-0.82965 2.87400 0.61529 
-0.75110 2.89500 0.61979 
-0.61946 3.08200 0.65982 
-0.56356 3.05800 0.65468 
-0.52940 3.00900 0.64419 
-0.47549 2.98600 0.63927 
-0.38481 3.05800 0.65468 
-0.37496 3.08200 0.65982 
-0.36209 3.08200 0.65982 
-0.31061 3.08200 0.65982 
-0.24236 3.03300 0.64933 
-0.22969 3.03300 0.64933 
-0.17904 3.03300 0.64933 
-0.12944 3.05800 0.65468 
-0.11667 3.05800 0.65468 
-0.02751 3.08200 0.65982 
0.12592 3.05800 0.65468 
0.29420 3.08200 0.65982 
0.30707 3.08200 0.65982 
0.38740 3.10700 0.66517 
0.40037 3.10700 0.66517 
0.43929 3.10700 0.66517 
0.44862 3.08200 0.65982 
0.45790 3.05800 0.65468 
0.51388 2.94000 0.62942 
0.64729 3.23900 0.69343 
0.77260 3.71100 0.79448 
0.85436 4.02300 0.86128 
1.36800 5.97200 1.27854 
1.70786 6.94900 1.48770 
1.79138 6.82500 1.46116 
1.81987 6.82500 1.46116 
2.10345 7.21100 1.54379 
2.13356 7.21100 1.54379 
2.16367 7.21100 1.54379 
2.48157 7.35000 1.57355 
2.55508 7.21100 1.54379 
2.64540 7.21100 1.54379 
2.65572 7.07800 1.51532 
2.70976 5.46000 1.16893 
3.50767 5.46000 1.16893 
3.11433 4.49700 0.96276 
3.11567 4.39300 0.94049 
3.20682 4.29400 0.91930 
3.18953 4.11000 0.87990 
3.12341 3.94000 0.84351 
3.03609 3.67500 0.78678 
3.06678 3.67500 0.78678 
3.01239 3.53900 0.75766 
2.95820 3.26700 0.69943 
2.87818 3.10700 0.66517 
2.84556 3.05800 0.65468 
2.80350 2.98600 0.63927 
2.76402 2.91800 0.62471 
2.88729 2.89500 0.61979 
2.89937 2.89500 0.61979 
-1.44168 1.62000 0.34006 
-1.42598 1.63300 0.34279 
-1.41839 1.64000 0.34426 
-1.41755 1.65500 0.34741 
-1.40754 1.67600 0.35181 
-1.39848 1.69900 0.35664 
-1.35393 1.76100 0.36966 
-1.35269 1.76900 0.37134 
-1.35683 1.79400 0.37658 
-1.35611 1.80300 0.37847 
-1.35493 1.93000 0.40513 
-1.35833 1.97000 0.41353 
-1.35369 2.01200 0.42235 
-1.29841 2.04400 0.42906 
-1.28987 2.04400 0.42906 
-1.26843 2.24800 0.47189 
-1.28746 2.31600 0.48616 
-1.34020 2.56500 0.53843 
-1.18737 2.58200 0.54200 
-1.16020 2.61800 0.54955 
-1.13051 2.60000 0.54577 
-1.08709 2.60000 0.54577 
-1.06912 2.63600 0.55333 
-1.05795 2.75000 0.57726 
-1.05756 2.81000 0.58986 
-1.06566 2.96300 0.62197 
-0.89615 2.89500 0.60770 
-0.86565 2.87400 0.60329 
-0.84165 2.87400 0.60329 
-0.81154 2.89500 0.60770 
-0.79945 2.89500 0.60770 
-0.74488 2.91800 0.61253 
-0.72484 2.98600 0.62680 
-0.69667 3.08200 0.64695 
-0.65043 3.10700 0.65220 
-0.59372 3.08200 0.64695 
-0.45055 2.98600 0.62680 
-0.40377 3.00900 0.63163 
-0.39757 3.05800 0.64191 
-0.37204 3.05800 0.64191 
-0.35927 3.05800 0.64191 
-0.26769 3.03300 0.63667 
-0.13993 3.00900 0.63163 
-0.12838 3.03300 0.63667 
-0.10390 3.05800 0.64191 
-0.04070 3.10700 0.65220 
-0.02751 3.08200 0.64695 
0.12592 3.05800 0.64191 
0.22807 3.05800 0.64191 
0.37443 3.10700 0.65220 
0.47948 3.03300 0.63667 
0.50161 2.94000 0.61715 
0.53441 2.91800 0.61253 
0.59835 3.05800 0.64191 
0.64189 3.21200 0.67424 
1.06784 4.83800 1.01556 
1.36800 5.97200 1.25360 
1.73957 7.07800 1.48577 
1.82392 6.94900 1.45869 
1.85294 6.94900 1.45869 
2.07334 7.21100 1.51369 
2.21729 7.49400 1.57309 
2.54295 7.35000 1.54286 
2.63502 7.35000 1.54286 
2.90567 7.49400 1.57309 
2.97260 7.35000 1.54286 
2.52168 5.70500 1.19756 
2.55018 5.46000 1.14613 
2.66417 5.23600 1.09911 
2.80640 5.38300 1.12996 
3.16418 5.79100 1.21561 
3.18836 5.79100 1.21561 
3.75594 6.47800 1.35982 
4.02754 6.70500 1.40747 
3.38563 5.23600 1.09911 
3.09404 4.55000 0.95511 
3.17070 4.39300 0.92215 
3.18901 4.34300 0.91165 
3.17237 4.11000 0.86274 
3.18953 4.11000 0.86274 
3.09170 3.90000 0.81866 
3.02074 3.67500 0.77143 
2.98693 3.47500 0.72945 
2.92181 3.21200 0.67424 
2.88729 2.89500 0.60770 
2.96899 2.94000 0.61715 
-1.47102 1.58600 0.32630 
-1.47086 1.59300 0.32774 
-1.45756 1.59300 0.32774 
-1.44263 1.60600 0.33041 
-1.43545 1.61300 0.33186 
-1.41916 1.63300 0.33597 
-1.41839 1.64000 0.33741 
-1.39848 1.69900 0.34955 
-1.39000 1.70600 0.35099 
-1.35820 1.72900 0.35572 
-1.35941 1.83800 0.37815 
-1.36256 1.87400 0.38555 
-1.36124 1.88300 0.38740 
-1.35962 1.96000 0.40325 
-1.35369 2.01200 0.41394 
-1.28824 2.05500 0.42279 
-1.27601 2.07700 0.42732 
-1.25275 2.17200 0.44686 
-1.25800 2.19700 0.45201 
-1.28201 2.28900 0.47093 
-1.28746 2.31600 0.47649 
-1.36471 2.53100 0.52072 
-1.32068 2.54800 0.52422 
-1.23049 2.58200 0.53122 
-1.19019 2.63600 0.54233 
-1.17918 2.63600 0.54233 
-1.11966 2.60000 0.53492 
-1.10880 2.60000 0.53492 
-1.06912 2.63600 0.54233 
-1.06165 2.73000 0.56166 
-0.89615 2.89500 0.59561 
-0.84165 2.87400 0.59129 
-0.82965 2.87400 0.59129 
-0.69124 3.05800 0.62915 
-0.63233 3.08200 0.63408 
-0.59372 3.08200 0.63408 
-0.54629 3.03300 0.62400 
-0.52096 3.03300 0.62400 
-0.42562 2.98600 0.61433 
-0.31834 3.03300 0.62400 
-0.30568 3.03300 0.62400 
-0.29301 3.03300 0.62400 
-0.26557 3.00900 0.61907 
-0.16380 2.98600 0.61433 
-0.02751 3.08200 0.63408 
-0.00177 3.08200 0.63408 
0.03655 3.05800 0.62915 
0.13869 3.05800 0.62915 
0.16552 3.08200 0.63408 
0.22807 3.05800 0.62915 
0.29420 3.08200 0.63408 
0.33551 3.10700 0.63923 
0.47948 3.03300 0.62400 
0.56739 2.96300 0.60960 
0.63650 3.18500 0.65528 
0.94045 4.34300 0.89352 
1.67885 6.94900 1.42967 
1.73957 7.07800 1.45621 
1.76912 7.07800 1.45621 
1.97599 7.07800 1.45621 
2.52230 7.96300 1.63829 
2.58084 7.64400 1.57266 
2.59277 7.49400 1.54180 
2.90567 7.49400 1.54180 
2.82372 6.70500 1.37947 
2.63103 6.06700 1.24821 
2.67231 5.62100 1.15645 
2.70271 5.53900 1.13958 
2.72584 5.53900 1.13958 
2.82375 5.46000 1.12333 
3.14001 5.79100 1.19143 
4.02754 6.70500 1.37947 
3.99937 6.47800 1.33277 
3.95930 6.37000 1.31055 
3.25120 4.96400 1.02128 
3.11648 4.34300 0.89352 
3.09170 3.90000 0.80238 
3.06178 3.82200 0.78633 
3.03299 3.74700 0.77090 
3.01934 3.71100 0.76349 
2.99414 3.60600 0.74189 
2.97242 3.47500 0.71494 
2.87611 3.13300 0.64458 
2.78190 2.96300 0.60960 
2.74634 2.87400 0.59129 
2.96899 2.94000 0.60487 
-1.47772 1.57900 0.31827 
-1.46453 1.57900 0.31827 
-1.44302 1.59900 0.32230 
-1.43593 1.60600 0.32371 
-1.41916 1.63300 0.32915 
-1.41660 1.66200 0.33500 
-1.39848 1.69900 0.34245 
-1.39000 1.70600 0.34387 
-1.37505 1.71400 0.34548 
-1.37427 1.72200 0.34709 
-1.35510 1.75300 0.35334 
-1.35755 1.91100 0.38519 
-1.35833 1.97000 0.39708 
-1.35696 1.98000 0.39909 
-1.35369 2.01200 0.40554 
-1.35197 2.02200 0.40756 
-1.28824 2.05500 0.41421 
-1.27466 2.08900 0.42106 
-1.25626 2.14700 0.43275 
-1.33995 2.46600 0.49705 
-1.34691 2.49800 0.50350 
-1.31407 2.51500 0.50693 
-1.30357 2.51500 0.50693 
-1.28257 2.51500 0.50693 
-1.27207 2.51500 0.50693 
-1.26748 2.54800 0.51358 
-1.06566 2.96300 0.59723 
-1.05708 3.00900 0.60650 
-1.05284 3.03300 0.61134 
-1.01939 3.00900 0.60650 
-0.83521 2.85200 0.57486 
-0.76319 2.89500 0.58352 
-0.69124 3.05800 0.61638 
-0.68380 3.08200 0.62122 
-0.46659 3.00900 0.60650 
-0.45402 3.00900 0.60650 
-0.35633 3.03300 0.61134 
-0.31834 3.03300 0.61134 
-0.26354 2.98600 0.60187 
-0.06611 3.08200 0.62122 
-0.05325 3.08200 0.62122 
0.19126 3.08200 0.62122 
0.20412 3.08200 0.62122 
0.31994 3.08200 0.62122 
0.75782 3.64000 0.73369 
0.84544 3.98100 0.80242 
1.19374 5.30800 1.06990 
1.67885 6.94900 1.40066 
1.73957 7.07800 1.42666 
1.82823 7.07800 1.42666 
1.98302 7.21100 1.45347 
2.19784 7.64400 1.54075 
2.27526 7.80000 1.57219 
2.44001 8.13200 1.63911 
2.59720 8.30900 1.67478 
2.58879 7.96300 1.60504 
2.67659 7.64400 1.54075 
2.81180 7.49400 1.51051 
2.93696 7.49400 1.51051 
2.97260 7.35000 1.48149 
2.82372 6.70500 1.35148 
2.49456 5.53900 1.11646 
2.54082 5.53900 1.11646 
2.66461 5.70500 1.14992 
2.82000 5.88000 1.18519 
2.79522 5.53900 1.11646 
2.84147 5.53900 1.11646 
3.97233 6.47800 1.30572 
3.79630 6.06700 1.22288 
3.53529 5.53900 1.11646 
3.02196 4.44400 0.89574 
3.09835 4.34300 0.87539 
3.11648 4.34300 0.87539 
3.20739 4.39300 0.88546 
3.20715 4.34300 0.87539 
3.24341 4.34300 0.87539 
3.20719 4.24700 0.85604 
3.06078 3.86100 0.77823 
2.96591 3.57200 0.71998 
2.95502 3.50600 0.70668 
2.95791 3.47500 0.70043 
2.97760 3.38200 0.68168 
2.79996 3.00900 0.60650 
2.89937 2.89500 0.58352 
-1.45116 1.58600 0.31306 
-1.41660 1.66200 0.32806 
-1.41454 1.67600 0.33082 
-1.38936 1.71400 0.33832 
-1.38146 1.72200 0.33990 
-1.36708 1.72200 0.33990 
-1.36008 1.76900 0.34918 
-1.36533 1.84600 0.36438 
-1.36424 1.85500 0.36615 
-1.36307 1.86400 0.36793 
-1.35493 1.93000 0.38096 
-1.32538 2.03300 0.40129 
-1.30840 2.03300 0.40129 
-1.27601 2.07700 0.40997 
-1.25275 2.17200 0.42872 
-1.27633 2.26200 0.44649 
-1.30151 2.35900 0.46564 
-1.30519 2.49800 0.49307 
-1.29476 2.49800 0.49307 
-1.21168 2.56500 0.50630 
-1.20097 2.56500 0.50630 
-1.19019 2.63600 0.52031 
-1.16818 2.63600 0.52031 
-1.07297 2.67300 0.52762 
-0.92764 2.91800 0.57598 
-0.83521 2.85200 0.56295 
-0.55079 3.05800 0.60361 
-0.53363 3.03300 0.59868 
-0.41633 3.00900 0.59394 
-0.37864 3.00900 0.59394 
-0.28847 2.98600 0.58940 
-0.19810 2.94000 0.58032 
-0.15016 2.96300 0.58486 
0.15146 3.05800 0.60361 
0.17839 3.08200 0.60835 
0.20412 3.08200 0.60835 
0.23887 3.03300 0.59868 
0.41680 3.13300 0.61841 
0.45226 3.10700 0.61328 
0.50602 2.89500 0.57144 
0.58876 3.00900 0.59394 
0.84544 3.98100 0.78580 
2.24269 7.80000 1.53962 
2.63189 8.30900 1.64009 
2.68854 7.96300 1.57180 
2.70850 7.64400 1.50883 
2.90000 7.64400 1.50883 
2.97260 7.35000 1.45080 
2.94649 7.21100 1.42336 
2.82372 6.70500 1.32348 
2.61477 5.97200 1.17880 
2.58388 5.79100 1.14307 
2.60806 5.79100 1.14307 
2.85902 6.06700 1.19755 
2.90968 6.06700 1.19755 
2.91820 5.88000 1.16064 
3.06551 5.88000 1.16064 
3.59366 6.47800 1.27868 
3.99954 6.70500 1.32348 
3.79630 6.06700 1.19755 
3.61742 5.70500 1.12610 
3.24462 4.44400 0.87719 
3.30029 4.44400 0.87719 
3.13881 4.02300 0.79409 
3.06078 3.86100 0.76211 
3.03134 3.78400 0.74691 
2.93364 3.41300 0.67368 
2.96979 3.29500 0.65039 
2.88678 3.15900 0.62355 
2.80963 3.03300 0.59868 
2.77856 2.98600 0.58940 
2.75184 2.91800 0.57598 
2.82059 2.85200 0.56295 
-1.45901 1.56600 0.30257 
-1.43791 1.58600 0.30643 
-1.41986 1.62600 0.31416 
-1.41757 1.64700 0.31822 
-1.40602 1.69100 0.32672 
-1.39652 1.71400 0.33116 
-1.36449 1.73700 0.33561 
-1.36242 1.75300 0.33870 
-1.35958 1.77800 0.34353 
-1.36307 1.86400 0.36015 
-1.35910 1.90200 0.36749 
-1.35385 1.94000 0.37483 
-1.35833 1.97000 0.38063 
-1.35696 1.98000 0.38256 
-1.31689 2.03300 0.39280 
-1.27106 2.11200 0.40806 
-1.25995 2.12300 0.41019 
-1.25427 2.15900 0.41714 
-1.28746 2.31600 0.44748 
-1.31756 2.48200 0.47955 
-1.24057 2.51500 0.48593 
-1.23007 2.51500 0.48593 
-1.22732 2.53100 0.48902 
-1.07642 2.65400 0.51278 
-1.07305 2.73000 0.52747 
-1.07747 2.89500 0.55935 
-0.96172 2.98600 0.57693 
-0.94194 2.96300 0.57249 
-0.88406 2.89500 0.55935 
-0.77528 2.89500 0.55935 
-0.70529 3.00900 0.58137 
-0.66026 3.03300 0.58601 
-0.45764 3.03300 0.58601 
-0.44146 3.00900 0.58137 
-0.42889 3.00900 0.58137 
-0.32838 3.00900 0.58137 
-0.27600 2.98600 0.57693 
-0.26354 2.98600 0.57693 
-0.25107 2.98600 0.57693 
-0.21202 2.96300 0.57249 
-0.18582 2.94000 0.56804 
-0.06560 3.05800 0.59084 
-0.01453 3.05800 0.59084 
0.06158 3.03300 0.58601 
0.08690 3.03300 0.58601 
0.15146 3.05800 0.59084 
0.17700 3.05800 0.59084 
0.18977 3.05800 0.59084 
0.20253 3.05800 0.59084 
0.31745 3.05800 0.59084 
0.45226 3.10700 0.60031 
0.46149 3.08200 0.59548 
0.51041 2.85200 0.55104 
1.77226 7.21100 1.39325 
1.89269 7.21100 1.39325 
2.28956 7.96300 1.53855 
2.40606 8.13200 1.57120 
2.72564 8.49300 1.64095 
2.81351 8.13200 1.57120 
2.86148 7.80000 1.50705 
2.95918 7.80000 1.50705 
3.02432 7.80000 1.50705 
2.78222 6.47800 1.25163 
3.03128 6.26600 1.21067 
3.01101 6.06700 1.17222 
3.03867 5.97200 1.15386 
3.31907 6.26600 1.21067 
3.40076 6.37000 1.23076 
3.87164 6.82500 1.31867 
3.98563 6.82500 1.31867 
3.13015 4.71900 0.91177 
3.11567 4.39300 0.84878 
3.28332 4.49700 0.86887 
3.27854 4.29400 0.82965 
3.02986 3.82200 0.73846 
3.01554 3.78400 0.73111 
2.94936 3.38200 0.65344 
2.95603 3.29500 0.63663 
2.89724 3.18500 0.61538 
2.77856 2.98600 0.57693 
2.73015 2.89500 0.55935 
2.73723 2.85200 0.55104 
2.75253 2.83100 0.54698 
2.76435 2.83100 0.54698 
2.85434 2.87400 0.55529 
2.92241 2.91800 0.56379 
2.93459 2.91800 0.56379 
-1.44453 1.58600 0.29981 
-1.42967 1.59900 0.30227 
-1.39584 1.72200 0.32552 
-1.37174 1.73700 0.32836 
-1.36349 1.74500 0.32987 
-1.36128 1.76100 0.33289 
-1.36256 1.87400 0.35425 
-1.35268 1.95000 0.36862 
-1.25816 2.13500 0.40359 
-1.29580 2.33100 0.44064 
-1.23465 2.48200 0.46919 
-1.21676 2.53100 0.47845 
-1.18206 2.61800 0.49490 
-1.13516 2.63600 0.49830 
-1.12415 2.63600 0.49830 
-1.10214 2.63600 0.49830 
-1.08103 2.81000 0.53119 
-1.08165 2.87400 0.54329 
-0.85365 2.87400 0.54329 
-0.78165 2.87400 0.54329 
-0.70529 3.00900 0.56881 
-0.68017 3.00900 0.56881 
-0.48297 3.03300 0.57335 
-0.44498 3.03300 0.57335 
-0.41633 3.00900 0.56881 
-0.28847 2.98600 0.56446 
-0.11667 3.05800 0.57807 
-0.03974 3.03300 0.57335 
0.21354 3.03300 0.57335 
0.26211 3.00900 0.56881 
0.44297 3.13300 0.59225 
0.45226 3.10700 0.58734 
0.46149 3.08200 0.58261 
0.47067 3.05800 0.57807 
0.48933 2.94000 0.55577 
0.58426 2.98600 0.56446 
0.91966 4.24700 0.80284 
1.19374 5.30800 1.00341 
1.77226 7.21100 1.36314 
1.86780 7.35000 1.38942 
1.89848 7.35000 1.38942 
1.99826 7.49400 1.41664 
2.02955 7.49400 1.41664 
2.25631 7.96300 1.50530 
2.45843 8.30900 1.57071 
2.72564 8.49300 1.60549 
2.77067 8.30900 1.57071 
2.87475 8.30900 1.57071 
2.90944 8.30900 1.57071 
2.98328 8.13200 1.53725 
2.95549 6.94900 1.31362 
2.83631 6.47800 1.22458 
2.89541 6.37000 1.20416 
2.97155 6.47800 1.22458 
3.24471 6.82500 1.29018 
3.16089 6.47800 1.22458 
3.18794 6.47800 1.22458 
3.29437 6.37000 1.20416 
3.49069 6.59000 1.24575 
3.57960 6.70500 1.26749 
3.66359 6.70500 1.26749 
3.75766 6.82500 1.29018 
3.94199 6.94900 1.31362 
4.05553 6.70500 1.26749 
3.16955 4.71900 0.89206 
3.13144 4.60500 0.87051 
3.15067 4.60500 0.87051 
3.43600 4.55000 0.86012 
3.41475 4.49700 0.85010 
3.13881 4.02300 0.76049 
2.97471 3.67500 0.69471 
2.92373 3.53900 0.66900 
2.90514 3.41300 0.64518 
2.96348 3.38200 0.63932 
2.97760 3.38200 0.63932 
2.71034 2.87400 0.54329 
2.71341 2.85200 0.53913 
2.82059 2.85200 0.53913 
-1.43096 1.59300 0.29448 
-1.42872 1.61300 0.29818 
-1.42815 1.62000 0.29947 
-1.40424 1.70600 0.31537 
-1.39584 1.72200 0.31833 
-1.37986 1.72900 0.31962 
-1.37077 1.74500 0.32258 
-1.36775 1.89200 0.34976 
-1.29288 2.02200 0.37379 
-1.29142 2.03300 0.37582 
-1.27966 2.05500 0.37989 
-1.27601 2.07700 0.38396 
-1.25626 2.14700 0.39690 
-1.25275 2.17200 0.40152 
-1.20906 2.51500 0.46493 
-1.18505 2.53100 0.46788 
-1.16308 2.60000 0.48064 
-1.14927 2.61800 0.48397 
-1.09113 2.63600 0.48729 
-1.08013 2.63600 0.48729 
-1.08194 2.94000 0.54349 
-0.79365 2.87400 0.53129 
-0.71237 2.98600 0.55200 
-0.66250 2.98600 0.55200 
-0.60016 2.98600 0.55200 
-0.40699 3.03300 0.56068 
-0.30326 3.00900 0.55625 
-0.29069 3.00900 0.55625 
-0.28035 3.03300 0.56068 
-0.22969 3.03300 0.56068 
-0.16637 3.03300 0.56068 
0.03625 3.03300 0.56068 
0.11223 3.03300 0.56068 
0.15146 3.05800 0.56531 
0.17700 3.05800 0.56531 
0.30219 3.03300 0.56068 
0.33022 3.05800 0.56531 
0.34298 3.05800 0.56531 
0.35855 3.08200 0.56974 
0.44297 3.13300 0.57917 
0.48452 2.98600 0.55200 
0.49785 2.91800 0.53942 
1.17755 5.23600 0.96793 
1.80642 7.35000 1.35873 
1.83711 7.35000 1.35873 
2.07017 7.64400 1.41308 
2.45843 8.30900 1.53601 
2.49312 8.30900 1.53601 
2.69018 8.49300 1.57003 
2.97882 8.30900 1.53601 
3.18698 8.30900 1.53601 
3.12077 7.96300 1.47205 
3.18716 7.80000 1.44192 
3.01969 6.70500 1.23950 
3.30589 7.07800 1.30845 
3.49431 7.35000 1.35873 
3.39455 7.07800 1.30845 
3.32560 6.59000 1.21824 
3.73888 6.94900 1.28460 
3.86740 7.07800 1.30845 
4.01516 7.07800 1.30845 
4.05804 6.94900 1.28460 
3.45820 5.38300 0.99511 
3.22928 4.83800 0.89436 
3.20918 4.77800 0.88327 
3.20844 4.66100 0.86164 
3.26603 4.60500 0.85129 
3.38359 4.66100 0.86164 
3.44540 4.71900 0.87236 
3.52838 4.77800 0.88327 
2.97286 3.71100 0.68602 
2.93391 3.60600 0.66661 
2.91111 3.50600 0.64812 
2.89988 3.47500 0.64239 
2.90514 3.41300 0.63093 
2.91007 3.35300 0.61984 
2.92653 3.32400 0.61448 
2.84994 3.13300 0.57917 
2.77484 3.00900 0.55625 
2.69692 2.81000 0.51946 
2.68937 2.79000 0.51576 
-1.43096 1.59300 0.28783 
-1.42665 1.62600 0.29379 
-1.42598 1.63300 0.29506 
-1.37986 1.72900 0.31241 
-1.37077 1.74500 0.31530 
-1.36863 1.76100 0.31819 
-1.36569 1.78600 0.32270 
-1.35268 1.95000 0.35234 
-1.32849 2.01200 0.36354 
-1.27107 2.05500 0.37131 
-1.26384 2.10000 0.37944 
-1.25108 2.12300 0.38360 
-1.26304 2.22200 0.40148 
-1.27633 2.26200 0.40871 
-1.20356 2.48200 0.44846 
-1.17173 2.54800 0.46039 
-1.15503 2.58200 0.46653 
-1.08059 2.69200 0.48641 
-1.06964 3.00900 0.54368 
-1.05284 3.03300 0.54802 
-1.04018 3.03300 0.54802 
-1.01939 3.00900 0.54368 
-0.67685 2.94000 0.53122 
-0.62510 2.98600 0.53953 
-0.57966 3.00900 0.54368 
-0.54197 3.00900 0.54368 
-0.53363 3.03300 0.54802 
-0.49972 3.05800 0.55254 
-0.48695 3.05800 0.55254 
-0.36900 3.03300 0.54802 
-0.28266 3.05800 0.55254 
-0.26989 3.05800 0.55254 
0.15022 3.03300 0.54802 
0.27467 3.00900 0.54368 
0.28723 3.00900 0.54368 
0.34298 3.05800 0.55254 
0.49316 2.96300 0.53537 
0.50602 2.89500 0.52309 
0.75074 3.60600 0.65155 
1.34693 5.88000 1.06243 
1.97442 7.64400 1.38116 
2.33815 8.13200 1.46934 
2.45843 8.30900 1.50132 
3.04145 8.68600 1.56944 
3.07771 8.68600 1.56944 
3.04821 8.30900 1.50132 
3.15305 8.13200 1.46934 
3.21973 7.80000 1.40935 
3.18725 7.64400 1.38116 
3.12604 7.35000 1.32804 
3.70824 7.80000 1.40935 
3.66600 7.64400 1.38116 
3.54231 7.07800 1.27890 
3.57187 7.07800 1.27890 
3.81963 7.21100 1.30293 
3.98533 7.35000 1.32804 
3.93094 6.59000 1.19072 
3.50767 5.46000 0.98654 
3.29266 4.96400 0.89692 
3.46853 4.77800 0.86332 
3.48848 4.77800 0.86332 
3.45500 4.55000 0.82212 
3.35412 4.39300 0.79375 
2.93118 3.64000 0.65770 
2.89988 3.47500 0.62788 
2.89089 3.41300 0.61668 
2.88724 3.29500 0.59536 
2.88999 3.26700 0.59030 
2.82629 3.10700 0.56139 
2.81642 3.08200 0.55687 
2.73576 2.94000 0.53122 
2.71034 2.87400 0.51929 
2.69323 2.77000 0.50050 
2.74762 2.79000 0.50411 
-1.45901 1.56600 0.27642 
-1.45896 1.57300 0.27765 
-1.44475 1.57900 0.27871 
-1.43816 1.57900 0.27871 
-1.42922 1.60600 0.28348 
-1.39712 1.70600 0.30113 
-1.39584 1.72200 0.30395 
-1.37899 1.73700 0.30660 
-1.37806 1.74500 0.30801 
-1.37303 1.84600 0.32584 
-1.35493 1.93000 0.34066 
-1.32009 2.01200 0.35514 
-1.30328 2.01200 0.35514 
-1.27444 2.03300 0.35885 
-1.25995 2.12300 0.37473 
-1.28996 2.37400 0.41904 
-1.28814 2.38900 0.42168 
-1.25608 2.40400 0.42433 
-1.24604 2.40400 0.42433 
-1.21078 2.43400 0.42963 
-1.18003 2.49800 0.44092 
-1.17756 2.51500 0.44392 
-1.17448 2.53100 0.44675 
-1.14742 2.56500 0.45275 
-1.14137 2.60000 0.45893 
-1.13051 2.60000 0.45893 
-1.11648 2.61800 0.46210 
-1.08413 2.67300 0.47181 
-0.94194 2.96300 0.52300 
-0.86565 2.87400 0.50729 
-0.70833 2.91800 0.51506 
-0.65960 2.91800 0.51506 
-0.62028 2.96300 0.52300 
-0.60791 2.96300 0.52300 
-0.58769 2.98600 0.52706 
-0.36209 3.08200 0.54401 
-0.28488 3.08200 0.54401 
-0.24827 3.10700 0.54842 
-0.23727 3.13300 0.55301 
0.01083 3.00900 0.53112 
0.09957 3.03300 0.53536 
0.22442 3.00900 0.53112 
0.27257 2.98600 0.52706 
0.45605 3.13300 0.55301 
0.63650 3.18500 0.56219 
0.68999 3.38200 0.59696 
2.33815 8.13200 1.43538 
2.47397 8.13200 1.43538 
2.59720 8.30900 1.46663 
2.82384 8.68600 1.53317 
2.86011 8.68600 1.53317 
3.11909 8.13200 1.43538 
3.25491 8.13200 1.43538 
3.28886 8.13200 1.43538 
3.32282 8.13200 1.43538 
3.25229 7.80000 1.37678 
3.21917 7.64400 1.34925 
3.21811 7.35000 1.29735 
3.34374 7.49400 1.32277 
3.71924 7.96300 1.40555 
4.03212 7.49400 1.32277 
4.06341 7.49400 1.32277 
4.15728 7.49400 1.32277 
4.04472 7.07800 1.24934 
3.89118 6.47800 1.14344 
3.31338 4.96400 0.87620 
3.31008 4.83800 0.85396 
3.36878 4.77800 0.84337 
3.61847 4.90000 0.86490 
3.65939 4.90000 0.86490 
3.33408 4.34300 0.76659 
3.05913 3.90000 0.68839 
2.97286 3.71100 0.65503 
2.86522 3.23900 0.57172 
2.71034 2.87400 0.50729 
2.68166 2.77000 0.48893 
2.92355 2.89500 0.51100 
-1.43634 1.59900 0.27556 
-1.42446 1.65500 0.28521 
-1.40558 1.69900 0.29280 
-1.39652 1.71400 0.29538 
-1.39584 1.72200 0.29676 
-1.38865 1.72200 0.29676 
-1.37806 1.74500 0.30072 
-1.36747 1.76900 0.30486 
-1.37181 1.79400 0.30917 
-1.36911 1.88300 0.32451 
-1.33125 1.99100 0.34312 
-1.26594 2.08900 0.36001 
-1.25108 2.12300 0.36587 
-1.26304 2.22200 0.38293 
-1.27968 2.30200 0.39672 
-1.25821 2.38900 0.41171 
-1.22596 2.40400 0.41429 
-1.20061 2.43400 0.41946 
-1.14425 2.58200 0.44497 
-1.10967 2.65400 0.45738 
-1.08822 2.71100 0.46720 
-1.09821 2.91800 0.50287 
-1.09421 2.94000 0.50667 
-0.66649 2.89500 0.49891 
-0.60791 2.96300 0.51063 
-0.50830 3.03300 0.52269 
-0.49972 3.05800 0.52700 
-0.37113 3.15900 0.54441 
-0.01429 3.00900 0.51856 
0.27047 2.96300 0.51063 
0.37141 3.08200 0.53114 
0.42989 3.13300 0.53993 
0.44664 3.15900 0.54441 
0.46524 3.10700 0.53545 
0.48344 3.05800 0.52700 
0.49316 2.96300 0.51063 
0.50161 2.94000 0.50667 
0.54228 2.89500 0.49891 
1.04157 4.71900 0.81325 
2.16838 8.13200 1.40143 
3.11909 8.13200 1.40143 
3.31491 7.64400 1.31733 
3.88084 8.30900 1.43193 
4.01848 7.96300 1.37231 
4.06649 7.80000 1.34422 
4.04899 7.64400 1.31733 
4.08091 7.64400 1.31733 
4.11283 7.64400 1.31733 
4.09470 7.49400 1.29148 
3.95713 6.82500 1.17619 
3.56416 5.62100 0.96870 
3.33411 4.96400 0.85547 
3.41108 4.83800 0.83376 
3.70719 4.96400 0.85547 
3.49676 4.60500 0.79360 
3.18953 4.11000 0.70830 
3.10604 3.98100 0.68607 
3.04466 3.86100 0.66539 
2.95936 3.67500 0.63333 
2.87349 3.29500 0.56784 
2.86522 3.23900 0.55819 
2.85475 3.21200 0.55354 
2.75363 2.98600 0.51459 
2.67772 2.79000 0.48081 
2.68166 2.77000 0.47737 
2.79078 2.81000 0.48426 
-1.45794 1.57900 0.26552 
-1.45778 1.58600 0.26670 
-1.43634 1.59900 0.26889 
-1.42815 1.62000 0.27242 
-1.42524 1.64000 0.27578 
-1.42257 1.66900 0.28066 
-1.37899 1.73700 0.29209 
-1.37649 1.82000 0.30605 
-1.37039 1.87400 0.31513 
-1.37565 1.89200 0.31816 
-1.36465 1.92100 0.32303 
-1.32122 2.00100 0.33649 
-1.27599 2.02200 0.34002 
-1.27779 2.31600 0.38946 
-1.26441 2.34500 0.39433 
-1.23826 2.38900 0.40173 
-1.20589 2.40400 0.40426 
-1.20331 2.41900 0.40678 
-1.19827 2.45000 0.41199 
-1.18805 2.45000 0.41199 
-1.14137 2.60000 0.43722 
-1.13051 2.60000 0.43722 
-1.11761 2.67300 0.44949 
-1.08220 3.00900 0.50599 
-1.01939 3.00900 0.50599 
-1.00682 3.00900 0.50599 
-0.90824 2.89500 0.48682 
-0.79944 2.81000 0.47253 
-0.73365 2.87400 0.48329 
-0.65440 2.89500 0.48682 
-0.59092 2.94000 0.49439 
-0.57080 2.96300 0.49826 
-0.25666 3.21200 0.54013 
-0.05240 3.03300 0.51003 
-0.02686 3.00900 0.50599 
0.09878 3.00900 0.50599 
0.29751 2.98600 0.50212 
0.40037 3.10700 0.52247 
0.60305 3.08200 0.51827 
0.70896 3.47500 0.58436 
1.46151 6.26600 1.05369 
1.83711 7.35000 1.23598 
3.18640 8.88800 1.49461 
3.29106 8.30900 1.39724 
3.39514 8.30900 1.39724 
3.62840 8.13200 1.36748 
4.29972 8.88800 1.49461 
4.31080 8.68600 1.46064 
4.16419 7.80000 1.31165 
4.15728 7.49400 1.26019 
4.13877 7.35000 1.23598 
4.01516 7.07800 1.19024 
3.97100 6.94900 1.16854 
3.84840 6.59000 1.10817 
3.83709 6.47800 1.08934 
3.79971 6.37000 1.07118 
3.56978 5.70500 0.95935 
3.35677 5.02900 0.84568 
3.35250 4.90000 0.82398 
3.39342 4.90000 0.82398 
3.70719 4.96400 0.83475 
3.67985 4.90000 0.82398 
3.00170 3.74700 0.63009 
2.86807 3.35300 0.56384 
2.86271 3.26700 0.54938 
2.82378 3.13300 0.52684 
2.78431 3.03300 0.51003 
2.75363 2.98600 0.50212 
2.72747 2.91800 0.49069 
2.71034 2.87400 0.48329 
2.69323 2.77000 0.46580 
2.70479 2.77000 0.46580 
2.73597 2.79000 0.46917 
2.77905 2.81000 0.47253 
2.79078 2.81000 0.47253 
2.93459 2.91800 0.49069 
-1.42922 1.60600 0.26336 
-1.42445 1.64700 0.27008 
-1.42129 1.68400 0.27615 
-1.41308 1.69100 0.27730 
-1.40558 1.69900 0.27861 
-1.38146 1.72200 0.28238 
-1.37174 1.73700 0.28484 
-1.36863 1.76100 0.28878 
-1.36747 1.76900 0.29009 
-1.37303 1.84600 0.30271 
-1.36465 1.92100 0.31501 
-1.35493 1.93000 0.31649 
-1.33216 1.98000 0.32469 
-1.32122 2.00100 0.32813 
-1.27444 2.03300 0.33338 
-1.26881 2.12300 0.34814 
-1.25995 2.12300 0.34814 
-1.23049 2.37400 0.38930 
-1.20589 2.40400 0.39422 
-1.19045 2.43400 0.39914 
-1.15917 2.49800 0.40963 
-1.15046 2.54800 0.41783 
-1.14137 2.60000 0.42636 
-1.04018 3.03300 0.49736 
-1.00682 3.00900 0.49343 
-0.93463 2.94000 0.48211 
-0.70275 2.89500 0.47473 
-0.57864 2.94000 0.48211 
-0.54182 2.94000 0.48211 
-0.43930 3.08200 0.50540 
-0.42041 3.13300 0.51376 
-0.41070 3.15900 0.51803 
-0.40079 3.18500 0.52229 
-0.10557 3.10700 0.50950 
0.01083 3.00900 0.49343 
0.04852 3.00900 0.49343 
0.06109 3.00900 0.49343 
0.11134 3.00900 0.49343 
0.13756 3.03300 0.49736 
0.24764 2.98600 0.48966 
0.37141 3.08200 0.50540 
0.40372 3.13300 0.51376 
0.44664 3.15900 0.51803 
0.45983 3.15900 0.51803 
0.46913 3.13300 0.51376 
0.52222 2.91800 0.47851 
1.46151 6.26600 1.02753 
2.31966 8.30900 1.36255 
2.42374 8.30900 1.36255 
2.75131 8.68600 1.42437 
3.22605 9.55500 1.56687 
3.26594 9.55500 1.56687 
3.26062 8.88800 1.45749 
3.25905 8.68600 1.42437 
3.39940 8.49300 1.39272 
3.78948 8.49300 1.39272 
3.82494 8.49300 1.39272 
3.86040 8.49300 1.39272 
4.21797 7.96300 1.30581 
4.22933 7.80000 1.27908 
4.17666 7.64400 1.25350 
4.20857 7.64400 1.25350 
4.10808 7.35000 1.20529 
3.92864 6.82500 1.11919 
3.88756 6.70500 1.09952 
3.87591 6.59000 1.08066 
3.51722 5.62100 0.92176 
3.48904 5.53900 0.90831 
3.35677 5.02900 0.82468 
3.37777 5.02900 0.82468 
3.39629 4.96400 0.81402 
3.41701 4.96400 0.81402 
3.45847 4.96400 0.81402 
3.73473 5.02900 0.82468 
3.60818 4.77800 0.78352 
2.93608 3.57200 0.58575 
2.91111 3.50600 0.57493 
2.90192 3.44300 0.56460 
2.87875 3.38200 0.55460 
2.86807 3.35300 0.54984 
2.87349 3.29500 0.54033 
2.76609 2.98600 0.48966 
2.71034 2.87400 0.47129 
2.68519 2.81000 0.46080 
2.84440 2.85200 0.46768 
-1.47102 1.58600 0.25346 
-1.46440 1.58600 0.25346 
-1.45778 1.58600 0.25346 
-1.42354 1.66200 0.26560 
-1.42129 1.68400 0.26912 
-1.40424 1.70600 0.27263 
-1.36747 1.76900 0.28270 
-1.37725 1.81100 0.28941 
-1.36465 1.92100 0.30699 
-1.35493 1.93000 0.30843 
-1.32122 2.00100 0.31978 
-1.28134 2.04400 0.32665 
-1.27966 2.05500 0.32841 
-1.25626 2.14700 0.34311 
-1.26688 2.26200 0.36149 
-1.19837 2.38900 0.38178 
-1.17782 2.45000 0.39153 
-1.16759 2.45000 0.39153 
-1.13183 2.65400 0.42413 
-1.12218 2.71100 0.43324 
-1.10565 2.87400 0.45929 
-1.02752 3.03300 0.48470 
-0.95432 2.96300 0.47351 
-0.80565 2.87400 0.45929 
-0.72692 2.89500 0.46265 
-0.57864 2.94000 0.46984 
-0.56637 2.94000 0.46984 
-0.46659 3.00900 0.48087 
-0.34290 3.26700 0.52210 
-0.18960 3.21200 0.51331 
-0.14811 3.18500 0.50899 
-0.00173 3.00900 0.48087 
0.02340 3.00900 0.48087 
0.21354 3.03300 0.48470 
0.37141 3.08200 0.49253 
0.38740 3.10700 0.49653 
0.49620 3.05800 0.48870 
0.52616 2.94000 0.46984 
0.61811 3.15900 0.50484 
1.32654 5.79100 0.92545 
1.64889 6.82500 1.09070 
1.87310 7.49400 1.19761 
3.03061 9.32200 1.48974 
3.14625 9.55500 1.52698 
3.40906 8.88800 1.42038 
4.03994 8.88800 1.42038 
4.21230 9.10000 1.45426 
4.39290 9.32200 1.48974 
4.50967 9.32200 1.48974 
4.44027 9.10000 1.45426 
4.41960 8.68600 1.38810 
4.25121 7.96300 1.27256 
4.22933 7.80000 1.24651 
4.24049 7.64400 1.22158 
3.73768 6.26600 1.00136 
3.63711 5.97200 0.95438 
3.49375 5.62100 0.89829 
3.38563 5.23600 0.83676 
3.37556 4.96400 0.79329 
3.39629 4.96400 0.79329 
3.50375 5.02900 0.80368 
3.58775 5.02900 0.80368 
3.62974 5.02900 0.80368 
3.67174 5.02900 0.80368 
3.68646 4.96400 0.79329 
3.63329 4.83800 0.77316 
3.18953 4.11000 0.65682 
3.10696 3.94000 0.62965 
3.07690 3.86100 0.61702 
2.93851 3.53900 0.56556 
2.91439 3.47500 0.55534 
2.91630 3.44300 0.55022 
2.84721 3.15900 0.50484 
2.80726 3.05800 0.48870 
2.72432 2.79000 0.44587 
2.76731 2.81000 0.44906 
2.89937 2.89500 0.46265 
-1.46440 1.58600 0.24683 
-1.39712 1.70600 0.26551 
-1.39652 1.71400 0.26676 
-1.37649 1.82000 0.28325 
-1.36704 1.90200 0.29602 
-1.35385 1.94000 0.30193 
-1.34454 1.95000 0.30349 
-1.28443 2.02200 0.31469 
-1.27601 2.07700 0.32325 
-1.25816 2.13500 0.33228 
-1.25968 2.18400 0.33990 
-1.16759 2.45000 0.38130 
-1.15917 2.49800 0.38877 
-1.15046 2.54800 0.39655 
-1.14425 2.58200 0.40185 
-1.14927 2.61800 0.40745 
-1.13183 2.65400 0.41305 
-1.12555 2.69200 0.41897 
-1.11190 2.77000 0.43111 
-1.09887 2.98600 0.46472 
-1.07817 3.03300 0.47204 
-0.92764 2.91800 0.45414 
-0.84235 2.91800 0.45414 
-0.73822 2.94000 0.45756 
-0.69615 2.91800 0.45414 
-0.68397 2.91800 0.45414 
-0.63523 2.91800 0.45414 
-0.56213 2.91800 0.45414 
-0.45764 3.03300 0.47204 
-0.43930 3.08200 0.47966 
-0.42989 3.10700 0.48355 
-0.31832 3.29500 0.51281 
-0.26105 3.26700 0.50846 
-0.23177 3.23900 0.50410 
-0.18960 3.21200 0.49990 
-0.16141 3.18500 0.49569 
0.17555 3.03300 0.47204 
0.23698 3.00900 0.46830 
0.24954 3.00900 0.46830 
0.47821 3.10700 0.48355 
0.50946 2.98600 0.46472 
1.17755 5.23600 0.81490 
2.26464 8.49300 1.32180 
3.56386 10.05800 1.56537 
3.41439 9.10000 1.41627 
3.63173 8.88800 1.38327 
3.89150 8.88800 1.38327 
3.92861 8.88800 1.38327 
4.06031 9.10000 1.41627 
4.58249 9.55500 1.48708 
4.55426 9.10000 1.41627 
4.34144 8.13200 1.26561 
3.81004 6.47800 1.00820 
3.45847 4.96400 0.77257 
3.65074 5.02900 0.78268 
3.63893 4.90000 0.76261 
3.15539 4.06600 0.63281 
3.03484 3.71100 0.57756 
2.98082 3.57200 0.55592 
2.95791 3.47500 0.54083 
2.86522 3.23900 0.50410 
2.82929 3.08200 0.47966 
2.80963 3.03300 0.47204 
2.79103 2.98600 0.46472 
2.72532 2.85200 0.44387 
2.72038 2.81000 0.43733 
2.75253 2.83100 0.44060 
-1.42872 1.61300 0.24430 
-1.42598 1.63300 0.24733 
-1.42354 1.66200 0.25172 
-1.38865 1.72200 0.26081 
-1.37986 1.72900 0.26187 
-1.36775 1.89200 0.28656 
-1.36465 1.92100 0.29095 
-1.34454 1.95000 0.29534 
-1.33216 1.98000 0.29989 
-1.32122 2.00100 0.30307 
-1.31168 2.01200 0.30473 
-1.29142 2.03300 0.30791 
-1.28987 2.04400 0.30958 
-1.28338 2.08900 0.31640 
-1.28137 2.10000 0.31806 
-1.27599 2.13500 0.32336 
-1.26304 2.22200 0.33654 
-1.21067 2.37400 0.35956 
-1.20075 2.37400 0.35956 
-1.19585 2.40400 0.36411 
-1.14616 2.63600 0.39924 
-1.13679 2.69200 0.40773 
-1.11993 2.79000 0.42257 
-1.11623 2.81000 0.42560 
-1.11765 2.87400 0.43529 
-0.96669 2.96300 0.44877 
-0.87765 2.87400 0.43529 
-0.87325 2.94000 0.44529 
-0.80580 3.00900 0.45574 
-0.79324 3.00900 0.45574 
-0.77471 2.98600 0.45225 
-0.67178 2.91800 0.44196 
-0.65960 2.91800 0.44196 
-0.63523 2.91800 0.44196 
-0.62305 2.91800 0.44196 
-0.56978 2.89500 0.43847 
-0.52143 2.89500 0.43847 
-0.47182 2.96300 0.44877 
-0.42643 3.08200 0.46679 
-0.41692 3.10700 0.47058 
-0.38382 3.26700 0.49481 
-0.27470 3.26700 0.49481 
-0.25882 3.23900 0.49057 
-0.21825 3.23900 0.49057 
-0.04006 3.05800 0.46316 
-0.01453 3.05800 0.46316 
0.09802 2.98600 0.45225 
0.13756 3.03300 0.45937 
0.16289 3.03300 0.45937 
0.35855 3.08200 0.46679 
0.37443 3.10700 0.47058 
0.46913 3.13300 0.47452 
0.48723 3.08200 0.46679 
0.59496 3.10700 0.47058 
1.77226 7.21100 1.09217 
2.02357 7.96300 1.20606 
2.14619 8.30900 1.25847 
2.27984 8.68600 1.31557 
2.66685 8.88800 1.34616 
3.40145 10.33000 1.56457 
3.54028 10.61700 1.60803 
3.68691 10.92000 1.65393 
3.77810 10.92000 1.65393 
3.59519 9.80000 1.48429 
3.80906 9.32200 1.41190 
3.84799 9.32200 1.41190 
4.04260 9.32200 1.41190 
4.08152 9.32200 1.41190 
4.65908 9.80000 1.48429 
4.35096 7.96300 1.20606 
4.18857 7.49400 1.13503 
3.81004 6.47800 0.98115 
3.67743 6.16500 0.93374 
3.33972 5.16500 0.78228 
3.35893 5.09600 0.77183 
3.35677 5.02900 0.76168 
3.39088 4.83800 0.73276 
3.54137 4.96400 0.75184 
3.58283 4.96400 0.75184 
3.60355 4.96400 0.75184 
3.48090 4.66100 0.70595 
3.33578 4.39300 0.66536 
3.17237 4.11000 0.62249 
3.01065 3.57200 0.54101 
2.86522 3.23900 0.49057 
2.84405 3.18500 0.48239 
2.84721 3.15900 0.47846 
2.80665 2.96300 0.44877 
2.77034 2.87400 0.43529 
2.81834 2.87400 0.43529 
-1.48976 1.59900 0.23551 
-1.42872 1.61300 0.23757 
-1.42598 1.63300 0.24051 
-1.42354 1.66200 0.24478 
-1.41137 1.70600 0.25126 
-1.37174 1.73700 0.25583 
-1.36747 1.76900 0.26054 
-1.37303 1.84600 0.27188 
-1.37086 1.86400 0.27454 
-1.37039 1.87400 0.27601 
-1.36465 1.92100 0.28293 
-1.34575 1.94000 0.28573 
-1.33507 1.96000 0.28867 
-1.29142 2.03300 0.29943 
-1.28468 2.07700 0.30591 
-1.28338 2.08900 0.30767 
-1.26328 2.15900 0.31798 
-1.25565 2.20900 0.32535 
-1.26467 2.27500 0.33507 
-1.18029 2.43400 0.35849 
-1.15109 2.67300 0.39369 
-1.14803 2.69200 0.39649 
-1.14144 2.73000 0.40208 
-1.12457 2.83100 0.41696 
-1.12582 2.89500 0.42638 
-1.09477 3.00900 0.44317 
-1.08706 3.05800 0.45039 
-1.06985 3.08200 0.45393 
-0.88821 3.03300 0.44671 
-0.79957 3.03300 0.44671 
-0.41692 3.10700 0.45761 
-0.41070 3.15900 0.46527 
-0.33208 3.29500 0.48530 
-0.29081 3.29500 0.48530 
-0.27234 3.23900 0.47705 
-0.25882 3.23900 0.47705 
-0.21643 3.21200 0.47307 
-0.17471 3.18500 0.46910 
-0.06611 3.08200 0.45393 
-0.05283 3.05800 0.45039 
-0.01453 3.05800 0.45039 
0.01083 3.00900 0.44317 
0.02340 3.00900 0.44317 
0.06062 2.98600 0.43979 
0.08556 2.98600 0.43979 
