ply
format ascii 1.0
comment pointcloud saved from Realsense Viewer
element vertex 1806
property float32 x
property float32 y
property float32 z
end_header
2.53117 3.94000 -1.36091 
2.81487 3.90000 -1.34710 
2.82241 3.82200 -1.32015 
2.63127 3.18500 -1.10013 
2.94936 3.38200 -1.16817 
3.10696 3.32400 -1.14814 
-1.51491 1.62600 -0.56842 
-1.48226 1.62000 -0.56633 
-1.46689 1.63300 -0.57087 
-1.46633 1.64000 -0.57332 
-1.42177 1.74500 -0.61003 
-1.40128 1.80300 -0.63030 
-1.38642 1.86400 -0.65163 
-1.39145 1.89200 -0.66141 
-1.36656 1.97000 -0.68868 
-1.36523 1.98000 -0.69218 
-1.35619 1.99100 -0.69602 
-1.34689 2.06600 -0.72224 
-1.33839 2.13500 -0.74636 
-1.32530 2.17200 -0.75930 
-1.31709 2.23500 -0.78132 
-1.32024 2.28900 -0.80020 
-1.30809 2.38900 -0.83516 
-1.22123 2.73000 -0.95437 
-1.19836 2.81000 -0.98233 
-1.06165 2.73000 -0.95437 
-0.97607 2.56500 -0.89668 
-0.85230 2.31600 -0.80964 
-0.79448 2.20900 -0.77223 
-0.63614 2.11200 -0.73832 
-0.54199 2.08900 -0.73028 
-0.44976 2.06600 -0.72224 
-0.40243 2.08900 -0.73028 
-0.34380 2.15900 -0.75475 
-0.28649 2.13500 -0.74636 
-0.21958 2.01200 -0.70336 
-0.17060 2.13500 -0.74636 
-0.16105 2.54800 -0.89074 
-0.10224 3.00900 -1.05190 
-0.06560 3.05800 -1.06903 
0.01110 3.08200 -1.07742 
0.14789 2.98600 -1.04386 
0.18108 2.91800 -1.02009 
0.30797 2.85200 -0.99702 
0.37942 2.85200 -0.99702 
0.47349 2.91800 -1.02009 
0.64207 3.35300 -1.17216 
0.97740 3.78400 -1.32283 
1.07219 3.78400 -1.32283 
1.14679 3.82200 -1.33611 
1.21063 3.82200 -1.33611 
1.22659 3.82200 -1.33611 
1.41446 3.90000 -1.36338 
1.57702 3.94000 -1.37736 
1.70863 3.94000 -1.37736 
1.72508 3.94000 -1.37736 
1.89683 3.82200 -1.33611 
1.94471 3.82200 -1.33611 
2.07237 3.82200 -1.33611 
2.20004 3.82200 -1.33611 
2.28697 3.86100 -1.34975 
2.33533 3.86100 -1.34975 
2.42406 3.90000 -1.36338 
2.61946 3.90000 -1.36338 
2.76602 3.90000 -1.36338 
2.79831 3.74700 -1.30989 
2.74641 3.53900 -1.23718 
2.71646 3.23900 -1.13230 
3.10465 3.41300 -1.19313 
3.09207 3.35300 -1.17216 
-1.47418 1.62600 -0.57521 
-1.46739 1.62600 -0.57521 
-1.45263 1.64000 -0.58017 
-1.43742 1.66200 -0.58795 
-1.43553 1.67600 -0.59290 
-1.42854 1.67600 -0.59290 
-1.42832 1.68400 -0.59573 
-1.42561 1.70600 -0.60351 
-1.42460 1.72200 -0.60917 
-1.42251 1.73700 -0.61448 
-1.42010 1.76100 -0.62297 
-1.40926 1.79400 -0.63465 
-1.40177 1.79400 -0.63465 
-1.38483 1.88300 -0.66613 
-1.38292 1.90200 -0.67285 
-1.35369 2.01200 -0.71177 
-1.35084 2.03300 -0.71919 
-1.32798 2.14700 -0.75952 
-1.32614 2.31600 -0.81931 
-1.32500 2.33100 -0.82461 
-1.30809 2.38900 -0.84513 
-1.27175 2.43400 -0.86105 
-1.23421 2.63600 -0.93251 
-1.23156 2.65400 -0.93888 
-1.21313 2.79000 -0.98699 
-1.18965 2.87400 -1.01671 
-1.03563 2.69200 -0.95232 
-0.98938 2.60000 -0.91978 
-0.62559 2.07700 -0.73476 
-0.59640 2.06600 -0.73087 
-0.58778 2.06600 -0.73087 
-0.54174 2.05500 -0.72698 
-0.52458 2.05500 -0.72698 
-0.49026 2.05500 -0.72698 
-0.45955 2.03300 -0.71919 
-0.43173 2.02200 -0.71530 
-0.40229 2.04400 -0.72309 
-0.32920 2.12300 -0.75103 
-0.16828 2.22200 -0.78605 
-0.16680 2.33100 -0.82461 
-0.04038 3.08200 -1.09029 
-0.02751 3.08200 -1.09029 
-0.01464 3.08200 -1.09029 
0.13647 3.00900 -1.06446 
0.18108 2.91800 -1.03227 
0.23652 2.85200 -1.00892 
0.28415 2.85200 -1.00892 
0.29606 2.85200 -1.00892 
0.31988 2.85200 -1.00892 
0.40324 2.85200 -1.00892 
1.18279 3.78400 -1.33863 
1.19859 3.78400 -1.33863 
1.52844 3.90000 -1.37966 
1.56101 3.90000 -1.37966 
1.62615 3.90000 -1.37966 
1.70661 3.86100 -1.36587 
1.81477 3.78400 -1.33863 
1.94117 3.78400 -1.33863 
1.98857 3.78400 -1.33863 
2.14656 3.78400 -1.33863 
2.19396 3.78400 -1.33863 
2.33533 3.86100 -1.36587 
2.80592 3.67500 -1.30007 
3.04568 3.44300 -1.21800 
-1.48226 1.62000 -0.57986 
-1.46739 1.62600 -0.58200 
-1.46007 1.63300 -0.58451 
-1.45948 1.64000 -0.58701 
-1.42318 1.72900 -0.61887 
-1.42097 1.75300 -0.62746 
-1.41275 1.76100 -0.63032 
-1.39011 1.83800 -0.65789 
-1.38604 1.87400 -0.67077 
-1.37104 1.93000 -0.69082 
-1.36897 1.95000 -0.69797 
-1.35696 1.98000 -0.70871 
-1.35619 1.99100 -0.71265 
-1.34529 2.01200 -0.72017 
-1.34235 2.03300 -0.72768 
-1.32798 2.14700 -0.76849 
-1.32166 2.27500 -0.81430 
-1.28411 2.41900 -0.86585 
-0.99623 2.61800 -0.93707 
-0.70267 2.10000 -0.75166 
-0.63613 2.05500 -0.73556 
-0.59005 2.04400 -0.73162 
-0.56990 2.03300 -0.72768 
-0.48000 2.01200 -0.72017 
-0.45480 2.01200 -0.72017 
-0.41890 2.00100 -0.71623 
-0.41054 2.00100 -0.71623 
-0.36617 2.03300 -0.72768 
-0.23885 2.03300 -0.72768 
-0.14672 2.89500 -1.03622 
-0.10305 3.03300 -1.08562 
-0.05325 3.08200 -1.10316 
0.13647 3.00900 -1.07703 
0.14789 2.98600 -1.06879 
0.15913 2.96300 -1.06056 
0.22462 2.85200 -1.02083 
0.23652 2.85200 -1.02083 
0.29388 2.83100 -1.01331 
0.30570 2.83100 -1.01331 
0.40324 2.85200 -1.02083 
0.44558 2.89500 -1.03622 
0.53451 3.05800 -1.09457 
0.60672 3.23900 -1.15935 
0.66781 3.41300 -1.22163 
0.72202 3.53900 -1.26673 
0.81114 3.67500 -1.31541 
0.97404 3.71100 -1.32830 
0.98953 3.71100 -1.32830 
1.29339 3.78400 -1.35443 
1.48092 3.86100 -1.38199 
1.49704 3.86100 -1.38199 
1.62601 3.86100 -1.38199 
1.64213 3.86100 -1.38199 
1.71880 3.74700 -1.34118 
1.76574 3.74700 -1.34118 
2.06299 3.74700 -1.34118 
2.22556 3.78400 -1.35443 
2.24136 3.78400 -1.35443 
2.35962 3.82200 -1.36803 
2.41594 3.86100 -1.38199 
2.46430 3.86100 -1.38199 
2.51267 3.86100 -1.38199 
2.79049 3.82200 -1.36803 
2.80645 3.82200 -1.36803 
2.77202 3.57200 -1.27854 
2.63081 3.26700 -1.16937 
2.61798 3.18500 -1.14002 
2.68040 3.21200 -1.14969 
3.06233 3.38200 -1.21054 
3.05007 3.35300 -1.20016 
3.03858 3.29500 -1.17940 
3.01693 3.18500 -1.14002 
-1.47550 1.62000 -0.58662 
-1.45195 1.64700 -0.59640 
-1.44436 1.66200 -0.60183 
-1.42954 1.66900 -0.60436 
-1.42686 1.69900 -0.61523 
-1.42251 1.73700 -0.62899 
-1.42097 1.75300 -0.63478 
-1.41275 1.76100 -0.63768 
-1.41178 1.76900 -0.64057 
-1.40298 1.78600 -0.64673 
-1.39169 1.82000 -0.65904 
-1.38747 1.85500 -0.67172 
-1.38483 1.88300 -0.68185 
-1.37104 1.93000 -0.69887 
-1.36897 1.95000 -0.70612 
-1.35962 1.96000 -0.70974 
-1.32530 2.17200 -0.78650 
-1.31812 2.30200 -0.83358 
-1.31970 2.37400 -0.85965 
-1.29811 2.38900 -0.86508 
-1.23907 2.60000 -0.94149 
-1.23018 2.75000 -0.99580 
-1.21627 2.85200 -1.03274 
-1.17417 2.89500 -1.04831 
-1.14999 2.89500 -1.04831 
-1.10093 2.83100 -1.02513 
-0.85230 2.31600 -0.83865 
-0.69246 2.04400 -0.74015 
-0.61442 2.01200 -0.72857 
-0.60602 2.01200 -0.72857 
-0.53586 2.00100 -0.72458 
-0.52487 1.99100 -0.72096 
-0.44757 1.98000 -0.71698 
-0.37316 1.98000 -0.71698 
-0.34559 2.01200 -0.72857 
-0.31695 2.04400 -0.74015 
-0.30841 2.04400 -0.74015 
-0.23638 2.01200 -0.72857 
-0.19955 1.98000 -0.71698 
-0.16299 2.41900 -0.87595 
-0.11392 2.98600 -1.08126 
-0.02729 3.05800 -1.10733 
-0.01453 3.05800 -1.10733 
0.04891 3.03300 -1.09828 
0.16889 2.91800 -1.05664 
0.20235 2.87400 -1.04071 
0.29388 2.83100 -1.02513 
0.32934 2.83100 -1.02513 
0.39133 2.85200 -1.03274 
0.44235 2.87400 -1.04071 
0.60672 3.23900 -1.17288 
0.73679 3.53900 -1.28151 
0.78086 3.60600 -1.30577 
0.84901 3.64000 -1.31808 
0.87941 3.64000 -1.31808 
0.96459 3.67500 -1.33076 
1.05665 3.67500 -1.33076 
1.08734 3.67500 -1.33076 
1.13338 3.67500 -1.33076 
1.16406 3.67500 -1.33076 
1.25294 3.71100 -1.34379 
1.29943 3.71100 -1.34379 
1.32768 3.74700 -1.35683 
1.39026 3.74700 -1.35683 
1.40590 3.74700 -1.35683 
1.53038 3.78400 -1.37023 
1.62518 3.78400 -1.37023 
1.64098 3.78400 -1.37023 
1.81075 3.71100 -1.34379 
1.88525 3.67500 -1.33076 
1.94663 3.67500 -1.33076 
2.23509 3.74700 -1.35683 
2.28876 3.78400 -1.37023 
2.36776 3.78400 -1.37023 
2.42345 3.82200 -1.38399 
2.55112 3.82200 -1.38399 
2.60475 3.78400 -1.37023 
2.76275 3.78400 -1.37023 
2.77855 3.78400 -1.37023 
2.79435 3.78400 -1.37023 
2.78267 3.74700 -1.35683 
2.79831 3.74700 -1.35683 
2.77920 3.64000 -1.31808 
2.63531 3.23900 -1.17288 
2.62676 3.21200 -1.16310 
3.00549 3.15900 -1.14391 
-1.46060 1.62600 -0.59558 
-1.46007 1.63300 -0.59815 
-1.44519 1.65500 -0.60620 
-1.43048 1.66200 -0.60877 
-1.42720 1.69100 -0.61939 
-1.42686 1.69900 -0.62232 
-1.41275 1.76100 -0.64503 
-1.38604 1.87400 -0.68642 
-1.35696 1.98000 -0.72525 
-1.35619 1.99100 -0.72928 
-1.33509 2.02200 -0.74063 
-1.32639 2.15900 -0.79081 
-1.32351 2.18400 -0.79997 
-1.32024 2.28900 -0.83843 
-1.29811 2.38900 -0.87506 
-1.28619 2.40400 -0.88055 
-1.28411 2.41900 -0.88605 
-1.23795 2.69200 -0.98604 
-1.23537 2.71100 -0.99300 
-1.23263 2.73000 -0.99996 
-1.22756 2.77000 -1.01461 
-1.21913 2.83100 -1.03696 
-1.21627 2.85200 -1.04465 
-1.20786 2.91800 -1.06882 
-0.75959 2.11200 -0.77360 
-0.67451 1.99100 -0.72928 
-0.66251 1.98000 -0.72525 
-0.64126 1.99100 -0.72928 
-0.52756 1.97000 -0.72158 
-0.49466 1.97000 -0.72158 
-0.45123 1.96000 -0.71792 
-0.16964 2.12300 -0.77763 
-0.16299 2.41900 -0.88605 
-0.07773 3.03300 -1.11095 
-0.04006 3.05800 -1.12010 
0.08622 3.00900 -1.10215 
0.09802 2.98600 -1.09373 
0.44558 2.89500 -1.06040 
0.47349 2.91800 -1.06882 
0.70243 3.44300 -1.26112 
0.75157 3.53900 -1.29629 
0.76635 3.53900 -1.29629 
0.81824 3.57200 -1.30837 
0.84807 3.57200 -1.30837 
1.01619 3.64000 -1.33328 
1.13778 3.64000 -1.33328 
1.18337 3.64000 -1.33328 
1.19857 3.64000 -1.33328 
1.27148 3.67500 -1.34610 
1.33285 3.67500 -1.34610 
1.40789 3.71100 -1.35929 
1.46987 3.71100 -1.35929 
1.49977 3.74700 -1.37247 
1.50086 3.71100 -1.35929 
1.51635 3.71100 -1.35929 
1.62482 3.71100 -1.35929 
1.83690 3.64000 -1.33328 
1.97369 3.64000 -1.33328 
2.08473 3.67500 -1.34610 
2.11542 3.67500 -1.34610 
2.23509 3.74700 -1.37247 
2.28203 3.74700 -1.37247 
2.43096 3.78400 -1.38603 
2.47835 3.78400 -1.38603 
2.54155 3.78400 -1.38603 
2.57928 3.74700 -1.37247 
2.76702 3.74700 -1.37247 
2.75593 3.71100 -1.35929 
2.78692 3.71100 -1.35929 
2.70563 3.41300 -1.25013 
2.97341 3.23900 -1.18640 
2.96768 3.13300 -1.14757 
-1.46060 1.62600 -0.60237 
-1.45325 1.63300 -0.60496 
-1.44519 1.65500 -0.61311 
-1.41275 1.76100 -0.65238 
-1.39552 1.78600 -0.66164 
-1.39428 1.79400 -0.66461 
-1.37864 1.86400 -0.69054 
-1.36704 1.90200 -0.70462 
-1.36083 1.95000 -0.72240 
-1.33279 2.11200 -0.78241 
-1.31068 2.28900 -0.84799 
-1.31136 2.35900 -0.87392 
-1.27401 2.41900 -0.89615 
-1.24846 2.53100 -0.93764 
-1.22565 2.87400 -1.06471 
-1.18350 2.91800 -1.08101 
-1.10909 2.85200 -1.05656 
-0.74305 2.06600 -0.76537 
-0.68037 1.96000 -0.72610 
-0.63127 1.96000 -0.72610 
-0.60362 1.95000 -0.72240 
-0.55762 1.96000 -0.72610 
-0.53035 1.95000 -0.72240 
-0.40403 1.93000 -0.71499 
-0.36374 1.93000 -0.71499 
-0.27937 1.96000 -0.72610 
-0.25482 1.96000 -0.72610 
-0.21390 1.96000 -0.72610 
-0.16729 2.20900 -0.81835 
-0.10068 2.96300 -1.09768 
0.07309 2.98600 -1.10620 
0.10964 2.96300 -1.09768 
0.21271 2.85200 -1.05656 
0.24660 2.83100 -1.04878 
0.28206 2.83100 -1.04878 
0.30570 2.83100 -1.04878 
0.31752 2.83100 -1.04878 
0.32934 2.83100 -1.04878 
0.47706 2.94000 -1.08916 
0.49316 2.96300 -1.09768 
0.79602 3.47500 -1.28735 
0.84703 3.50600 -1.29884 
0.89095 3.50600 -1.29884 
0.91411 3.53900 -1.31106 
1.05187 3.60600 -1.33588 
1.23255 3.60600 -1.33588 
1.24760 3.60600 -1.33588 
1.35056 3.64000 -1.34848 
1.38095 3.64000 -1.34848 
1.50164 3.67500 -1.36145 
1.51699 3.67500 -1.36145 
1.53233 3.67500 -1.36145 
1.63932 3.64000 -1.34848 
1.74446 3.60600 -1.33588 
1.78963 3.60600 -1.33588 
1.81974 3.60600 -1.33588 
1.84733 3.57200 -1.32329 
1.92514 3.60600 -1.33588 
1.98536 3.60600 -1.33588 
2.00042 3.60600 -1.33588 
2.03053 3.60600 -1.33588 
2.04559 3.60600 -1.33588 
2.14611 3.67500 -1.36145 
2.21362 3.71100 -1.37478 
2.24461 3.71100 -1.37478 
2.34461 3.74700 -1.38812 
2.37590 3.74700 -1.38812 
2.40719 3.74700 -1.38812 
2.45412 3.74700 -1.38812 
2.78335 3.60600 -1.33588 
2.75008 3.50600 -1.29884 
2.72941 3.44300 -1.27550 
2.70930 3.38200 -1.25290 
2.66712 3.29500 -1.22067 
2.68941 3.23900 -1.19992 
2.68040 3.21200 -1.18992 
2.74351 3.23900 -1.19992 
2.85973 3.29500 -1.22067 
2.93714 3.18500 -1.17992 
2.95273 3.15900 -1.17029 
2.94151 3.13300 -1.16066 
2.96899 3.10700 -1.15102 
-1.43742 1.66200 -0.62265 
-1.42561 1.70600 -0.63913 
-1.41849 1.70600 -0.63913 
-1.39375 1.80300 -0.67547 
-1.38409 1.82000 -0.68184 
-1.37973 1.85500 -0.69495 
-1.37005 1.94000 -0.72680 
-1.36083 1.95000 -0.73054 
-1.33114 2.05500 -0.76988 
-1.33279 2.11200 -0.79123 
-1.28619 2.40400 -0.90063 
-1.23907 2.60000 -0.97406 
-1.24264 2.65400 -0.99429 
-1.22818 2.85200 -1.06846 
-1.20469 2.94000 -1.10143 
-0.72363 2.01200 -0.75377 
-0.70030 1.97000 -0.73803 
-0.54908 1.93000 -0.72305 
-0.40611 1.90200 -0.71256 
-0.37612 1.91100 -0.71593 
-0.30430 1.91100 -0.71593 
-0.28985 1.92100 -0.71968 
-0.26579 1.92100 -0.71968 
-0.25777 1.92100 -0.71968 
-0.24975 1.92100 -0.71968 
-0.22675 1.93000 -0.72305 
-0.19754 1.96000 -0.73429 
-0.16729 2.20900 -0.82757 
-0.15896 2.51500 -0.94221 
-0.06455 3.00900 -1.12728 
-0.01429 3.00900 -1.12728 
0.01075 2.98600 -1.11866 
0.02322 2.98600 -1.11866 
0.04778 2.96300 -1.11005 
0.07196 2.94000 -1.10143 
0.14453 2.91800 -1.09319 
0.28206 2.83100 -1.06060 
0.30570 2.83100 -1.06060 
0.43349 2.89500 -1.08457 
0.50946 2.98600 -1.11866 
0.66428 3.32400 -1.24529 
0.68999 3.38200 -1.26702 
0.84619 3.44300 -1.28987 
0.89758 3.47500 -1.30186 
0.93487 3.50600 -1.31348 
1.23584 3.57200 -1.33820 
1.29550 3.57200 -1.33820 
1.37007 3.57200 -1.33820 
1.44334 3.60600 -1.35094 
1.57884 3.60600 -1.35094 
1.60896 3.60600 -1.35094 
1.62401 3.60600 -1.35094 
1.66836 3.57200 -1.33820 
1.72683 3.53900 -1.32584 
1.74160 3.53900 -1.32584 
1.80071 3.53900 -1.32584 
1.93370 3.53900 -1.32584 
2.01139 3.57200 -1.33820 
2.14087 3.64000 -1.36368 
2.20749 3.67500 -1.37679 
2.32208 3.71100 -1.39028 
2.41505 3.71100 -1.39028 
2.50563 3.64000 -1.36368 
2.55122 3.64000 -1.36368 
2.58162 3.64000 -1.36368 
2.69851 3.67500 -1.37679 
2.69381 3.21200 -1.20333 
2.72998 3.23900 -1.21345 
3.02088 3.10700 -1.16400 
-1.48259 1.61300 -0.61102 
-1.43048 1.66200 -0.62959 
-1.41849 1.70600 -0.64625 
-1.41596 1.72900 -0.65497 
-1.39375 1.80300 -0.68300 
-1.38622 1.80300 -0.68300 
-1.37697 1.88300 -0.71330 
-1.35833 1.97000 -0.74626 
-1.32665 2.02200 -0.76596 
-1.32351 2.18400 -0.82733 
-1.31536 2.24800 -0.85157 
-1.30553 2.33100 -0.88301 
-1.30979 2.37400 -0.89930 
-1.26159 2.43400 -0.92203 
-1.23263 2.73000 -1.03416 
-1.21697 2.94000 -1.11371 
-0.60465 1.90200 -0.72050 
-0.58877 1.90200 -0.72050 
-0.50935 1.90200 -0.72050 
-0.49347 1.90200 -0.72050 
-0.48553 1.90200 -0.72050 
-0.46964 1.90200 -0.72050 
-0.44348 1.89200 -0.71671 
-0.40398 1.89200 -0.71671 
-0.36274 1.88300 -0.71330 
-0.33916 1.88300 -0.71330 
-0.25522 1.90200 -0.72050 
-0.16964 2.12300 -0.80422 
-0.13263 2.85200 -1.08037 
-0.09915 2.91800 -1.10537 
0.05969 2.94000 -1.11371 
0.08361 2.91800 -1.10537 
0.10798 2.91800 -1.10537 
0.15548 2.89500 -1.09666 
0.20080 2.85200 -1.08037 
0.24843 2.85200 -1.08037 
0.35299 2.83100 -1.07242 
0.36481 2.83100 -1.07242 
0.40635 2.87400 -1.08871 
0.41835 2.87400 -1.08871 
0.46478 2.94000 -1.11371 
0.61507 3.21200 -1.21674 
0.65848 3.29500 -1.24819 
0.69807 3.35300 -1.27016 
0.85944 3.38200 -1.28114 
0.89582 3.41300 -1.29289 
1.04710 3.53900 -1.34062 
1.08126 3.50600 -1.32811 
1.09589 3.50600 -1.32811 
1.16909 3.50600 -1.32811 
1.19837 3.50600 -1.32811 
1.27156 3.50600 -1.32811 
1.37403 3.50600 -1.32811 
1.44607 3.53900 -1.34062 
1.53473 3.53900 -1.34062 
1.59361 3.50600 -1.32811 
1.65207 3.47500 -1.31637 
1.93031 3.50600 -1.32811 
1.94495 3.50600 -1.32811 
2.02236 3.53900 -1.34062 
2.21686 3.64000 -1.37888 
2.24726 3.64000 -1.37888 
2.31490 3.67500 -1.39213 
2.34559 3.67500 -1.39213 
2.41444 3.64000 -1.37888 
2.44390 3.57200 -1.35312 
2.48865 3.57200 -1.35312 
2.50356 3.57200 -1.35312 
2.53339 3.57200 -1.35312 
2.71236 3.57200 -1.35312 
2.73163 3.53900 -1.34062 
2.71988 3.41300 -1.29289 
2.71407 3.35300 -1.27016 
2.70839 3.29500 -1.24819 
-1.46739 1.62600 -0.62274 
-1.42832 1.68400 -0.64495 
-1.41741 1.72200 -0.65950 
-1.38806 1.78600 -0.68402 
-1.39375 1.80300 -0.69053 
-1.38622 1.80300 -0.69053 
-1.38074 1.84600 -0.70700 
-1.37498 1.90200 -0.72844 
-1.36553 1.91100 -0.73189 
-1.36897 1.95000 -0.74683 
-1.32639 2.15900 -0.82687 
-1.31304 2.19700 -0.84142 
-1.30680 2.31600 -0.88700 
-1.30553 2.33100 -0.89274 
-1.30151 2.35900 -0.90347 
-1.28619 2.40400 -0.92070 
-1.26391 2.41900 -0.92645 
-1.24057 2.51500 -0.96321 
-1.23642 2.79000 -1.06853 
-1.23223 2.91800 -1.11756 
-0.90753 2.35900 -0.90347 
-0.63927 1.86400 -0.71389 
-0.62370 1.86400 -0.71389 
-0.58792 1.87400 -0.71772 
-0.54880 1.87400 -0.71772 
-0.50968 1.87400 -0.71772 
-0.47056 1.87400 -0.71772 
-0.46273 1.87400 -0.71772 
-0.43926 1.87400 -0.71772 
-0.42361 1.87400 -0.71772 
-0.37666 1.87400 -0.71772 
-0.32971 1.87400 -0.71772 
-0.27494 1.87400 -0.71772 
-0.21063 1.93000 -0.73917 
-0.15996 2.37400 -0.90921 
-0.00170 2.96300 -1.13479 
0.21271 2.85200 -1.09228 
0.22462 2.85200 -1.09228 
0.26034 2.85200 -1.09228 
0.27024 2.83100 -1.08424 
0.30570 2.83100 -1.08424 
0.31752 2.83100 -1.08424 
0.34116 2.83100 -1.08424 
0.37942 2.85200 -1.09228 
0.39435 2.87400 -1.10071 
0.40635 2.87400 -1.10071 
0.53014 3.03300 -1.16160 
0.71979 3.32400 -1.27305 
0.74103 3.29500 -1.26194 
0.75479 3.29500 -1.26194 
0.79606 3.29500 -1.26194 
0.84470 3.32400 -1.27305 
0.92432 3.41300 -1.30714 
0.96120 3.44300 -1.31863 
1.01366 3.47500 -1.33088 
1.09058 3.44300 -1.31863 
1.13371 3.44300 -1.31863 
1.17683 3.44300 -1.31863 
1.19121 3.44300 -1.31863 
1.21996 3.44300 -1.31863 
1.29184 3.44300 -1.31863 
1.30621 3.44300 -1.31863 
1.44894 3.47500 -1.33088 
1.49247 3.47500 -1.33088 
1.52149 3.47500 -1.33088 
1.65123 3.44300 -1.31863 
1.80937 3.44300 -1.31863 
1.83812 3.44300 -1.31863 
2.03278 3.50600 -1.34275 
2.04742 3.50600 -1.34275 
2.22627 3.60600 -1.38105 
2.38425 3.57200 -1.36803 
2.39177 3.53900 -1.35539 
2.65775 3.53900 -1.35539 
2.67253 3.53900 -1.35539 
2.72342 3.38200 -1.29526 
2.70293 3.23900 -1.24050 
2.76087 3.21200 -1.23016 
2.77756 3.18500 -1.21981 
2.79762 3.13300 -1.19990 
2.92843 3.13300 -1.19990 
3.02000 3.13300 -1.19990 
3.03308 3.13300 -1.19990 
-1.50280 1.61300 -0.62449 
-1.46913 1.61300 -0.62449 
-1.44519 1.65500 -0.64075 
-1.42014 1.69100 -0.65469 
-1.41741 1.72200 -0.66669 
-1.38481 1.81100 -0.70115 
-1.38409 1.82000 -0.70464 
-1.38074 1.84600 -0.71470 
-1.37697 1.88300 -0.72903 
-1.33386 2.03300 -0.78710 
-1.31439 2.18400 -0.84556 
-1.30775 2.23500 -0.86531 
-1.30597 2.24800 -0.87034 
-1.29890 2.30200 -0.89125 
-1.30553 2.33100 -0.90248 
-1.28814 2.38900 -0.92493 
-1.28619 2.40400 -0.93074 
-1.28411 2.41900 -0.93655 
-1.23049 2.58200 -0.99965 
-1.22579 2.61800 -1.01359 
-1.23263 2.73000 -1.05695 
-1.23018 2.75000 -1.06470 
-0.75723 2.01200 -0.77897 
-0.68509 1.88300 -0.72903 
-0.63802 1.83800 -0.71161 
-0.63035 1.83800 -0.71161 
-0.61768 1.84600 -0.71470 
-0.54831 1.84600 -0.71470 
-0.45029 1.85500 -0.71819 
-0.30166 1.84600 -0.71470 
-0.20362 1.94000 -0.75110 
-0.16638 2.19700 -0.85060 
-0.07478 2.91800 -1.12974 
-0.05079 2.94000 -1.13826 
-0.02645 2.96300 -1.14716 
0.10635 2.87400 -1.11271 
0.14235 2.87400 -1.11271 
0.18889 2.85200 -1.10419 
0.29606 2.85200 -1.10419 
0.30570 2.83100 -1.09606 
0.31752 2.83100 -1.09606 
0.32934 2.83100 -1.09606 
0.42140 2.89500 -1.12084 
0.64729 3.23900 -1.25402 
0.70745 3.26700 -1.26486 
0.75548 3.23900 -1.25402 
0.80293 3.26700 -1.26486 
0.81658 3.26700 -1.26486 
0.83022 3.26700 -1.26486 
1.03832 3.41300 -1.32139 
1.08108 3.41300 -1.32139 
1.19508 3.41300 -1.32139 
1.19835 3.38200 -1.30938 
1.28307 3.38200 -1.30938 
1.31131 3.38200 -1.30938 
1.35368 3.38200 -1.30938 
1.41016 3.38200 -1.30938 
1.43840 3.38200 -1.30938 
1.46665 3.38200 -1.30938 
1.60807 3.35300 -1.29816 
1.70607 3.35300 -1.29816 
1.81807 3.35300 -1.29816 
1.86007 3.35300 -1.29816 
1.95036 3.41300 -1.32139 
2.09133 3.50600 -1.35739 
2.12579 3.53900 -1.37017 
2.27985 3.57200 -1.38295 
2.31092 3.50600 -1.35739 
2.35564 3.44300 -1.33300 
2.47910 3.47500 -1.34539 
2.53050 3.50600 -1.35739 
2.57441 3.50600 -1.35739 
2.70066 3.44300 -1.33300 
2.72941 3.44300 -1.33300 
2.72807 3.35300 -1.29816 
2.73223 3.32400 -1.28693 
2.73405 3.21200 -1.24357 
2.74746 3.21200 -1.24357 
2.73766 3.18500 -1.23311 
2.91535 3.13300 -1.21298 
2.92843 3.13300 -1.21298 
3.02000 3.13300 -1.21298 
3.11002 3.18500 -1.23311 
-1.50280 1.61300 -0.63123 
-1.46739 1.62600 -0.63632 
-1.41798 1.71400 -0.67075 
-1.37973 1.85500 -0.72593 
-1.37864 1.86400 -0.72945 
-1.37104 1.93000 -0.75528 
-1.37005 1.94000 -0.75920 
-1.36897 1.95000 -0.76311 
-1.36656 1.97000 -0.77094 
-1.33672 2.07700 -0.81281 
-1.33572 2.08900 -0.81751 
-1.33398 2.10000 -0.82181 
-1.33086 2.12300 -0.83081 
-1.32798 2.14700 -0.84020 
-1.31439 2.18400 -0.85468 
-1.30597 2.24800 -0.87973 
-1.28996 2.37400 -0.92904 
-1.27401 2.41900 -0.94665 
-1.23465 2.48200 -0.97130 
-1.22493 2.54800 -0.99713 
-1.18054 2.85200 -1.11610 
-1.07642 2.65400 -1.03861 
-0.69747 1.87400 -0.73337 
-0.59378 1.82000 -0.71224 
-0.56617 1.82900 -0.71576 
-0.54819 1.82000 -0.71224 
-0.48217 1.82900 -0.71576 
-0.42314 1.83800 -0.71928 
-0.36175 1.83800 -0.71928 
-0.33707 1.82900 -0.71576 
-0.29888 1.82900 -0.71576 
-0.29125 1.82900 -0.71576 
-0.24771 1.84600 -0.72241 
-0.22228 1.89200 -0.74041 
-0.21552 1.90200 -0.74433 
-0.20965 1.92100 -0.75176 
-0.12882 2.77000 -1.08401 
-0.11810 2.79000 -1.09183 
-0.09690 2.85200 -1.11610 
-0.03852 2.94000 -1.15053 
-0.02645 2.96300 -1.15953 
0.09435 2.87400 -1.12471 
0.12935 2.85200 -1.11610 
0.27225 2.85200 -1.11610 
0.28415 2.85200 -1.11610 
0.31988 2.85200 -1.11610 
0.45250 2.94000 -1.15053 
0.56444 3.08200 -1.20610 
0.58199 3.10700 -1.21589 
0.66872 3.21200 -1.25698 
0.87114 3.26700 -1.27850 
1.04807 3.35300 -1.31216 
1.07607 3.35300 -1.31216 
1.13207 3.35300 -1.31216 
1.16392 3.32400 -1.30081 
1.17779 3.32400 -1.30081 
1.23331 3.32400 -1.30081 
1.24719 3.32400 -1.30081 
1.38598 3.32400 -1.30081 
1.39986 3.32400 -1.30081 
1.53898 3.29500 -1.28946 
1.58025 3.29500 -1.28946 
1.63580 3.32400 -1.30081 
1.67743 3.32400 -1.30081 
1.71907 3.32400 -1.30081 
1.76071 3.32400 -1.30081 
1.78662 3.29500 -1.28946 
2.16453 3.50600 -1.37203 
2.20844 3.50600 -1.37203 
2.26146 3.47500 -1.35990 
2.29979 3.38200 -1.32351 
2.40637 3.41300 -1.33564 
2.49940 3.44300 -1.34738 
2.60003 3.44300 -1.34738 
2.67713 3.41300 -1.33564 
2.71407 3.35300 -1.31216 
2.75096 3.18500 -1.24641 
2.75837 3.13300 -1.22606 
2.95273 3.15900 -1.23624 
3.01868 3.15900 -1.23624 
-1.49579 1.62000 -0.64073 
-1.47550 1.62000 -0.64073 
-1.46633 1.64000 -0.64864 
-1.43651 1.66900 -0.66011 
-1.43553 1.67600 -0.66288 
-1.40800 1.73700 -0.68701 
-1.39094 1.82900 -0.72339 
-1.39011 1.83800 -0.72695 
-1.37104 1.93000 -0.76334 
-1.35197 2.02200 -0.79973 
-1.33398 2.10000 -0.83058 
-1.33279 2.11200 -0.83532 
-1.32639 2.15900 -0.85391 
-1.31624 2.17200 -0.85906 
-1.28619 2.40400 -0.95081 
-1.24126 2.43400 -0.96268 
-1.23919 2.45000 -0.96901 
-1.23699 2.46600 -0.97534 
-1.23218 2.49800 -0.98799 
-1.23007 2.51500 -0.99472 
-1.22732 2.53100 -1.00104 
-1.21971 2.58200 -1.02122 
-1.22321 2.63600 -1.04257 
-1.22565 2.87400 -1.13671 
-0.74249 1.93000 -0.76334 
-0.64980 1.78600 -0.70639 
-0.58823 1.80300 -0.71311 
-0.58071 1.80300 -0.71311 
-0.56565 1.80300 -0.71311 
-0.55059 1.80300 -0.71311 
-0.49541 1.79400 -0.70955 
-0.46778 1.80300 -0.71311 
-0.46026 1.80300 -0.71311 
-0.45273 1.80300 -0.71311 
-0.39620 1.82000 -0.71983 
-0.38100 1.82000 -0.71983 
-0.34887 1.81100 -0.71628 
-0.33375 1.81100 -0.71628 
-0.30969 1.80300 -0.71311 
-0.27205 1.80300 -0.71311 
-0.23896 1.83800 -0.72695 
-0.19653 1.95000 -0.77125 
0.16507 2.85200 -1.12800 
0.24843 2.85200 -1.12800 
0.28415 2.85200 -1.12800 
0.37035 2.87400 -1.13671 
0.42475 2.91800 -1.15411 
0.61302 3.13300 -1.23914 
0.63130 3.15900 -1.24943 
0.69725 3.15900 -1.24943 
0.73682 3.15900 -1.24943 
0.77639 3.15900 -1.24943 
0.78308 3.13300 -1.23914 
0.84927 3.18500 -1.25971 
0.90424 3.23900 -1.28107 
0.97491 3.29500 -1.30322 
1.19852 3.26700 -1.29214 
1.23944 3.26700 -1.29214 
1.37585 3.26700 -1.29214 
1.44406 3.26700 -1.29214 
1.49930 3.23900 -1.28107 
1.56692 3.23900 -1.28107 
1.63454 3.23900 -1.28107 
1.64806 3.23900 -1.28107 
1.68864 3.23900 -1.28107 
1.71568 3.23900 -1.28107 
1.74273 3.23900 -1.28107 
1.82388 3.23900 -1.28107 
1.98607 3.35300 -1.32616 
2.01737 3.38200 -1.33763 
2.05011 3.41300 -1.34989 
2.14001 3.44300 -1.36175 
2.15438 3.44300 -1.36175 
2.20686 3.41300 -1.34989 
2.48336 3.38200 -1.33763 
2.71646 3.23900 -1.28107 
2.70723 3.21200 -1.27039 
2.71531 3.15900 -1.24943 
3.00363 3.18500 -1.25971 
3.04353 3.18500 -1.25971 
3.17645 3.26700 -1.29214 
-1.45130 1.66200 -0.66428 
-1.43553 1.67600 -0.66988 
-1.41596 1.72900 -0.69106 
-1.41526 1.73700 -0.69426 
-1.38355 1.89200 -0.75621 
-1.38292 1.90200 -0.76021 
-1.37351 1.91100 -0.76381 
-1.37104 1.93000 -0.77140 
-1.34962 2.04400 -0.81696 
-1.31304 2.19700 -0.87812 
-1.30943 2.22200 -0.88811 
-1.30597 2.24800 -0.89850 
-1.30266 2.27500 -0.90929 
-1.30112 2.28900 -0.91489 
-1.27401 2.41900 -0.96685 
-1.26391 2.41900 -0.96685 
-1.22175 2.49800 -0.99842 
-1.21806 2.67300 -1.06837 
-1.20731 2.83100 -1.13152 
-1.02358 2.49800 -0.99842 
-0.77826 1.98000 -0.79138 
-0.64806 1.76100 -0.70385 
-0.56777 1.78600 -0.71384 
-0.55038 1.77800 -0.71065 
-0.46130 1.77800 -0.71065 
-0.40552 1.79400 -0.71704 
-0.28313 1.77800 -0.71065 
-0.24822 1.79400 -0.71704 
-0.22017 1.87400 -0.74902 
-0.21438 1.89200 -0.75621 
-0.17186 2.04400 -0.81696 
-0.12789 2.75000 -1.09914 
0.01067 2.96300 -1.18428 
0.07086 2.89500 -1.15710 
0.10635 2.87400 -1.14871 
0.12935 2.85200 -1.13991 
0.17835 2.87400 -1.14871 
0.25035 2.87400 -1.14871 
0.26235 2.87400 -1.14871 
0.30797 2.85200 -1.13991 
0.39723 2.89500 -1.15710 
0.60794 3.10700 -1.24183 
0.65768 3.15900 -1.26262 
0.73767 3.10700 -1.24183 
0.88917 3.18500 -1.27301 
1.02119 3.26700 -1.30578 
1.03483 3.26700 -1.30578 
1.16120 3.23900 -1.29459 
1.19175 3.21200 -1.28380 
1.39292 3.21200 -1.28380 
1.58068 3.21200 -1.28380 
1.71368 3.18500 -1.27301 
2.11621 3.38200 -1.35175 
2.19095 3.32400 -1.32857 
2.18560 3.29500 -1.31697 
2.35069 3.29500 -1.31697 
2.41302 3.32400 -1.32857 
2.44077 3.32400 -1.32857 
2.48241 3.32400 -1.32857 
2.66712 3.29500 -1.31697 
2.70954 3.10700 -1.24183 
2.72634 3.08200 -1.23184 
2.80355 3.08200 -1.23184 
2.88919 3.13300 -1.25222 
3.00363 3.18500 -1.27301 
3.20367 3.29500 -1.31697 
3.28807 3.35300 -1.34016 
3.86683 3.86100 -1.54320 
-1.50812 1.62600 -0.65668 
-1.46633 1.64000 -0.66234 
-1.45210 1.65500 -0.66840 
-1.43535 1.68400 -0.68011 
-1.43395 1.69900 -0.68617 
-1.41275 1.76100 -0.71121 
-1.40298 1.78600 -0.72130 
-1.40177 1.79400 -0.72453 
-1.40128 1.80300 -0.72817 
-1.39993 1.81100 -0.73140 
-1.39857 1.82900 -0.73867 
-1.38604 1.87400 -0.75684 
-1.38483 1.88300 -0.76048 
-1.35696 1.98000 -0.79965 
-1.34539 2.07700 -0.83883 
-1.33572 2.08900 -0.84367 
-1.33973 2.12300 -0.85740 
-1.32221 2.19700 -0.88729 
-1.32021 2.20900 -0.89214 
-1.30266 2.27500 -0.91879 
-1.30112 2.28900 -0.92445 
-1.28005 2.37400 -0.95877 
-1.27615 2.40400 -0.97089 
-1.25381 2.41900 -0.97695 
-1.22175 2.49800 -1.00885 
-1.21429 2.54800 -1.02905 
-1.22123 2.73000 -1.10255 
-1.02076 2.46600 -0.99593 
-0.42942 1.76900 -0.71444 
-0.42203 1.76900 -0.71444 
-0.36643 1.78600 -0.72130 
-0.32601 1.76900 -0.71444 
-0.26451 1.75300 -0.70797 
-0.24073 1.79400 -0.72453 
-0.12789 2.75000 -1.11063 
-0.02665 2.98600 -1.20594 
0.05924 2.91800 -1.17848 
0.09435 2.87400 -1.16071 
0.10635 2.87400 -1.16071 
0.16635 2.87400 -1.16071 
0.48079 2.96300 -1.19665 
0.63388 3.10700 -1.25481 
0.67280 3.10700 -1.25481 
0.71886 3.08200 -1.24471 
0.88191 3.15900 -1.27581 
1.04423 3.21200 -1.29721 
1.16844 3.18500 -1.28631 
1.18174 3.18500 -1.28631 
1.21166 3.15900 -1.27581 
1.23804 3.15900 -1.27581 
1.36994 3.15900 -1.27581 
1.42270 3.15900 -1.27581 
1.46332 3.13300 -1.26531 
1.47640 3.13300 -1.26531 
1.56779 3.15900 -1.27581 
1.71288 3.15900 -1.27581 
1.97605 3.26700 -1.31942 
2.02050 3.29500 -1.33073 
2.06178 3.29500 -1.33073 
2.08929 3.29500 -1.33073 
2.22442 3.21200 -1.29721 
2.36484 3.23900 -1.30812 
2.42620 3.26700 -1.31942 
2.45348 3.26700 -1.31942 
2.61717 3.26700 -1.31942 
2.64884 3.23900 -1.30812 
2.67574 3.15900 -1.27581 
2.66680 3.13300 -1.26531 
2.67988 3.13300 -1.26531 
2.75208 3.08200 -1.24471 
2.76495 3.08200 -1.24471 
2.97704 3.18500 -1.28631 
3.12218 3.23900 -1.30812 
3.68562 3.71100 -1.49874 
-1.51461 1.63300 -0.66633 
-1.48775 1.62600 -0.66347 
-1.48097 1.62600 -0.66347 
-1.47317 1.64000 -0.66919 
-1.45210 1.65500 -0.67531 
-1.45044 1.66900 -0.68102 
-1.43179 1.72200 -0.70264 
-1.42460 1.72200 -0.70264 
-1.42097 1.75300 -0.71529 
-1.40926 1.79400 -0.73202 
-1.40177 1.79400 -0.73202 
-1.36300 2.00100 -0.81649 
-1.35933 2.03300 -0.82954 
-1.34160 2.11200 -0.86178 
-1.29580 2.33100 -0.95114 
-1.29379 2.34500 -0.95685 
-1.26611 2.40400 -0.98093 
-1.21640 2.46600 -1.00623 
-1.13993 2.67300 -1.09069 
-0.70515 1.79400 -0.73202 
-0.64350 1.72900 -0.70550 
-0.62472 1.73700 -0.70877 
-0.61303 1.74500 -0.71203 
-0.51593 1.73700 -0.70877 
-0.50868 1.73700 -0.70877 
-0.45273 1.74500 -0.71203 
-0.33924 1.76100 -0.71856 
-0.32306 1.75300 -0.71529 
-0.31430 1.74500 -0.71203 
-0.30701 1.74500 -0.71203 
-0.29110 1.73700 -0.70877 
-0.28385 1.73700 -0.70877 
-0.26810 1.72900 -0.70550 
-0.19032 1.97000 -0.80384 
-0.16638 2.19700 -0.89646 
-0.12882 2.77000 -1.13027 
-0.09690 2.85200 -1.16373 
-0.08565 2.87400 -1.17271 
-0.03912 2.98600 -1.21841 
0.15435 2.87400 -1.17271 
0.16635 2.87400 -1.17271 
0.24009 2.89500 -1.18127 
0.25035 2.87400 -1.17271 
0.34635 2.87400 -1.17271 
0.46842 2.96300 -1.20902 
0.49316 2.96300 -1.20902 
0.53851 3.00900 -1.22779 
0.55547 3.03300 -1.23758 
0.59835 3.05800 -1.24778 
0.61591 3.08200 -1.25758 
0.62878 3.08200 -1.25758 
0.68026 3.08200 -1.25758 
0.71326 3.05800 -1.24778 
0.74542 3.03300 -1.23758 
0.80894 3.08200 -1.25758 
0.85442 3.10700 -1.26778 
0.92148 3.15900 -1.28900 
0.94786 3.15900 -1.28900 
1.08395 3.13300 -1.27839 
1.14936 3.13300 -1.27839 
1.21477 3.13300 -1.27839 
1.26709 3.13300 -1.27839 
1.28018 3.13300 -1.27839 
1.29326 3.13300 -1.27839 
1.31942 3.13300 -1.27839 
1.36036 3.10700 -1.26778 
1.43820 3.10700 -1.26778 
1.51604 3.10700 -1.26778 
1.54180 3.13300 -1.27839 
1.58105 3.13300 -1.27839 
1.65874 3.10700 -1.26778 
1.71063 3.10700 -1.26778 
1.77549 3.10700 -1.26778 
1.85797 3.15900 -1.28900 
1.99969 3.23900 -1.32164 
2.01321 3.23900 -1.32164 
2.09031 3.21200 -1.31062 
2.10372 3.21200 -1.31062 
2.24562 3.18500 -1.29961 
2.25892 3.18500 -1.29961 
2.27221 3.18500 -1.29961 
2.46582 3.21200 -1.31062 
2.55417 3.23900 -1.32164 
2.65787 3.18500 -1.29961 
2.68359 3.10700 -1.26778 
2.69656 3.10700 -1.26778 
2.68773 3.08200 -1.25758 
2.69234 3.05800 -1.24778 
2.70511 3.05800 -1.24778 
2.93954 3.15900 -1.28900 
3.01568 3.21200 -1.31062 
3.05456 3.23900 -1.32164 
3.14917 3.26700 -1.33306 
3.26007 3.35300 -1.36816 
3.90589 3.90000 -1.59135 
-1.50098 1.63300 -0.67315 
-1.48052 1.63300 -0.67315 
-1.44953 1.67600 -0.69087 
-1.42251 1.73700 -0.71602 
-1.42097 1.75300 -0.72261 
-1.38355 1.89200 -0.77991 
-1.35833 1.97000 -0.81206 
-1.34689 2.06600 -0.85164 
-1.34539 2.07700 -0.85617 
-1.34444 2.08900 -0.86112 
-1.32221 2.19700 -0.90564 
-1.29379 2.34500 -0.96664 
-1.27816 2.38900 -0.98478 
-1.26611 2.40400 -0.99096 
-1.25381 2.41900 -0.99715 
-1.22896 2.45000 -1.00993 
-1.20690 2.67300 -1.10185 
-0.65223 1.71400 -0.70654 
-0.64508 1.71400 -0.70654 
-0.64090 1.72200 -0.70983 
-0.62184 1.72900 -0.71272 
-0.54494 1.73700 -0.71602 
-0.50429 1.72200 -0.70983 
-0.44858 1.72900 -0.71272 
-0.43615 1.73700 -0.71602 
-0.41440 1.73700 -0.71602 
-0.39445 1.74500 -0.71932 
-0.38716 1.74500 -0.71932 
-0.29578 1.72200 -0.70983 
-0.25983 1.72200 -0.70983 
-0.23738 1.76900 -0.72921 
-0.22688 1.80300 -0.74322 
-0.19653 1.95000 -0.80382 
-0.16299 2.41900 -0.99715 
-0.15789 2.49800 -1.02971 
-0.15241 2.58200 -1.06434 
-0.13937 2.75000 -1.13359 
-0.11810 2.79000 -1.15008 
-0.09765 2.87400 -1.18471 
0.37305 2.89500 -1.19336 
0.40038 2.91800 -1.20284 
0.67496 3.05800 -1.26055 
0.75809 3.03300 -1.25025 
0.79608 3.03300 -1.25025 
0.81541 3.05800 -1.26055 
0.93226 3.10700 -1.28075 
0.98415 3.10700 -1.28075 
1.03604 3.10700 -1.28075 
1.21766 3.10700 -1.28075 
1.24361 3.10700 -1.28075 
1.45236 3.08200 -1.27045 
1.63252 3.08200 -1.27045 
1.68365 3.05800 -1.26055 
1.96635 3.18500 -1.31290 
1.99295 3.18500 -1.31290 
2.04614 3.18500 -1.31290 
2.04263 3.15900 -1.30219 
2.05582 3.15900 -1.30219 
2.06901 3.15900 -1.30219 
2.10430 3.13300 -1.29147 
2.28005 3.15900 -1.30219 
2.30643 3.15900 -1.30219 
2.45839 3.18500 -1.31290 
2.47169 3.18500 -1.31290 
2.51159 3.18500 -1.31290 
2.59138 3.18500 -1.31290 
2.63617 3.15900 -1.30219 
2.71788 3.05800 -1.26055 
2.78172 3.05800 -1.26055 
2.92635 3.15900 -1.30219 
2.96374 3.18500 -1.31290 
3.08161 3.23900 -1.33516 
3.26007 3.35300 -1.38216 
3.37632 3.44300 -1.41926 
3.51774 3.57200 -1.47243 
-1.52111 1.64000 -0.68288 
-1.48052 1.63300 -0.67997 
-1.48002 1.64000 -0.68288 
-1.47259 1.64700 -0.68580 
-1.46592 1.65500 -0.68913 
-1.45044 1.66900 -0.69496 
-1.42906 1.74500 -0.72660 
-1.41789 1.78600 -0.74367 
-1.35464 2.00100 -0.83320 
-1.35084 2.03300 -0.84652 
-1.34444 2.08900 -0.86984 
-1.34275 2.10000 -0.87442 
-1.33694 2.14700 -0.89399 
-1.32475 2.24800 -0.93605 
-1.29580 2.33100 -0.97061 
-1.27816 2.38900 -0.99476 
-1.25381 2.41900 -1.00725 
-1.20619 2.53100 -1.05388 
-1.20650 2.60000 -1.08261 
-1.20392 2.61800 -1.09011 
-1.20940 2.65400 -1.10510 
-1.19299 2.69200 -1.12092 
-0.69000 1.73700 -0.72327 
-0.63076 1.71400 -0.71369 
-0.61933 1.72200 -0.71702 
-0.61214 1.72200 -0.71702 
-0.56900 1.72200 -0.71702 
-0.55462 1.72200 -0.71702 
-0.50910 1.71400 -0.71369 
-0.50194 1.71400 -0.71369 
-0.48047 1.71400 -0.71369 
-0.44469 1.71400 -0.71369 
-0.43239 1.72200 -0.71702 
-0.33173 1.72200 -0.71702 
-0.28473 1.69900 -0.70745 
-0.25146 1.71400 -0.71369 
-0.21688 1.84600 -0.76866 
-0.20163 1.92100 -0.79989 
-0.19128 1.98000 -0.82445 
-0.17846 2.02200 -0.84194 
0.04778 2.96300 -1.23376 
0.19174 2.89500 -1.20545 
0.24009 2.89500 -1.20545 
0.26426 2.89500 -1.20545 
0.28844 2.89500 -1.20545 
0.33679 2.89500 -1.20545 
0.34888 2.89500 -1.20545 
0.45250 2.94000 -1.22419 
0.46842 2.96300 -1.23376 
0.50946 2.98600 -1.24334 
0.60612 3.03300 -1.26291 
0.63145 3.03300 -1.26291 
0.77722 3.00900 -1.25292 
0.83407 3.03300 -1.26291 
0.95049 3.08200 -1.28331 
0.97623 3.08200 -1.28331 
1.03247 3.05800 -1.27332 
1.04524 3.05800 -1.27332 
1.05801 3.05800 -1.27332 
1.17292 3.05800 -1.27332 
1.35168 3.05800 -1.27332 
1.40394 3.03300 -1.26291 
1.44194 3.03300 -1.26291 
1.45460 3.03300 -1.26291 
1.46726 3.03300 -1.26291 
1.51766 3.05800 -1.27332 
1.53043 3.05800 -1.27332 
1.64456 3.03300 -1.26291 
1.69521 3.03300 -1.26291 
1.83842 3.08200 -1.28331 
1.89225 3.10700 -1.29372 
1.93425 3.13300 -1.30455 
1.96041 3.13300 -1.30455 
1.98657 3.13300 -1.30455 
2.02582 3.13300 -1.30455 
2.02198 3.10700 -1.29372 
2.10865 3.08200 -1.28331 
2.17300 3.08200 -1.28331 
2.24251 3.10700 -1.29372 
2.27436 3.13300 -1.30455 
2.30052 3.13300 -1.30455 
2.35285 3.13300 -1.30455 
2.53066 3.15900 -1.31538 
2.65765 3.10700 -1.29372 
2.68359 3.10700 -1.29372 
2.72251 3.10700 -1.29372 
2.75618 3.05800 -1.27332 
2.76895 3.05800 -1.27332 
3.12189 3.26700 -1.36035 
3.17616 3.29500 -1.37201 
3.33265 3.41300 -1.42114 
3.40770 3.47500 -1.44696 
-1.45824 1.66200 -0.69898 
-1.44838 1.69100 -0.71118 
-1.43039 1.72900 -0.72716 
-1.42177 1.74500 -0.73389 
-1.42010 1.76100 -0.74062 
-1.40296 1.85500 -0.78015 
-1.39386 1.87400 -0.78814 
-1.37104 1.93000 -0.81169 
-1.35833 1.97000 -0.82851 
-1.35197 2.02200 -0.85038 
-1.35084 2.03300 -0.85501 
-1.33694 2.14700 -0.90295 
-1.33540 2.15900 -0.90800 
-1.32943 2.20900 -0.92903 
-1.32642 2.23500 -0.93996 
-1.32475 2.24800 -0.94543 
-1.23110 2.43400 -1.02366 
-1.20619 2.53100 -1.06445 
-1.20365 2.54800 -1.07160 
-1.19573 2.67300 -1.12417 
-0.64653 1.69900 -0.71454 
-0.46918 1.69900 -0.71454 
-0.39460 1.71400 -0.72085 
-0.31440 1.70600 -0.71749 
-0.28473 1.69900 -0.71454 
-0.22999 1.76900 -0.74398 
-0.18496 2.00100 -0.84155 
-0.17757 2.01200 -0.84618 
-0.17464 2.07700 -0.87352 
-0.17130 2.26200 -0.95132 
-0.10881 2.85200 -1.19945 
-0.05119 2.96300 -1.24614 
-0.02665 2.98600 -1.25581 
0.05969 2.94000 -1.23646 
0.11921 2.89500 -1.21754 
0.14339 2.89500 -1.21754 
0.25218 2.89500 -1.21754 
0.26426 2.89500 -1.21754 
0.28844 2.89500 -1.21754 
0.31261 2.89500 -1.21754 
0.32470 2.89500 -1.21754 
0.34888 2.89500 -1.21754 
0.57179 2.98600 -1.25581 
0.58426 2.98600 -1.25581 
0.62645 3.00900 -1.26548 
0.72140 2.98600 -1.25581 
0.93032 3.05800 -1.28609 
0.99870 3.03300 -1.27558 
1.09131 3.00900 -1.26548 
1.48078 3.00900 -1.26548 
1.55591 3.03300 -1.27558 
1.64411 3.00900 -1.26548 
1.70693 3.00900 -1.26548 
1.90276 3.08200 -1.29618 
1.94136 3.08200 -1.29618 
2.00571 3.08200 -1.29618 
2.09223 3.05800 -1.28609 
2.26308 3.08200 -1.29618 
2.39819 3.10700 -1.30670 
2.42413 3.10700 -1.30670 
3.04251 3.21200 -1.35086 
3.14917 3.26700 -1.37399 
3.40770 3.47500 -1.46147 
3.55122 3.60600 -1.51656 
3.63452 3.67500 -1.54558 
4.10610 4.06600 -1.71002 
-1.48734 1.63300 -0.69360 
-1.47259 1.64700 -0.69955 
-1.45645 1.68400 -0.71526 
-1.44942 1.68400 -0.71526 
-1.44838 1.69100 -0.71824 
-1.43986 1.70600 -0.72461 
-1.42976 1.73700 -0.73778 
-1.42097 1.75300 -0.74457 
-1.41675 1.79400 -0.76199 
-1.40749 1.81100 -0.76921 
-1.39616 1.84600 -0.78407 
-1.39420 1.86400 -0.79172 
-1.38069 1.92100 -0.81593 
-1.36300 2.00100 -0.84991 
-1.35464 2.00100 -0.84991 
-1.35084 2.03300 -0.86350 
-1.34689 2.06600 -0.87752 
-1.33826 2.06600 -0.87752 
-1.33672 2.07700 -0.88219 
-1.34275 2.10000 -0.89196 
-1.32355 2.26200 -0.96076 
-1.29580 2.33100 -0.99007 
-1.19815 2.58200 -1.09668 
-0.64653 1.69900 -0.72164 
-0.59220 1.70600 -0.72461 
-0.56371 1.70600 -0.72461 
-0.55659 1.70600 -0.72461 
-0.48815 1.69100 -0.71824 
-0.35002 1.70600 -0.72461 
-0.33439 1.69900 -0.72164 
-0.24317 1.70600 -0.72461 
-0.23416 1.74500 -0.74117 
-0.22142 1.82000 -0.77303 
-0.19128 1.98000 -0.84099 
-0.18403 1.99100 -0.84566 
-0.17356 2.17200 -0.92254 
-0.17054 2.53100 -1.07502 
-0.14241 2.81000 -1.19352 
-0.10965 2.87400 -1.22071 
-0.08696 2.91800 -1.23939 
0.04778 2.96300 -1.25851 
0.16756 2.89500 -1.22962 
0.20383 2.89500 -1.22962 
0.24009 2.89500 -1.22962 
0.48079 2.96300 -1.25851 
0.64660 2.98600 -1.26828 
0.91005 3.03300 -1.28824 
0.97823 3.00900 -1.27805 
1.03310 2.98600 -1.26828 
1.09543 2.98600 -1.26828 
1.15413 3.00900 -1.27805 
1.21694 3.00900 -1.27805 
1.41959 2.98600 -1.26828 
1.46946 2.98600 -1.26828 
1.58129 3.00900 -1.27805 
1.59385 3.00900 -1.27805 
1.68141 2.98600 -1.26828 
1.71881 2.98600 -1.26828 
1.84718 3.03300 -1.28824 
1.97732 3.05800 -1.29886 
1.99009 3.05800 -1.29886 
2.03714 3.03300 -1.28824 
2.03358 3.00900 -1.27805 
2.04615 3.00900 -1.27805 
2.09640 3.00900 -1.27805 
2.16378 3.03300 -1.28824 
2.27594 3.08200 -1.30905 
2.32742 3.08200 -1.30905 
2.35316 3.08200 -1.30905 
2.40463 3.08200 -1.30905 
2.45610 3.08200 -1.30905 
2.68359 3.10700 -1.31967 
2.73548 3.10700 -1.31967 
3.16281 3.26700 -1.38763 
-1.48687 1.64000 -0.70342 
-1.45653 1.67600 -0.71886 
-1.44814 1.69900 -0.72873 
-1.43898 1.72200 -0.73859 
-1.42976 1.73700 -0.74503 
-1.42829 1.75300 -0.75189 
-1.42097 1.75300 -0.75189 
-1.41917 1.76900 -0.75875 
-1.38747 1.85500 -0.79564 
-1.39086 1.90200 -0.81580 
-1.38148 1.91100 -0.81966 
-1.36897 1.95000 -0.83639 
-1.35369 2.01200 -0.86298 
-1.35084 2.03300 -0.87199 
-1.34962 2.04400 -0.87671 
-1.33826 2.06600 -0.88614 
-1.33672 2.07700 -0.89086 
-1.33139 2.19700 -0.94233 
-1.32943 2.20900 -0.94748 
-1.33413 2.24800 -0.96420 
-1.32475 2.24800 -0.96420 
-1.29379 2.34500 -1.00581 
-1.28005 2.37400 -1.01825 
-1.27816 2.38900 -1.02468 
-1.26391 2.41900 -1.03755 
-1.23110 2.43400 -1.04398 
-1.19565 2.60000 -1.11518 
-1.12268 2.58200 -1.10746 
-0.70774 1.74500 -0.74846 
-0.51639 1.69100 -0.72530 
-0.41581 1.68400 -0.72230 
-0.35567 1.69900 -0.72873 
-0.31035 1.68400 -0.72230 
-0.28788 1.67600 -0.71886 
-0.25989 1.67600 -0.71886 
-0.25289 1.67600 -0.71886 
-0.24809 1.69100 -0.72530 
-0.20362 1.94000 -0.83210 
-0.19235 1.99100 -0.85397 
-0.17651 2.20900 -0.94748 
-0.02665 2.98600 -1.28074 
0.07142 2.91800 -1.25158 
0.10712 2.89500 -1.24171 
0.11921 2.89500 -1.24171 
0.19174 2.89500 -1.24171 
0.30053 2.89500 -1.24171 
0.48079 2.96300 -1.27088 
0.49316 2.96300 -1.27088 
0.59213 2.96300 -1.27088 
0.68400 2.98600 -1.28074 
0.72140 2.98600 -1.28074 
0.72822 2.96300 -1.27088 
0.94054 3.00900 -1.29061 
0.97565 2.96300 -1.27088 
1.09937 2.96300 -1.27088 
1.13284 2.98600 -1.28074 
1.36972 2.98600 -1.28074 
1.44453 2.98600 -1.28074 
1.45699 2.98600 -1.28074 
1.48193 2.98600 -1.28074 
1.64401 2.98600 -1.28074 
1.74375 2.98600 -1.28074 
1.76869 2.98600 -1.28074 
1.87025 3.00900 -1.29061 
1.92316 3.03300 -1.30090 
1.99589 3.00900 -1.29061 
2.00845 3.00900 -1.29061 
2.09640 3.00900 -1.29061 
2.18910 3.03300 -1.30090 
2.25822 3.05800 -1.31163 
2.32206 3.05800 -1.31163 
2.37314 3.05800 -1.31163 
2.46897 3.08200 -1.32192 
2.62339 3.08200 -1.32192 
2.72251 3.10700 -1.33264 
3.01868 3.15900 -1.35495 
-1.51426 1.64000 -0.71027 
-1.48734 1.63300 -0.70724 
-1.47974 1.65500 -0.71677 
-1.45741 1.66900 -0.72283 
-1.40749 1.81100 -0.78433 
-1.39778 1.83800 -0.79602 
-1.39616 1.84600 -0.79949 
-1.38642 1.86400 -0.80728 
-1.36300 2.00100 -0.86662 
-1.33572 2.08900 -0.90473 
-1.33398 2.10000 -0.90949 
-1.33973 2.12300 -0.91945 
-1.25143 2.43400 -1.05414 
-1.20906 2.51500 -1.08923 
-1.19299 2.61800 -1.13383 
-1.16818 2.63600 -1.14163 
-0.71099 1.75300 -0.75921 
-0.67056 1.70600 -0.73885 
-0.64348 1.69100 -0.73236 
-0.57994 1.69100 -0.73236 
-0.48382 1.67600 -0.72586 
-0.45583 1.67600 -0.72586 
-0.44183 1.67600 -0.72586 
-0.38769 1.68400 -0.72933 
-0.26577 1.66900 -0.72283 
-0.24317 1.70600 -0.73885 
-0.22688 1.80300 -0.78086 
-0.19854 1.97000 -0.85319 
-0.18139 2.69200 -1.16588 
-0.16587 2.81000 -1.21699 
0.11921 2.89500 -1.25380 
0.22800 2.89500 -1.25380 
0.25218 2.89500 -1.25380 
0.41568 2.94000 -1.27329 
0.42795 2.94000 -1.27329 
0.54265 2.96300 -1.28325 
0.74059 2.96300 -1.28325 
0.79621 2.98600 -1.29321 
0.82115 2.98600 -1.29321 
0.84608 2.98600 -1.29321 
0.90842 2.98600 -1.29321 
0.92089 2.98600 -1.29321 
0.95091 2.96300 -1.28325 
1.09937 2.96300 -1.28325 
1.27976 3.00900 -1.30317 
1.31745 3.00900 -1.30317 
1.33002 3.00900 -1.30317 
1.34479 2.98600 -1.29321 
1.38219 2.98600 -1.29321 
1.38391 2.96300 -1.28325 
1.42103 2.96300 -1.28325 
1.43340 2.96300 -1.28325 
1.56949 2.96300 -1.28325 
1.64372 2.96300 -1.28325 
1.76743 2.96300 -1.28325 
1.79218 2.96300 -1.28325 
1.84349 2.98600 -1.29321 
1.90795 3.00900 -1.30317 
1.99310 2.98600 -1.29321 
2.04297 2.98600 -1.29321 
2.05544 2.98600 -1.29321 
2.10531 2.98600 -1.29321 
2.17178 3.00900 -1.30317 
2.27775 3.03300 -1.31357 
2.29042 3.03300 -1.31357 
2.39173 3.03300 -1.31357 
2.44974 3.05800 -1.32439 
2.62339 3.08200 -1.33479 
2.68773 3.08200 -1.33479 
2.74846 3.10700 -1.34562 
2.77781 3.08200 -1.33479 
3.04506 3.15900 -1.36814 
3.19009 3.26700 -1.41491 
3.48202 3.50600 -1.51842 
-1.51426 1.64000 -0.71712 
-1.50741 1.64000 -0.71712 
-1.49416 1.63300 -0.71406 
-1.48634 1.64700 -0.72018 
-1.47283 1.65500 -0.72368 
-1.46438 1.66900 -0.72980 
-1.45741 1.66900 -0.72980 
-1.45044 1.66900 -0.72980 
-1.44942 1.68400 -0.73636 
-1.44132 1.69100 -0.73942 
-1.42906 1.74500 -0.76303 
-1.41897 1.77800 -0.77746 
-1.41044 1.78600 -0.78096 
-1.40926 1.79400 -0.78446 
-1.39857 1.82900 -0.79976 
-1.36042 2.02200 -0.88415 
-1.34830 2.05500 -0.89858 
-1.33972 2.05500 -0.89858 
-1.33398 2.10000 -0.91826 
-1.33139 2.19700 -0.96068 
-1.32475 2.24800 -0.98298 
-1.32355 2.26200 -0.98910 
-1.30553 2.33100 -1.01927 
-1.28005 2.37400 -1.03807 
-1.23465 2.48200 -1.08530 
-1.22429 2.48200 -1.08530 
-1.10790 2.54800 -1.11416 
-0.62936 1.69100 -0.73942 
-0.62230 1.69100 -0.73942 
-0.61524 1.69100 -0.73942 
-0.57288 1.69100 -0.73942 
-0.49082 1.67600 -0.73286 
-0.37185 1.67600 -0.73286 
-0.35086 1.67600 -0.73286 
-0.27853 1.66200 -0.72674 
-0.24706 1.68400 -0.73636 
-0.19854 1.97000 -0.86142 
-0.18664 2.77000 -1.21123 
0.17965 2.89500 -1.26589 
0.22800 2.89500 -1.26589 
0.39113 2.94000 -1.28556 
0.41568 2.94000 -1.28556 
0.55877 2.91800 -1.27595 
0.58314 2.91800 -1.27595 
0.63664 2.94000 -1.28556 
0.66119 2.94000 -1.28556 
0.67346 2.94000 -1.28556 
0.69802 2.94000 -1.28556 
0.72257 2.94000 -1.28556 
0.80868 2.98600 -1.30568 
0.82115 2.98600 -1.30568 
0.83361 2.98600 -1.30568 
0.94353 2.94000 -1.28556 
0.96808 2.94000 -1.28556 
0.97302 2.91800 -1.27595 
1.05401 2.94000 -1.28556 
1.07856 2.94000 -1.28556 
1.16123 2.96300 -1.29562 
1.26998 2.98600 -1.30568 
1.35917 2.96300 -1.29562 
1.37154 2.96300 -1.29562 
1.45814 2.96300 -1.29562 
1.72916 2.94000 -1.28556 
1.75506 2.96300 -1.29562 
1.76743 2.96300 -1.29562 
1.79218 2.96300 -1.29562 
1.93076 2.98600 -1.30568 
1.97775 2.96300 -1.29562 
2.11778 2.98600 -1.30568 
2.19691 3.00900 -1.31574 
2.23460 3.00900 -1.31574 
2.24716 3.00900 -1.31574 
2.29742 3.00900 -1.31574 
2.61573 3.05800 -1.33716 
2.66200 3.08200 -1.34766 
2.70060 3.08200 -1.34766 
2.76895 3.05800 -1.33716 
2.86029 3.03300 -1.32623 
2.99494 3.10700 -1.35859 
3.03308 3.13300 -1.36996 
3.07144 3.15900 -1.38133 
3.31607 3.35300 -1.46616 
-1.43986 1.70600 -0.75310 
-1.42177 1.74500 -0.77032 
-1.38074 1.84600 -0.81490 
-1.38069 1.92100 -0.84801 
-1.37711 1.95000 -0.86081 
-1.36209 2.01200 -0.88818 
-1.32947 2.13500 -0.94248 
-1.32166 2.27500 -1.00428 
-1.32024 2.28900 -1.01046 
-1.29379 2.34500 -1.03518 
-1.27615 2.40400 -1.06123 
-1.21956 2.51500 -1.11023 
-0.81959 1.98000 -0.87406 
-0.68682 1.72900 -0.76325 
-0.62936 1.69100 -0.74648 
-0.62230 1.69100 -0.74648 
-0.61524 1.69100 -0.74648 
-0.50481 1.67600 -0.73986 
-0.48382 1.67600 -0.73986 
-0.43483 1.67600 -0.73986 
-0.37185 1.67600 -0.73986 
-0.30758 1.66900 -0.73677 
-0.25880 1.66900 -0.73677 
-0.24706 1.68400 -0.74339 
-0.24317 1.70600 -0.75310 
-0.20489 2.03300 -0.89745 
-0.08696 2.91800 -1.28813 
0.10712 2.89500 -1.27798 
0.21591 2.89500 -1.27798 
0.26426 2.89500 -1.27798 
0.47706 2.94000 -1.29784 
0.53441 2.91800 -1.28813 
0.57854 2.89500 -1.27798 
0.60272 2.89500 -1.27798 
0.63187 2.91800 -1.28813 
0.69802 2.94000 -1.29784 
0.71029 2.94000 -1.29784 
0.74712 2.94000 -1.29784 
0.82719 2.96300 -1.30799 
0.91898 2.94000 -1.29784 
1.00957 2.91800 -1.28813 
1.15221 2.94000 -1.29784 
1.30738 2.98600 -1.31815 
1.39772 2.94000 -1.29784 
1.48365 2.94000 -1.29784 
1.58220 2.91800 -1.28813 
1.77826 2.94000 -1.29784 
1.94064 2.96300 -1.30799 
2.06435 2.96300 -1.30799 
2.25492 2.98600 -1.31815 
2.30479 2.98600 -1.31815 
2.38536 3.00900 -1.32830 
2.54369 3.03300 -1.33889 
2.55636 3.03300 -1.33889 
2.58168 3.03300 -1.33889 
2.64127 3.05800 -1.34993 
2.73921 3.08200 -1.36053 
2.75208 3.08200 -1.36053 
3.16321 3.21200 -1.41791 
3.55912 3.53900 -1.56226 
-1.48687 1.64000 -0.73081 
-1.46592 1.65500 -0.73750 
-1.43426 1.69100 -0.75354 
-1.43395 1.69900 -0.75710 
-1.42318 1.72900 -0.77047 
-1.42097 1.75300 -0.78117 
-1.40298 1.78600 -0.79587 
-1.39011 1.83800 -0.81905 
-1.38292 1.90200 -0.84757 
-1.36300 2.00100 -0.89168 
-1.36209 2.01200 -0.89658 
-1.36042 2.02200 -0.90104 
-1.33826 2.06600 -0.92065 
-1.32798 2.14700 -0.95674 
-1.32798 2.22200 -0.99016 
-1.32475 2.24800 -1.00175 
-1.32166 2.27500 -1.01378 
-1.31812 2.30200 -1.02581 
-1.27615 2.40400 -1.07126 
-1.26391 2.41900 -1.07795 
-1.26159 2.43400 -1.08463 
-1.24729 2.46600 -1.09889 
-1.16020 2.61800 -1.16663 
-1.10790 2.54800 -1.13543 
-1.06195 2.46600 -1.09889 
-0.89768 2.14700 -0.95674 
-0.84608 2.04400 -0.91084 
-0.66655 1.71400 -0.76379 
-0.64348 1.69100 -0.75354 
-0.63642 1.69100 -0.75354 
-0.63234 1.69900 -0.75710 
-0.55875 1.69100 -0.75354 
-0.47682 1.67600 -0.74686 
-0.46982 1.67600 -0.74686 
-0.43483 1.67600 -0.74686 
-0.36485 1.67600 -0.74686 
-0.33546 1.66900 -0.74374 
-0.27045 1.65500 -0.73750 
-0.26465 1.66200 -0.74062 
-0.25772 1.66200 -0.74062 
-0.23826 1.72200 -0.76735 
-0.22675 1.93000 -0.86004 
-0.22435 1.98000 -0.88232 
-0.20539 2.22200 -0.99016 
-0.13463 2.89500 -1.29006 
-0.11045 2.89500 -1.29006 
-0.02565 2.87400 -1.28071 
0.10635 2.87400 -1.28071 
0.31261 2.89500 -1.29006 
0.51004 2.91800 -1.30031 
0.63898 2.89500 -1.29006 
0.71716 2.91800 -1.30031 
0.78395 2.94000 -1.31012 
0.83956 2.96300 -1.32037 
