ply
format ascii 1.0
comment pointcloud saved from Realsense Viewer
element vertex 1806
property float32 x
property float32 y
property float32 z
end_header
1.01317 1.43700 -0.47235 
1.02089 1.43100 -0.47038 
1.04342 1.42100 -0.46709 
1.08840 1.39500 -0.45855 
1.11127 1.38000 -0.45362 
1.14772 1.35500 -0.44540 
1.16331 1.36000 -0.44704 
1.17035 1.35500 -0.44540 
1.30437 1.36500 -0.44869 
1.30527 1.36000 -0.44704 
1.33052 1.32300 -0.43488 
-1.24842 1.34600 -0.44806 
-1.20346 1.34600 -0.44806 
-1.20229 1.35100 -0.44973 
-1.18537 1.35100 -0.44973 
-1.15919 1.36000 -0.45272 
-1.08072 1.45300 -0.48368 
-1.07910 1.45900 -0.48568 
-1.07300 1.45900 -0.48568 
-1.05834 1.46400 -0.48734 
-1.00629 1.50500 -0.50099 
-0.93021 1.53500 -0.51098 
-0.91280 1.56000 -0.51930 
-0.89490 1.58600 -0.52795 
-0.88220 1.59900 -0.53228 
-0.86673 1.62000 -0.53927 
-0.83304 1.64700 -0.54826 
-0.80593 1.66200 -0.55325 
-0.78511 1.66200 -0.55325 
-0.75332 1.68400 -0.56058 
-0.74629 1.68400 -0.56058 
-0.71280 1.72200 -0.57323 
-0.59840 1.81100 -0.60285 
-0.57381 1.82900 -0.60884 
-0.51729 1.90200 -0.63314 
-0.45353 1.97000 -0.65578 
-0.40018 1.99100 -0.66277 
-0.37712 2.00100 -0.66610 
-0.36239 2.01200 -0.66976 
-0.27428 2.04400 -0.68041 
-0.23534 2.07700 -0.69140 
-0.21926 2.08900 -0.69539 
-0.21164 2.10000 -0.69905 
-0.17156 2.14700 -0.71470 
-0.16259 2.14700 -0.71470 
-0.13728 2.17200 -0.72302 
-0.09405 2.22200 -0.73967 
-0.00132 2.28900 -0.76197 
0.03648 2.26200 -0.75298 
0.04564 2.24800 -0.74832 
0.07088 2.15900 -0.71870 
0.14465 2.18400 -0.72702 
0.21278 2.33100 -0.77595 
0.22537 2.26200 -0.75298 
0.27339 2.05500 -0.68408 
0.32988 2.03300 -0.67675 
0.33654 2.02200 -0.67309 
0.35168 2.01200 -0.66976 
0.45483 1.95000 -0.64912 
0.51535 1.87400 -0.62382 
0.53849 1.82000 -0.60585 
0.55780 1.76100 -0.58621 
0.57560 1.68400 -0.56058 
0.89944 2.34500 -0.78061 
1.29146 2.79000 -0.92874 
1.30534 2.77000 -0.92209 
1.36480 2.75000 -0.91543 
1.37629 2.75000 -0.91543 
1.40346 2.69200 -0.89612 
1.41463 2.53100 -0.84253 
1.41949 2.46600 -0.82089 
1.41123 2.43400 -0.81024 
1.41264 2.41900 -0.80524 
1.41507 2.38900 -0.79526 
1.30588 2.15900 -0.71870 
0.96312 1.52900 -0.50898 
0.96686 1.50500 -0.50099 
0.96926 1.49900 -0.49899 
0.98013 1.48700 -0.49500 
0.98236 1.48100 -0.49300 
0.98520 1.47600 -0.49134 
1.02089 1.43100 -0.47636 
1.04114 1.42600 -0.47469 
1.04709 1.42600 -0.47469 
1.07675 1.39500 -0.46437 
1.10005 1.39500 -0.46437 
1.11299 1.37500 -0.45771 
1.12924 1.36000 -0.45272 
1.24586 1.35100 -0.44973 
1.31238 1.32700 -0.44174 
1.33052 1.32300 -0.44040 
1.34009 1.32700 -0.44174 
-1.22699 1.34100 -0.45200 
-1.20459 1.34100 -0.45200 
-1.19899 1.34100 -0.45200 
-1.19665 1.35100 -0.45537 
-1.16345 1.36500 -0.46009 
-1.15476 1.37500 -0.46346 
-1.14743 1.38000 -0.46514 
-1.14580 1.38500 -0.46683 
-1.14243 1.39500 -0.47020 
-1.08910 1.44800 -0.48806 
-1.07910 1.45900 -0.49177 
-1.01480 1.49900 -0.50525 
-0.96110 1.52300 -0.51334 
-0.94838 1.52300 -0.51334 
-0.85637 1.62600 -0.54806 
-0.83992 1.64700 -0.55514 
-0.82327 1.65500 -0.55783 
-0.79205 1.66200 -0.56019 
-0.76035 1.68400 -0.56761 
-0.75332 1.68400 -0.56761 
-0.74939 1.69100 -0.56997 
-0.72380 1.71400 -0.57772 
-0.66403 1.74500 -0.58817 
-0.63335 1.76100 -0.59356 
-0.62462 1.77800 -0.59929 
-0.57858 1.82000 -0.61345 
-0.57381 1.82900 -0.61648 
-0.45941 1.96000 -0.66063 
-0.37079 2.01200 -0.67816 
-0.34559 2.01200 -0.67816 
-0.29135 2.04400 -0.68895 
-0.28281 2.04400 -0.68895 
-0.27575 2.05500 -0.69266 
-0.21926 2.08900 -0.70412 
-0.21164 2.10000 -0.70782 
-0.03930 2.27500 -0.76681 
-0.02999 2.28900 -0.77153 
0.09524 2.10000 -0.70782 
0.11342 2.11200 -0.71187 
0.13323 2.14700 -0.72366 
0.15644 2.22200 -0.74894 
0.16870 2.26200 -0.76243 
0.23584 2.18400 -0.73614 
0.24698 2.12300 -0.71558 
0.27339 2.05500 -0.69266 
0.37482 2.00100 -0.67445 
0.44898 1.96000 -0.66063 
0.50716 1.90200 -0.64109 
0.51535 1.87400 -0.63165 
0.56587 1.67600 -0.56491 
0.57047 1.66900 -0.56255 
0.62708 1.72900 -0.58277 
0.66144 1.80300 -0.60772 
0.90481 2.35900 -0.79512 
1.26062 2.85200 -0.96129 
1.36628 2.73000 -0.92017 
1.37768 2.73000 -0.92017 
1.40728 2.63600 -0.88849 
1.41954 2.61800 -0.88242 
1.41619 2.51500 -0.84770 
0.97071 1.51100 -0.50930 
1.01068 1.44200 -0.48604 
1.03882 1.43100 -0.48233 
1.04114 1.42600 -0.48065 
1.05305 1.42600 -0.48065 
1.11530 1.38500 -0.46683 
1.15195 1.36000 -0.45840 
1.30437 1.36500 -0.46009 
1.31792 1.32700 -0.44728 
-1.22139 1.34100 -0.45759 
-1.18537 1.35100 -0.46101 
-1.17973 1.35100 -0.46101 
-1.15319 1.38000 -0.47090 
-1.14580 1.38500 -0.47261 
-1.09424 1.43100 -0.48831 
-1.09061 1.44200 -0.49206 
-1.06446 1.46400 -0.49957 
-1.03004 1.47600 -0.50366 
-1.02116 1.48100 -0.50537 
-1.00854 1.49900 -0.51151 
-1.00001 1.50500 -0.51356 
-0.97631 1.51700 -0.51765 
-0.96364 1.51700 -0.51765 
-0.93021 1.53500 -0.52379 
-0.90070 1.57300 -0.53676 
-0.87889 1.59300 -0.54359 
-0.87265 1.60600 -0.54802 
-0.84958 1.62600 -0.55485 
-0.81636 1.65500 -0.56474 
-0.81287 1.66200 -0.56713 
-0.79539 1.66900 -0.56952 
-0.78145 1.66900 -0.56952 
-0.76351 1.69100 -0.57703 
-0.74584 1.69900 -0.57976 
-0.74179 1.70600 -0.58215 
-0.68274 1.73700 -0.59272 
-0.65243 1.75300 -0.59818 
-0.55361 1.83800 -0.62719 
-0.54593 1.83800 -0.62719 
-0.50073 1.93000 -0.65858 
-0.46176 1.97000 -0.67223 
-0.42512 1.99100 -0.67940 
-0.41054 2.00100 -0.68281 
-0.40219 2.00100 -0.68281 
-0.22667 2.07700 -0.70874 
-0.12052 2.19700 -0.74969 
-0.10273 2.20900 -0.75379 
0.09579 2.11200 -0.72069 
0.11342 2.11200 -0.72069 
0.12224 2.11200 -0.72069 
0.25307 2.10000 -0.71659 
0.31460 2.04400 -0.69748 
0.32313 2.04400 -0.69748 
0.39153 2.00100 -0.68281 
0.49045 1.93000 -0.65858 
0.49851 1.93000 -0.65858 
0.50956 1.91100 -0.65210 
0.51511 1.90200 -0.64903 
0.51782 1.88300 -0.64254 
0.55273 1.74500 -0.59545 
0.55235 1.69900 -0.57976 
0.56569 1.65500 -0.56474 
0.57951 1.65500 -0.56474 
0.71275 1.92100 -0.65551 
1.27981 2.79000 -0.95204 
1.36628 2.73000 -0.93157 
1.39073 2.71100 -0.92509 
1.40860 2.61800 -0.89335 
1.33612 2.20900 -0.75379 
0.97457 1.51700 -0.51765 
1.04709 1.42600 -0.48660 
1.05900 1.42600 -0.48660 
1.06931 1.41600 -0.48319 
1.09034 1.40500 -0.47943 
1.11703 1.38000 -0.47090 
1.11873 1.37500 -0.46920 
1.15195 1.36000 -0.46408 
1.27120 1.36000 -0.46408 
-1.23818 1.34100 -0.46319 
-1.11824 1.41600 -0.48910 
-1.10232 1.42600 -0.49255 
-1.08305 1.44800 -0.50015 
-1.02388 1.47600 -0.50982 
-0.98898 1.51700 -0.52399 
-0.94838 1.52300 -0.52606 
-0.92098 1.54100 -0.53228 
-0.88165 1.58600 -0.54782 
-0.84642 1.63300 -0.56405 
-0.76351 1.69100 -0.58409 
-0.74179 1.70600 -0.58927 
-0.64511 1.75300 -0.60550 
-0.64071 1.76100 -0.60827 
-0.57858 1.82000 -0.62865 
-0.44174 1.99100 -0.68771 
-0.40440 2.01200 -0.69496 
-0.37919 2.01200 -0.69496 
-0.36419 2.02200 -0.69842 
-0.17851 2.12300 -0.73330 
-0.11980 2.18400 -0.75437 
-0.05797 2.26200 -0.78132 
-0.03930 2.27500 -0.78581 
0.06404 2.23500 -0.77199 
0.08082 2.18400 -0.75437 
0.09579 2.11200 -0.72950 
0.14299 2.15900 -0.74574 
0.16669 2.23500 -0.77199 
0.21141 2.31600 -0.79997 
0.31101 2.07700 -0.71742 
0.35919 2.05500 -0.70982 
0.37434 2.04400 -0.70602 
0.45356 1.98000 -0.68391 
0.47353 1.96000 -0.67700 
0.49851 1.93000 -0.66664 
0.59584 1.66200 -0.57407 
1.12963 2.85200 -0.98511 
1.14154 2.85200 -0.98511 
1.24871 2.85200 -0.98511 
1.26552 2.81000 -0.97060 
1.27981 2.79000 -0.96369 
1.29146 2.79000 -0.96369 
1.31690 2.77000 -0.95678 
1.41264 2.41900 -0.83555 
1.04172 1.67600 -0.57891 
0.97457 1.51700 -0.52399 
0.97552 1.49900 -0.51777 
1.04479 1.43100 -0.49428 
1.07656 1.41000 -0.48703 
1.21202 1.35100 -0.46665 
1.22330 1.35100 -0.46665 
1.29771 1.37000 -0.47321 
1.31663 1.36000 -0.46976 
-1.11032 1.42100 -0.49676 
-1.04612 1.46400 -0.51179 
-0.99531 1.51700 -0.53032 
-0.92741 1.54100 -0.53871 
-0.92098 1.54100 -0.53871 
-0.90628 1.56000 -0.54535 
-0.86885 1.59900 -0.55899 
-0.81287 1.66200 -0.58101 
-0.78144 1.68400 -0.58870 
-0.75293 1.69900 -0.59394 
-0.74891 1.70600 -0.59639 
-0.73811 1.71400 -0.59919 
-0.69000 1.73700 -0.60723 
-0.63335 1.76100 -0.61562 
-0.61997 1.78600 -0.62436 
-0.57098 1.82000 -0.63624 
-0.52775 1.85500 -0.64848 
-0.48150 1.95000 -0.68169 
-0.47578 1.96000 -0.68519 
-0.40440 2.01200 -0.70336 
-0.34920 2.03300 -0.71071 
-0.33402 2.04400 -0.71455 
-0.29291 2.05500 -0.71840 
-0.24272 2.06600 -0.72224 
-0.22667 2.07700 -0.72609 
-0.03930 2.27500 -0.79531 
-0.01094 2.30200 -0.80474 
0.00834 2.31600 -0.80964 
0.05569 2.27500 -0.79531 
0.15377 2.18400 -0.76349 
0.17815 2.26200 -0.79076 
0.23584 2.18400 -0.76349 
0.36706 2.10000 -0.73413 
0.39130 2.08900 -0.73028 
0.39773 2.07700 -0.72609 
0.44023 2.03300 -0.71071 
0.45837 2.00100 -0.69952 
0.47594 1.97000 -0.68868 
0.50920 1.94000 -0.67819 
0.54099 1.80300 -0.63030 
0.54487 1.67600 -0.58590 
0.54898 1.62600 -0.56842 
0.55817 1.63300 -0.57087 
1.21919 2.89500 -1.01205 
1.24635 2.87400 -1.00471 
1.26552 2.81000 -0.98233 
1.31476 2.79000 -0.97534 
1.36628 2.73000 -0.95437 
1.41222 2.56500 -0.89668 
0.99679 1.59300 -0.55689 
0.97068 1.54100 -0.53871 
1.00884 1.44800 -0.50620 
1.07523 1.41600 -0.49501 
1.11967 1.40500 -0.49117 
1.12280 1.38000 -0.48243 
1.14059 1.36000 -0.47544 
1.19170 1.36000 -0.47544 
1.25521 1.35500 -0.47369 
1.26552 1.36000 -0.47544 
1.31393 1.37500 -0.48068 
1.31487 1.37000 -0.47893 
1.31577 1.36500 -0.47718 
1.31744 1.35500 -0.47369 
1.32128 1.33600 -0.46705 
1.32289 1.33200 -0.46565 
1.35422 1.34100 -0.46879 
-1.24472 1.33600 -0.47262 
-1.21683 1.33600 -0.47262 
-1.21125 1.33600 -0.47262 
-1.19899 1.34100 -0.47439 
-1.19784 1.34600 -0.47616 
-1.18191 1.36000 -0.48111 
-1.16624 1.37500 -0.48642 
-1.11032 1.42100 -0.50269 
-1.10232 1.42600 -0.50446 
-1.10021 1.43100 -0.50623 
-1.08072 1.45300 -0.51401 
-1.06446 1.46400 -0.51790 
-1.03813 1.47000 -0.52003 
-1.02388 1.47600 -0.52215 
-1.01697 1.49300 -0.52816 
-0.99531 1.51700 -0.53665 
-0.98264 1.51700 -0.53665 
-0.92380 1.53500 -0.54302 
-0.90280 1.55400 -0.54974 
-0.88436 1.57900 -0.55859 
-0.87776 1.57900 -0.55859 
-0.78144 1.68400 -0.59573 
-0.74179 1.70600 -0.60351 
-0.73811 1.71400 -0.60634 
-0.63623 1.76900 -0.62580 
-0.62884 1.76900 -0.62580 
-0.61252 1.78600 -0.63182 
-0.59576 1.80300 -0.63783 
-0.58328 1.81100 -0.64066 
-0.53826 1.83800 -0.65021 
-0.53289 1.84600 -0.65304 
-0.50378 1.91100 -0.67604 
-0.44174 1.99100 -0.70434 
-0.43343 1.99100 -0.70434 
-0.39599 2.01200 -0.71177 
-0.36617 2.03300 -0.71919 
-0.33402 2.04400 -0.72309 
-0.29291 2.05500 -0.72698 
-0.27575 2.05500 -0.72698 
-0.14635 2.17200 -0.76837 
-0.05761 2.24800 -0.79525 
-0.01094 2.30200 -0.81436 
0.08130 2.19700 -0.77721 
0.10461 2.11200 -0.74714 
0.13106 2.11200 -0.74714 
0.21717 2.27500 -0.80480 
0.27938 2.10000 -0.74290 
0.44364 2.08900 -0.73900 
0.44738 2.06600 -0.73087 
0.53355 1.88300 -0.66613 
0.54063 1.75300 -0.62014 
0.54038 1.70600 -0.60351 
0.56049 1.62000 -0.57309 
0.57180 1.63300 -0.57769 
0.59333 1.65500 -0.58547 
1.09343 2.79000 -0.98699 
1.14154 2.85200 -1.00892 
1.19835 2.87400 -1.01671 
1.23435 2.87400 -1.01671 
1.35160 2.77000 -0.97992 
1.35332 2.75000 -0.97284 
1.36628 2.73000 -0.96576 
1.39073 2.71100 -0.95904 
1.40581 2.65400 -0.93888 
1.42414 2.54800 -0.90138 
1.42748 2.49800 -0.88369 
1.42870 2.48200 -0.87803 
1.40084 2.31600 -0.81931 
0.98408 1.49300 -0.52816 
0.99137 1.47600 -0.52215 
0.99753 1.47600 -0.52215 
1.03882 1.43100 -0.50623 
1.05674 1.43100 -0.50623 
1.12335 1.39500 -0.49350 
1.12686 1.38500 -0.48996 
1.13492 1.36000 -0.48111 
1.14059 1.36000 -0.48111 
1.14627 1.36000 -0.48111 
1.18602 1.36000 -0.48111 
1.19738 1.36000 -0.48111 
1.20306 1.36000 -0.48111 
1.21766 1.35100 -0.47793 
1.27587 1.36500 -0.48288 
1.30244 1.37500 -0.48642 
1.37553 1.38500 -0.48996 
-1.19101 1.35100 -0.48357 
-1.18759 1.36000 -0.48679 
-1.17485 1.36500 -0.48858 
-1.15159 1.38500 -0.49574 
-1.13483 1.40000 -0.50111 
-1.13116 1.41000 -0.50469 
-1.07466 1.45300 -0.52008 
-1.07057 1.46400 -0.52402 
-1.05223 1.46400 -0.52402 
-1.04612 1.46400 -0.52402 
-1.04427 1.47000 -0.52617 
-1.01909 1.48700 -0.53225 
-1.00629 1.50500 -0.53869 
-0.94838 1.52300 -0.54514 
-0.86218 1.59900 -0.57234 
-0.85320 1.62000 -0.57986 
-0.82675 1.66200 -0.59489 
-0.80572 1.67600 -0.59990 
-0.79173 1.67600 -0.59990 
-0.78144 1.68400 -0.60276 
-0.76003 1.69900 -0.60813 
-0.74527 1.71400 -0.61350 
-0.73437 1.72200 -0.61636 
-0.71280 1.72200 -0.61636 
-0.70126 1.72900 -0.61887 
-0.69725 1.73700 -0.62173 
-0.65243 1.75300 -0.62746 
-0.64806 1.76100 -0.63032 
-0.61252 1.78600 -0.63927 
-0.59084 1.81100 -0.64822 
-0.58328 1.81100 -0.64822 
-0.57858 1.82000 -0.65144 
-0.51213 1.88300 -0.67399 
-0.48150 1.95000 -0.69797 
-0.41890 2.00100 -0.71623 
-0.31695 2.04400 -0.73162 
-0.29291 2.05500 -0.73556 
-0.24272 2.06600 -0.73949 
-0.15449 2.15900 -0.77278 
-0.07594 2.23500 -0.79999 
0.03712 2.30200 -0.82397 
0.11219 2.08900 -0.74773 
0.13032 2.10000 -0.75166 
0.18759 2.26200 -0.80965 
0.19939 2.28900 -0.81931 
0.21593 2.26200 -0.80965 
0.22807 2.19700 -0.78638 
0.28979 2.11200 -0.75596 
0.51143 1.98000 -0.70871 
0.53099 1.90200 -0.68079 
0.53610 1.89200 -0.67721 
0.54116 1.82900 -0.65466 
0.54002 1.64000 -0.58701 
0.54696 1.62000 -0.57986 
0.56935 1.62600 -0.58200 
0.64485 1.77800 -0.63641 
1.00415 2.61800 -0.93707 
1.31245 2.81000 -1.00580 
1.39355 2.67300 -0.95676 
1.46205 2.43400 -0.87121 
0.99961 1.47000 -0.52617 
1.00575 1.47000 -0.52617 
1.00776 1.46400 -0.52402 
1.01041 1.45900 -0.52223 
1.01670 1.44200 -0.51614 
1.02272 1.44200 -0.51614 
1.04479 1.43100 -0.51221 
1.07309 1.42100 -0.50863 
1.11967 1.40500 -0.50290 
1.12738 1.40000 -0.50111 
1.14059 1.36000 -0.48679 
1.14627 1.36000 -0.48679 
1.16758 1.36500 -0.48858 
1.27017 1.36500 -0.48858 
1.28627 1.37000 -0.49037 
1.31870 1.38000 -0.49395 
1.42612 1.44200 -0.51614 
-1.20346 1.34600 -0.48740 
-1.18888 1.35500 -0.49066 
-1.14243 1.39500 -0.50514 
-1.13483 1.40000 -0.50696 
-1.12715 1.40500 -0.50877 
-1.08682 1.43700 -0.52035 
-1.08458 1.44200 -0.52216 
-1.01909 1.48700 -0.53846 
-0.91739 1.53500 -0.55584 
-0.88674 1.56000 -0.56489 
-0.85924 1.60600 -0.58155 
-0.83709 1.65500 -0.59929 
-0.69000 1.73700 -0.62899 
-0.63204 1.77800 -0.64383 
-0.60329 1.80300 -0.65289 
-0.59576 1.80300 -0.65289 
-0.55853 1.82900 -0.66230 
-0.45353 1.97000 -0.71336 
-0.41680 1.99100 -0.72096 
-0.41054 2.00100 -0.72458 
-0.35769 2.03300 -0.73617 
-0.32548 2.04400 -0.74015 
-0.31695 2.04400 -0.74015 
-0.29135 2.04400 -0.74015 
-0.13728 2.17200 -0.78650 
-0.11980 2.18400 -0.79085 
-0.11134 2.19700 -0.79556 
-0.08527 2.23500 -0.80932 
-0.00133 2.31600 -0.83865 
0.00834 2.31600 -0.83865 
0.05603 2.28900 -0.82887 
0.17500 2.22200 -0.80461 
0.20520 2.24800 -0.81403 
0.21335 2.23500 -0.80932 
0.23811 2.12300 -0.76876 
0.26919 2.08900 -0.75645 
0.36767 2.20900 -0.79990 
0.41170 2.24800 -0.81403 
0.46260 2.22200 -0.80461 
0.48555 2.15900 -0.78180 
0.49858 2.10000 -0.76043 
0.53848 1.84600 -0.66846 
0.53771 1.63300 -0.59133 
0.54019 1.62000 -0.58662 
1.30072 2.81000 -1.01753 
1.33806 2.79000 -1.01029 
1.38098 2.69200 -0.97480 
1.40728 2.63600 -0.95452 
1.41829 2.63600 -0.95452 
1.41954 2.61800 -0.94801 
1.44541 2.54800 -0.92266 
1.17425 1.90200 -0.68873 
0.97702 1.51100 -0.54715 
1.06272 1.43100 -0.51818 
1.16189 1.36500 -0.49428 
1.20306 1.36000 -0.49247 
1.21202 1.35100 -0.48921 
1.22894 1.35100 -0.48921 
1.25984 1.36000 -0.49247 
1.28055 1.37000 -0.49609 
1.31770 1.38500 -0.50152 
1.35433 1.40500 -0.50877 
1.44742 1.47600 -0.53448 
-1.20229 1.35100 -0.49485 
-1.19665 1.35100 -0.49485 
-1.18759 1.36000 -0.49815 
-1.18055 1.36500 -0.49998 
-1.16050 1.37500 -0.50364 
-1.14994 1.39000 -0.50914 
-1.10439 1.42100 -0.52049 
-1.09041 1.42600 -0.52232 
-1.08682 1.43700 -0.52635 
-1.07300 1.45900 -0.53441 
-1.06691 1.45900 -0.53441 
-1.02735 1.48100 -0.54247 
-0.88674 1.56000 -0.57141 
-0.88099 1.57300 -0.57617 
-0.86841 1.58600 -0.58093 
-0.85924 1.60600 -0.58826 
-0.85320 1.62000 -0.59338 
-0.84958 1.62600 -0.59558 
-0.83709 1.65500 -0.60620 
-0.80236 1.66900 -0.61133 
-0.78144 1.68400 -0.61683 
-0.76351 1.69100 -0.61939 
-0.75293 1.69900 -0.62232 
-0.69725 1.73700 -0.63624 
-0.69000 1.73700 -0.63624 
-0.61252 1.78600 -0.65419 
-0.49038 1.92100 -0.70364 
-0.47903 1.94000 -0.71060 
-0.45123 1.96000 -0.71792 
-0.43930 1.98000 -0.72525 
-0.17156 2.14700 -0.78642 
-0.13804 2.18400 -0.79997 
0.06518 2.27500 -0.83330 
0.07337 2.23500 -0.81865 
0.21087 2.20900 -0.80913 
0.23553 2.10000 -0.76920 
0.25030 2.07700 -0.76078 
0.29691 2.10000 -0.76920 
0.30903 2.12300 -0.77763 
0.36767 2.20900 -0.80913 
0.46965 2.30200 -0.84319 
0.53364 2.06600 -0.75675 
0.53849 1.82000 -0.66664 
0.53326 1.70600 -0.62488 
0.55372 1.62000 -0.59338 
0.59138 1.66900 -0.61133 
0.61986 1.72900 -0.63331 
0.75389 2.05500 -0.75272 
1.13313 2.83100 -1.03696 
1.22490 2.85200 -1.04465 
1.33806 2.79000 -1.02194 
1.41689 2.65400 -0.97212 
1.43047 2.61800 -0.95894 
1.45392 2.58200 -0.94575 
1.46747 2.53100 -0.92707 
0.99255 1.48700 -0.54467 
1.01839 1.45300 -0.53221 
1.04479 1.43100 -0.52416 
1.07687 1.42600 -0.52232 
1.08877 1.42600 -0.52232 
1.10068 1.42600 -0.52232 
1.10276 1.42100 -0.52049 
1.12738 1.40000 -0.51280 
1.13432 1.38000 -0.50548 
1.14479 1.36500 -0.49998 
1.15049 1.36500 -0.49998 
1.17898 1.36500 -0.49998 
1.18468 1.36500 -0.49998 
1.19170 1.36000 -0.49815 
1.26447 1.36500 -0.49998 
-1.22431 1.33200 -0.49345 
-1.19326 1.36000 -0.50383 
-1.15159 1.38500 -0.51309 
-1.12715 1.40500 -0.52050 
-1.08446 1.42600 -0.52828 
-1.08082 1.43700 -0.53235 
-1.07856 1.44200 -0.53421 
-1.07701 1.44800 -0.53643 
-1.05223 1.46400 -0.54236 
-1.03813 1.47000 -0.54458 
-1.01480 1.49900 -0.55532 
-0.96110 1.52300 -0.56421 
-0.93296 1.52900 -0.56644 
-0.90458 1.53500 -0.56866 
-0.89524 1.54100 -0.57088 
-0.89227 1.54700 -0.57310 
-0.88361 1.56600 -0.58014 
-0.86218 1.59900 -0.59237 
-0.85320 1.62000 -0.60015 
-0.84958 1.62600 -0.60237 
-0.83992 1.64700 -0.61015 
-0.81981 1.66200 -0.61571 
-0.80236 1.66900 -0.61830 
-0.78473 1.67600 -0.62089 
-0.76351 1.69100 -0.62645 
-0.71280 1.72200 -0.63793 
-0.64806 1.76100 -0.65238 
-0.51474 1.86400 -0.69054 
-0.45941 1.96000 -0.72610 
-0.45123 1.96000 -0.72610 
-0.44531 1.97000 -0.72981 
-0.38759 2.01200 -0.74537 
-0.34731 2.02200 -0.74907 
-0.31695 2.04400 -0.75722 
-0.25859 2.05500 -0.76130 
-0.24272 2.06600 -0.76537 
-0.18052 2.14700 -0.79538 
-0.14716 2.18400 -0.80909 
-0.05797 2.26200 -0.83798 
-0.03955 2.28900 -0.84799 
-0.01094 2.30200 -0.85280 
0.03712 2.30200 -0.85280 
0.05603 2.28900 -0.84799 
0.08174 2.20900 -0.81835 
0.12889 2.07700 -0.76945 
0.41664 2.27500 -0.84280 
0.47842 2.34500 -0.86873 
0.48821 2.34500 -0.86873 
0.53063 2.27500 -0.84280 
0.55146 2.13500 -0.79094 
0.53341 1.68400 -0.62386 
0.53338 1.66200 -0.61571 
1.33806 2.79000 -1.03359 
1.37629 2.75000 -1.01877 
1.39222 2.69200 -0.99728 
1.40472 2.67300 -0.99024 
1.41689 2.65400 -0.98320 
1.43047 2.61800 -0.96987 
1.47548 2.58200 -0.95653 
1.49861 2.54800 -0.94394 
1.51989 2.54800 -0.94394 
1.52120 2.51500 -0.93171 
0.99462 1.57900 -0.58496 
1.02272 1.44200 -0.53421 
1.04917 1.43700 -0.53235 
1.06272 1.43100 -0.53013 
1.07687 1.42600 -0.52828 
1.08282 1.42600 -0.52828 
1.12918 1.39500 -0.51679 
1.12856 1.38000 -0.51124 
1.18468 1.36500 -0.50568 
1.19170 1.36000 -0.50383 
1.19738 1.36000 -0.50383 
1.24390 1.35500 -0.50198 
1.28522 1.37500 -0.50938 
1.61509 1.64000 -0.60756 
-1.14580 1.38500 -0.51887 
-1.12715 1.40500 -0.52636 
-1.11233 1.41600 -0.53049 
-1.10439 1.42100 -0.53236 
-1.08682 1.43700 -0.53835 
-1.05223 1.46400 -0.54847 
-1.05040 1.47000 -0.55072 
-1.03813 1.47000 -0.55072 
-1.03620 1.47600 -0.55296 
-1.02530 1.48700 -0.55709 
-1.00798 1.51700 -0.56832 
-0.99289 1.52300 -0.57057 
-0.97381 1.52300 -0.57057 
-0.92658 1.52900 -0.57282 
-0.88361 1.56600 -0.58668 
-0.87503 1.58600 -0.59417 
-0.86299 1.61300 -0.60429 
-0.82327 1.65500 -0.62002 
-0.79173 1.67600 -0.62789 
-0.77441 1.68400 -0.63089 
-0.70126 1.72900 -0.64775 
-0.69725 1.73700 -0.65074 
-0.66403 1.74500 -0.65374 
-0.60028 1.79400 -0.67210 
-0.45123 1.96000 -0.73429 
-0.39186 1.99100 -0.74590 
-0.38548 2.00100 -0.74965 
-0.36239 2.01200 -0.75377 
-0.28281 2.04400 -0.76576 
-0.20510 2.12300 -0.79535 
-0.18949 2.14700 -0.80435 
-0.16449 2.17200 -0.81371 
-0.12969 2.19700 -0.82308 
-0.09460 2.23500 -0.83731 
-0.03955 2.28900 -0.85754 
-0.02043 2.28900 -0.85754 
0.07337 2.23500 -0.83731 
0.45316 2.31600 -0.86766 
0.49113 2.35900 -0.88377 
0.55954 2.31600 -0.86766 
0.54002 1.64000 -0.61440 
0.54453 1.63300 -0.61178 
0.57671 1.64700 -0.61703 
1.09767 2.83100 -1.06060 
1.16536 2.85200 -1.06846 
1.20108 2.85200 -1.06846 
1.32641 2.79000 -1.04524 
1.32847 2.77000 -1.03774 
1.35160 2.77000 -1.03774 
1.36480 2.75000 -1.03025 
1.37941 2.71100 -1.01564 
1.45320 2.60000 -0.97406 
1.47491 2.60000 -0.97406 
1.51860 2.58200 -0.96731 
0.98408 1.49300 -0.55933 
0.98634 1.48700 -0.55709 
0.99472 1.48100 -0.55484 
1.00091 1.48100 -0.55484 
1.02697 1.44800 -0.54247 
1.04078 1.44200 -0.54023 
1.04317 1.43700 -0.53835 
1.06717 1.43700 -0.53835 
1.11259 1.42600 -0.53423 
1.14326 1.37000 -0.51325 
1.19738 1.36000 -0.50951 
1.20306 1.36000 -0.50951 
1.20874 1.36000 -0.50951 
1.22692 1.35500 -0.50763 
1.23258 1.35500 -0.50763 
1.23824 1.35500 -0.50763 
1.27483 1.37000 -0.51325 
1.29566 1.38000 -0.51700 
1.35671 1.42600 -0.53423 
1.77378 1.78600 -0.66910 
-1.24656 1.33200 -0.50458 
-1.19894 1.36000 -0.51518 
-1.19326 1.36000 -0.51518 
-1.13660 1.39500 -0.52844 
-1.11939 1.41000 -0.53413 
-0.94838 1.52300 -0.57693 
-0.88674 1.56000 -0.59095 
-0.88361 1.56600 -0.59322 
-0.87503 1.58600 -0.60080 
-0.87224 1.59300 -0.60345 
-0.79539 1.66900 -0.63224 
-0.77773 1.67600 -0.63489 
-0.75645 1.69100 -0.64057 
-0.74179 1.70600 -0.64625 
-0.72718 1.72200 -0.65231 
-0.71999 1.72200 -0.65231 
-0.71280 1.72200 -0.65231 
-0.70847 1.72900 -0.65497 
-0.64511 1.75300 -0.66406 
-0.64071 1.76100 -0.66709 
-0.62146 1.76900 -0.67012 
-0.52775 1.85500 -0.70270 
-0.50141 1.90200 -0.72050 
-0.49347 1.90200 -0.72050 
-0.47093 1.94000 -0.73490 
-0.39186 1.99100 -0.75422 
-0.36877 2.00100 -0.75800 
-0.36239 2.01200 -0.76217 
-0.27428 2.04400 -0.77429 
-0.25859 2.05500 -0.77846 
-0.15628 2.18400 -0.82733 
-0.13886 2.19700 -0.83225 
-0.13040 2.20900 -0.83680 
-0.11261 2.22200 -0.84172 
-0.06741 2.26200 -0.85687 
-0.02043 2.28900 -0.86710 
0.08890 2.15900 -0.81786 
0.11155 2.07700 -0.78679 
0.17325 2.08900 -0.79134 
0.20694 2.07700 -0.78679 
0.24367 2.02200 -0.76596 
0.28046 2.04400 -0.77429 
0.29055 2.05500 -0.77846 
0.33562 2.12300 -0.80422 
0.37262 2.18400 -0.82733 
0.38611 2.20900 -0.83680 
0.39999 2.23500 -0.84665 
0.43832 2.28900 -0.86710 
0.59371 2.26200 -0.85687 
0.57605 2.03300 -0.77013 
0.56983 1.64700 -0.62390 
0.57951 1.65500 -0.62693 
1.04330 2.75000 -1.04173 
1.12131 2.83100 -1.07242 
1.23952 2.83100 -1.07242 
1.25379 2.81000 -1.06446 
1.30311 2.79000 -1.05689 
1.35332 2.75000 -1.04173 
1.45233 2.61800 -0.99173 
1.48577 2.60000 -0.98491 
1.54005 2.60000 -0.98491 
1.38706 2.26200 -0.85687 
0.97712 1.54100 -0.58375 
0.97206 1.52300 -0.57693 
0.97702 1.51100 -0.57239 
1.00709 1.48100 -0.56102 
1.03476 1.44200 -0.54625 
1.04078 1.44200 -0.54625 
1.04317 1.43700 -0.54435 
1.04917 1.43700 -0.54435 
1.14898 1.37000 -0.51897 
1.19038 1.36500 -0.51708 
1.19738 1.36000 -0.51518 
1.20306 1.36000 -0.51518 
1.20874 1.36000 -0.51518 
1.20995 1.35500 -0.51329 
1.23824 1.35500 -0.51329 
-1.22241 1.33600 -0.51167 
-1.20793 1.35100 -0.51742 
-1.20462 1.36000 -0.52086 
-1.14901 1.37500 -0.52661 
-1.13660 1.39500 -0.53427 
-1.11350 1.41000 -0.54001 
-1.07254 1.44200 -0.55227 
-1.04427 1.47000 -0.56299 
-1.02735 1.48100 -0.56720 
-1.02106 1.49900 -0.57410 
-0.91099 1.53500 -0.58789 
-0.86299 1.61300 -0.61776 
-0.85637 1.62600 -0.62274 
-0.83635 1.64000 -0.62810 
-0.74584 1.69900 -0.65070 
-0.73096 1.71400 -0.65644 
-0.70847 1.72900 -0.66219 
-0.67860 1.74500 -0.66831 
-0.67131 1.74500 -0.66831 
-0.66403 1.74500 -0.66831 
-0.64511 1.75300 -0.67138 
-0.62884 1.76900 -0.67751 
-0.61407 1.76900 -0.67751 
-0.52252 1.86400 -0.71389 
-0.51213 1.88300 -0.72117 
-0.45707 1.95000 -0.74683 
-0.35399 2.01200 -0.77057 
-0.34559 2.01200 -0.77057 
-0.32879 2.01200 -0.77057 
-0.32198 2.02200 -0.77440 
-0.26717 2.05500 -0.78704 
-0.25859 2.05500 -0.78704 
-0.25135 2.06600 -0.79125 
-0.22918 2.10000 -0.80427 
-0.19734 2.13500 -0.81768 
-0.17356 2.17200 -0.83185 
-0.15628 2.18400 -0.83644 
-0.13962 2.20900 -0.84602 
-0.05830 2.27500 -0.87130 
-0.02999 2.28900 -0.87666 
-0.02043 2.28900 -0.87666 
0.02736 2.28900 -0.87666 
0.03669 2.27500 -0.87130 
0.04619 2.27500 -0.87130 
0.13465 2.03300 -0.77861 
0.16951 2.04400 -0.78283 
0.21727 2.01200 -0.77057 
0.39086 2.18400 -0.83644 
0.40456 2.20900 -0.84602 
0.44260 2.26200 -0.86632 
0.59337 2.37400 -0.90921 
0.62398 1.76100 -0.67444 
0.90309 2.43400 -0.93219 
1.18917 2.85200 -1.09228 
1.38098 2.69200 -1.03100 
1.43047 2.61800 -1.00266 
1.47419 2.61800 -1.00266 
1.50698 2.61800 -1.00266 
1.58350 2.61800 -1.00266 
0.98408 1.49300 -0.57180 
1.00369 1.47600 -0.56529 
1.00986 1.47600 -0.56529 
1.04078 1.44200 -0.55227 
1.10317 1.43700 -0.55035 
1.11259 1.42600 -0.54614 
1.12252 1.41600 -0.54231 
1.12554 1.40500 -0.53810 
1.14008 1.38000 -0.52852 
1.14169 1.37500 -0.52661 
1.14898 1.37000 -0.52469 
1.19608 1.36500 -0.52278 
1.20874 1.36000 -0.52086 
1.23258 1.35500 -0.51895 
1.25877 1.36500 -0.52278 
1.26911 1.37000 -0.52469 
1.30035 1.38500 -0.53044 
1.73650 1.78600 -0.68402 
1.86682 1.86400 -0.71389 
-1.19765 1.36500 -0.52848 
-1.15206 1.36500 -0.52848 
-1.10642 1.41600 -0.54822 
-1.10050 1.41600 -0.54822 
-1.05040 1.47000 -0.56913 
-1.03620 1.47600 -0.57145 
-1.03004 1.47600 -0.57145 
-0.94838 1.52300 -0.58965 
-0.91099 1.53500 -0.59430 
-0.88982 1.55400 -0.60165 
-0.88165 1.58600 -0.61404 
-0.86885 1.59900 -0.61907 
-0.78842 1.66900 -0.64618 
-0.76035 1.68400 -0.65198 
-0.74939 1.69100 -0.65469 
-0.71280 1.72200 -0.66669 
-0.67860 1.74500 -0.67560 
-0.62146 1.76900 -0.68489 
-0.61407 1.76900 -0.68489 
-0.58071 1.80300 -0.69805 
-0.55578 1.82000 -0.70464 
-0.47656 1.93000 -0.74722 
-0.46283 1.94000 -0.75110 
-0.44305 1.96000 -0.75884 
-0.38143 1.98000 -0.76658 
-0.33719 2.01200 -0.77897 
-0.32039 2.01200 -0.77897 
-0.31354 2.02200 -0.78284 
-0.30510 2.02200 -0.78284 
-0.23670 2.08900 -0.80878 
-0.19055 2.15900 -0.83588 
-0.17356 2.17200 -0.84092 
-0.16540 2.18400 -0.84556 
-0.08630 2.26200 -0.87576 
-0.04880 2.27500 -0.88080 
-0.02043 2.28900 -0.88622 
0.11646 2.01200 -0.77897 
0.12417 2.00100 -0.77471 
0.25386 1.97000 -0.76271 
0.27995 1.98000 -0.76658 
0.32139 2.03300 -0.78710 
0.58346 2.37400 -0.91912 
0.62156 2.33100 -0.90248 
0.61884 2.18400 -0.84556 
1.06607 2.81000 -1.08793 
1.12963 2.85200 -1.10419 
1.15345 2.85200 -1.10419 
1.20108 2.85200 -1.10419 
1.24487 2.79000 -1.08018 
1.25651 2.79000 -1.08018 
1.34348 2.73000 -1.05695 
1.35488 2.73000 -1.05695 
1.39473 2.65400 -1.02753 
1.40581 2.65400 -1.02753 
1.45233 2.61800 -1.01359 
1.48512 2.61800 -1.01359 
1.57238 2.63600 -1.02056 
0.97702 1.51100 -0.58500 
0.99032 1.49300 -0.57803 
1.01803 1.47000 -0.56913 
1.02259 1.45900 -0.56487 
1.03302 1.44800 -0.56061 
1.03907 1.44800 -0.56061 
1.04511 1.44800 -0.56061 
1.12738 1.40000 -0.54203 
1.13093 1.39000 -0.53816 
1.13265 1.38500 -0.53622 
1.14743 1.37500 -0.53235 
1.20178 1.36500 -0.52848 
1.21441 1.36000 -0.52654 
1.23258 1.35500 -0.52461 
1.26339 1.37000 -0.53041 
1.29457 1.38500 -0.53622 
1.76956 1.82000 -0.70464 
-1.25498 1.34100 -0.52478 
-1.22241 1.33600 -0.52283 
-1.19894 1.36000 -0.53222 
-1.18191 1.36000 -0.53222 
-1.13833 1.39000 -0.54396 
-1.06252 1.45300 -0.56861 
-1.05040 1.47000 -0.57527 
-1.01480 1.49900 -0.58662 
-1.00165 1.51700 -0.59366 
-0.98017 1.52300 -0.59601 
-0.95474 1.52300 -0.59601 
-0.90168 1.54100 -0.60305 
-0.89873 1.54700 -0.60540 
-0.86299 1.61300 -0.63123 
-0.84279 1.62600 -0.63632 
-0.83635 1.64000 -0.64179 
-0.81287 1.66200 -0.65040 
-0.80593 1.66200 -0.65040 
-0.78842 1.66900 -0.65314 
-0.78145 1.66900 -0.65314 
-0.70126 1.72900 -0.67662 
-0.62146 1.76900 -0.69228 
-0.60506 1.78600 -0.69893 
-0.53289 1.84600 -0.72241 
-0.49347 1.90200 -0.74433 
-0.44893 1.95000 -0.76311 
-0.44079 1.95000 -0.76311 
-0.43486 1.96000 -0.76702 
-0.39595 1.97000 -0.77094 
-0.30510 2.02200 -0.79129 
-0.25859 2.05500 -0.80420 
-0.22918 2.10000 -0.82181 
-0.20626 2.13500 -0.83551 
-0.18263 2.17200 -0.84999 
-0.12260 2.23500 -0.87464 
-0.02980 2.27500 -0.89029 
0.09965 2.01200 -0.78737 
0.12225 1.97000 -0.77094 
0.17160 1.97000 -0.77094 
0.25809 1.94000 -0.75920 
0.30321 1.97000 -0.77094 
0.38258 2.08900 -0.81751 
0.50871 2.26200 -0.88521 
0.54987 2.31600 -0.90634 
0.59592 2.34500 -0.91769 
0.62795 2.18400 -0.85468 
0.61128 2.06600 -0.80850 
0.56608 1.81100 -0.70871 
0.56034 1.76900 -0.69228 
1.17435 2.87400 -1.12471 
1.21588 2.83100 -1.10788 
1.21859 2.81000 -1.09966 
1.24751 2.77000 -1.08401 
1.28443 2.75000 -1.07618 
1.33413 2.71100 -1.06092 
1.34545 2.71100 -1.06092 
1.36809 2.71100 -1.06092 
1.39473 2.65400 -1.03861 
1.48512 2.61800 -1.02452 
1.56095 2.65400 -1.03861 
1.52197 2.48200 -0.97130 
1.02259 1.45900 -0.57096 
1.03052 1.45300 -0.56861 
1.03907 1.44800 -0.56666 
1.05720 1.44800 -0.56666 
1.09717 1.43700 -0.56235 
1.10454 1.43100 -0.56001 
1.12554 1.40500 -0.54983 
1.12738 1.40000 -0.54787 
1.13843 1.38500 -0.54200 
1.14743 1.37500 -0.53809 
1.17040 1.37500 -0.53809 
1.17758 1.37000 -0.53613 
1.18902 1.37000 -0.53613 
1.21441 1.36000 -0.53222 
1.24281 1.36000 -0.53222 
1.25308 1.36500 -0.53418 
1.31443 1.40000 -0.54787 
1.46612 1.54100 -0.60305 
1.88585 1.88300 -0.73689 
-1.22799 1.33600 -0.52841 
-1.22241 1.33600 -0.52841 
-1.12129 1.40500 -0.55570 
-1.08446 1.42600 -0.56400 
-1.06882 1.43700 -0.56835 
-1.06652 1.44200 -0.57033 
-1.04853 1.47600 -0.58378 
-1.01258 1.50500 -0.59525 
-1.00629 1.50500 -0.59525 
-1.00399 1.51100 -0.59762 
-0.95474 1.52300 -0.60237 
-0.87889 1.59300 -0.63005 
-0.81929 1.64700 -0.65141 
-0.81636 1.65500 -0.65458 
-0.81287 1.66200 -0.65734 
-0.76035 1.68400 -0.66605 
-0.72380 1.71400 -0.67791 
-0.69725 1.73700 -0.68701 
-0.65975 1.75300 -0.69334 
-0.63335 1.76100 -0.69650 
-0.60506 1.78600 -0.70639 
-0.60028 1.79400 -0.70955 
-0.56816 1.81100 -0.71628 
-0.54593 1.83800 -0.72695 
-0.50935 1.90200 -0.75227 
-0.49038 1.92100 -0.75978 
-0.48236 1.92100 -0.75978 
-0.41031 1.96000 -0.77521 
-0.37316 1.98000 -0.78312 
-0.32039 2.01200 -0.79577 
-0.30359 2.01200 -0.79577 
-0.23670 2.08900 -0.82623 
-0.15721 2.19700 -0.86894 
-0.14044 2.22200 -0.87883 
-0.13117 2.22200 -0.87883 
0.02640 2.20900 -0.87369 
0.03522 2.18400 -0.86380 
0.06818 2.07700 -0.82148 
0.11287 1.95000 -0.77125 
0.12039 1.94000 -0.76730 
0.14394 1.93000 -0.76334 
0.18338 1.92100 -0.75978 
0.24625 1.91100 -0.75583 
0.28899 1.93000 -0.76334 
0.32622 1.96000 -0.77521 
0.37031 2.02200 -0.79973 
0.40425 2.06600 -0.81713 
0.53372 2.24800 -0.88911 
0.58169 2.28900 -0.90533 
0.63169 2.19700 -0.86894 
0.58350 1.89200 -0.74831 
0.56572 1.78600 -0.70639 
0.57093 1.69100 -0.66881 
0.57799 1.69100 -0.66881 
1.07403 2.83100 -1.11970 
1.16235 2.87400 -1.13671 
1.18635 2.87400 -1.13671 
1.21299 2.85200 -1.12800 
1.21588 2.83100 -1.11970 
1.21859 2.81000 -1.11139 
1.24206 2.81000 -1.11139 
1.33413 2.71100 -1.07224 
1.33602 2.69200 -1.06472 
1.34726 2.69200 -1.06472 
1.38527 2.63600 -1.04257 
1.59439 2.63600 -1.04257 
1.60540 2.63600 -1.04257 
0.99255 1.48700 -0.58813 
1.01803 1.47000 -0.58141 
1.05720 1.44800 -0.57270 
1.07534 1.44800 -0.57270 
1.11052 1.43100 -0.56598 
1.20178 1.36500 -0.53988 
1.21888 1.36500 -0.53988 
1.25308 1.36500 -0.53988 
1.27837 1.38000 -0.54581 
1.29924 1.39000 -0.54976 
1.86226 1.88300 -0.74475 
1.87906 1.89200 -0.74831 
1.88696 1.89200 -0.74831 
-1.23915 1.33600 -0.53398 
-1.21470 1.34600 -0.53798 
-1.18759 1.36000 -0.54358 
-1.16915 1.36500 -0.54558 
-1.12528 1.41000 -0.56356 
-1.11233 1.41600 -0.56596 
-1.11032 1.42100 -0.56796 
-1.09846 1.42100 -0.56796 
-1.07254 1.44200 -0.57635 
-1.05654 1.47000 -0.58754 
-1.04427 1.47000 -0.58754 
-1.03004 1.47600 -0.58994 
-1.00001 1.50500 -0.60153 
-0.98898 1.51700 -0.60633 
-0.95474 1.52300 -0.60873 
-0.88436 1.57900 -0.63111 
-0.82950 1.64000 -0.65549 
-0.73467 1.70600 -0.68187 
-0.69725 1.73700 -0.69426 
-0.64511 1.75300 -0.70065 
-0.64071 1.76100 -0.70385 
-0.62146 1.76900 -0.70705 
-0.61407 1.76900 -0.70705 
-0.58328 1.81100 -0.72384 
-0.55853 1.82900 -0.73103 
-0.54060 1.84600 -0.73783 
-0.49038 1.92100 -0.76780 
-0.41850 1.96000 -0.78339 
-0.38773 1.97000 -0.78739 
-0.34198 1.99100 -0.79578 
-0.32699 2.00100 -0.79978 
-0.27280 2.03300 -0.81257 
-0.21396 2.12300 -0.84854 
-0.14884 2.20900 -0.88291 
-0.00128 2.23500 -0.89330 
0.13321 1.89200 -0.75621 
0.14111 1.89200 -0.75621 
0.18061 1.89200 -0.75621 
0.18851 1.89200 -0.75621 
0.30863 1.90200 -0.76021 
0.38957 1.99100 -0.79578 
0.43875 2.06600 -0.82576 
0.46351 2.10000 -0.83935 
0.62592 2.20900 -0.88291 
0.62628 2.14700 -0.85813 
0.61808 2.08900 -0.83495 
0.59628 1.96000 -0.78339 
0.56825 1.79400 -0.71704 
0.57363 1.69900 -0.67907 
0.99580 2.65400 -1.06077 
1.08585 2.83100 -1.13152 
1.21035 2.87400 -1.14871 
1.24487 2.79000 -1.11513 
1.26369 2.73000 -1.09115 
1.32478 2.69200 -1.07596 
1.42158 2.58200 -1.03200 
1.53936 2.63600 -1.05358 
1.58311 2.65400 -1.06077 
1.55202 2.53100 -1.01161 
0.98408 1.49300 -0.59674 
0.98634 1.48700 -0.59434 
1.03659 1.45300 -0.58075 
1.05720 1.44800 -0.57875 
1.14421 1.38500 -0.55357 
1.14999 1.38500 -0.55357 
1.16889 1.38000 -0.55157 
1.74568 1.81100 -0.72384 
1.90591 1.91100 -0.76381 
-1.22799 1.33600 -0.53956 
-1.20793 1.35100 -0.54562 
-1.19326 1.36000 -0.54926 
-1.15159 1.38500 -0.55935 
-1.13483 1.40000 -0.56541 
-1.11824 1.41600 -0.57187 
-1.07482 1.43700 -0.58035 
-1.07096 1.44800 -0.58480 
-0.96745 1.52300 -0.61509 
-0.93934 1.52900 -0.61751 
-0.90280 1.55400 -0.62761 
-0.89977 1.56000 -0.63003 
-0.88165 1.58600 -0.64053 
-0.84279 1.62600 -0.65668 
-0.82617 1.64700 -0.66516 
-0.70847 1.72900 -0.69828 
-0.65975 1.75300 -0.70797 
-0.63335 1.76100 -0.71121 
-0.60506 1.78600 -0.72130 
-0.55853 1.82900 -0.73867 
-0.50935 1.90200 -0.76815 
-0.50378 1.91100 -0.77178 
-0.49038 1.92100 -0.77582 
-0.47093 1.94000 -0.78350 
-0.44305 1.96000 -0.79157 
-0.41031 1.96000 -0.79157 
-0.32699 2.00100 -0.80813 
-0.27280 2.03300 -0.82106 
-0.22041 2.10000 -0.84812 
-0.21396 2.12300 -0.85740 
-0.17452 2.18400 -0.88204 
-0.10454 2.24800 -0.90789 
-0.06741 2.26200 -0.91354 
-0.05797 2.26200 -0.91354 
-0.02019 2.26200 -0.91354 
-0.01068 2.24800 -0.90789 
0.01679 2.15900 -0.87194 
0.02537 2.12300 -0.85740 
0.07910 1.92100 -0.77582 
0.13060 1.85500 -0.74917 
0.16159 1.85500 -0.74917 
0.51907 2.11200 -0.85296 
0.54255 2.13500 -0.86225 
0.57916 2.17200 -0.87719 
0.60670 2.02200 -0.81661 
0.57363 1.69900 -0.68617 
0.98229 2.61800 -1.05732 
1.16235 2.87400 -1.16071 
1.18635 2.87400 -1.16071 
1.25229 2.73000 -1.10255 
1.26621 2.71100 -1.09488 
1.35225 2.63600 -1.06459 
1.37845 2.58200 -1.04278 
1.40151 2.56500 -1.03591 
1.42293 2.56500 -1.03591 
1.56095 2.65400 -1.07186 
0.98178 1.49900 -0.60539 
0.99255 1.48700 -0.60055 
1.00369 1.47600 -0.59610 
1.05479 1.45300 -0.58682 
1.06692 1.45300 -0.58682 
1.07905 1.45300 -0.58682 
1.10701 1.44200 -0.58237 
1.12247 1.43100 -0.57793 
1.14254 1.39000 -0.56137 
1.15415 1.39000 -0.56137 
1.19910 1.37500 -0.55531 
1.20484 1.37500 -0.55531 
1.20618 1.37000 -0.55329 
1.21190 1.37000 -0.55329 
1.80455 1.86400 -0.75280 
1.83081 1.88300 -0.76048 
1.91588 1.92100 -0.77582 
1.93292 1.93000 -0.77946 
-1.23915 1.33600 -0.54514 
-1.21579 1.34100 -0.54718 
-1.21019 1.34100 -0.54718 
-1.20019 1.35500 -0.55289 
-1.18759 1.36000 -0.55493 
-1.17485 1.36500 -0.55697 
-1.16915 1.36500 -0.55697 
-1.15776 1.36500 -0.55697 
-1.15159 1.38500 -0.56514 
-1.14580 1.38500 -0.56514 
-1.12715 1.40500 -0.57330 
-1.11032 1.42100 -0.57982 
-1.09637 1.42600 -0.58186 
-1.06691 1.45900 -0.59533 
-1.04853 1.47600 -0.60227 
-1.03004 1.47600 -0.60227 
-0.99138 1.51100 -0.61655 
-0.98017 1.52300 -0.62144 
-0.96110 1.52300 -0.62144 
-0.95211 1.52900 -0.62389 
-0.89977 1.56000 -0.63654 
-0.88436 1.57900 -0.64429 
-0.88165 1.58600 -0.64715 
-0.79899 1.66200 -0.67816 
-0.78473 1.67600 -0.68387 
-0.77441 1.68400 -0.68714 
-0.76351 1.69100 -0.69000 
-0.62884 1.76900 -0.72182 
-0.57858 1.82000 -0.74263 
-0.57098 1.82000 -0.74263 
-0.54831 1.84600 -0.75324 
-0.53031 1.86400 -0.76059 
-0.51176 1.91100 -0.77976 
-0.49840 1.92100 -0.78384 
-0.49267 1.93000 -0.78752 
-0.44893 1.95000 -0.79568 
-0.39595 1.97000 -0.80384 
-0.29518 2.01200 -0.82098 
-0.28821 2.02200 -0.82506 
-0.27977 2.02200 -0.82506 
-0.20626 2.13500 -0.87116 
-0.09515 2.24800 -0.91727 
-0.06700 2.24800 -0.91727 
-0.04852 2.26200 -0.92299 
-0.03908 2.26200 -0.92299 
-0.01056 2.22200 -0.90666 
0.02482 2.07700 -0.84750 
0.11406 1.83800 -0.74998 
0.16696 1.82900 -0.74630 
0.19848 1.83800 -0.74998 
0.44898 1.96000 -0.79976 
0.49449 2.01200 -0.82098 
0.56515 1.76100 -0.71856 
1.12963 2.85200 -1.16373 
1.15035 2.87400 -1.17271 
1.25963 2.67300 -1.09069 
1.36938 2.56500 -1.04662 
1.38009 2.56500 -1.04662 
1.39080 2.56500 -1.04662 
1.43364 2.56500 -1.04662 
1.46470 2.58200 -1.05356 
1.50748 2.60000 -1.06090 
1.52885 2.61800 -1.06825 
1.57238 2.63600 -1.07559 
1.58338 2.63600 -1.07559 
1.58329 2.58200 -1.05356 
1.00091 1.48100 -0.60431 
1.01189 1.47000 -0.59982 
1.06085 1.45300 -0.59288 
1.14665 1.39500 -0.56922 
1.15247 1.39500 -0.56922 
1.17891 1.38500 -0.56514 
1.20346 1.38000 -0.56309 
1.21762 1.37000 -0.55901 
1.25195 1.37000 -0.55901 
1.32354 1.41600 -0.57778 
1.87399 1.91100 -0.77976 
1.94293 1.94000 -0.79160 
-1.24378 1.34100 -0.55278 
-1.19453 1.35500 -0.55855 
-1.18322 1.35500 -0.55855 
-1.17623 1.36000 -0.56061 
-1.16345 1.36500 -0.56267 
-1.15628 1.37000 -0.56473 
-1.14580 1.38500 -0.57092 
-1.10439 1.42100 -0.58576 
-1.10232 1.42600 -0.58782 
-1.08826 1.43100 -0.58988 
-1.07057 1.46400 -0.60348 
-1.06268 1.47000 -0.60596 
-0.99372 1.50500 -0.62038 
-0.99138 1.51100 -0.62286 
-0.98898 1.51700 -0.62533 
-0.98264 1.51700 -0.62533 
-0.98017 1.52300 -0.62780 
-0.95474 1.52300 -0.62780 
-0.95211 1.52900 -0.63028 
-0.92658 1.52900 -0.63028 
-0.92380 1.53500 -0.63275 
-0.91455 1.54100 -0.63522 
-0.90280 1.55400 -0.64058 
-0.88756 1.57300 -0.64841 
-0.85924 1.60600 -0.66202 
-0.84952 1.61300 -0.66490 
-0.82950 1.64000 -0.67603 
-0.80945 1.65500 -0.68222 
-0.78473 1.67600 -0.69087 
-0.77441 1.68400 -0.69417 
-0.76738 1.68400 -0.69417 
-0.72291 1.72900 -0.71272 
-0.70450 1.73700 -0.71602 
-0.62146 1.76900 -0.72921 
-0.59084 1.81100 -0.74652 
-0.56617 1.82900 -0.75394 
-0.55853 1.82900 -0.75394 
-0.55361 1.83800 -0.75765 
-0.45707 1.95000 -0.80382 
-0.42668 1.96000 -0.80794 
-0.41850 1.96000 -0.80794 
-0.38773 1.97000 -0.81206 
-0.33367 1.99100 -0.82072 
-0.32699 2.00100 -0.82484 
-0.25859 2.05500 -0.84710 
-0.10454 2.24800 -0.92666 
-0.07638 2.24800 -0.92666 
-0.02945 2.24800 -0.92666 
-0.01983 2.22200 -0.91594 
0.06090 1.85500 -0.76466 
0.07532 1.82900 -0.75394 
0.11882 1.79400 -0.73951 
0.18044 1.81100 -0.74652 
0.23453 1.82000 -0.75023 
0.24332 1.82900 -0.75394 
0.25860 1.82900 -0.75394 
0.27387 1.82900 -0.75394 
0.33198 1.85500 -0.76466 
0.34916 1.86400 -0.76837 
0.41760 1.89200 -0.77991 
0.57605 2.03300 -0.83803 
0.56825 1.79400 -0.73951 
0.56515 1.76100 -0.72591 
0.56438 1.71400 -0.70654 
0.56887 1.70600 -0.70324 
0.60297 1.72200 -0.70983 
0.95603 2.54800 -1.05032 
1.07780 2.81000 -1.15832 
1.15345 2.85200 -1.17564 
1.17435 2.87400 -1.18471 
1.19835 2.87400 -1.18471 
1.24610 2.69200 -1.10968 
1.27521 2.63600 -1.08660 
1.32293 2.60000 -1.07176 
1.33378 2.60000 -1.07176 
1.36938 2.56500 -1.05733 
1.37094 2.54800 -1.05032 
1.38158 2.54800 -1.05032 
1.43364 2.56500 -1.05733 
1.53978 2.61800 -1.07918 
0.98408 1.49300 -0.61544 
1.01189 1.47000 -0.60596 
1.03478 1.45900 -0.60142 
1.04265 1.45300 -0.59895 
1.11766 1.44800 -0.59689 
1.12507 1.44200 -0.59441 
1.16575 1.39000 -0.57298 
1.20204 1.38500 -0.57092 
1.20923 1.38000 -0.56886 
1.24050 1.37000 -0.56473 
1.32822 1.42100 -0.58576 
1.96296 1.96000 -0.80794 
1.97933 1.96000 -0.80794 
-1.18191 1.36000 -0.56629 
-1.17055 1.36000 -0.56629 
-1.05654 1.47000 -0.61209 
-1.03620 1.47600 -0.61459 
-0.97381 1.52300 -0.63416 
-0.96745 1.52300 -0.63416 
-0.95850 1.52900 -0.63666 
-0.95211 1.52900 -0.63666 
-0.91739 1.53500 -0.63916 
-0.90519 1.54700 -0.64416 
-0.88361 1.56600 -0.65207 
-0.86559 1.59300 -0.66331 
-0.83960 1.63300 -0.67997 
-0.82950 1.64000 -0.68288 
-0.77441 1.68400 -0.70120 
-0.76738 1.68400 -0.70120 
-0.76351 1.69100 -0.70412 
-0.76003 1.69900 -0.70745 
-0.73013 1.72900 -0.71994 
-0.70450 1.73700 -0.72327 
-0.70046 1.74500 -0.72660 
-0.62146 1.76900 -0.73659 
-0.61252 1.78600 -0.74367 
-0.51444 1.92100 -0.79989 
-0.50073 1.93000 -0.80363 
-0.47903 1.94000 -0.80780 
-0.47335 1.95000 -0.81196 
-0.44305 1.96000 -0.81613 
-0.38143 1.98000 -0.82445 
-0.27280 2.03300 -0.84652 
-0.21285 2.11200 -0.87942 
-0.08577 2.24800 -0.93605 
-0.07638 2.24800 -0.93605 
-0.03861 2.23500 -0.93063 
0.14671 1.76900 -0.73659 
0.16972 1.77800 -0.74034 
0.22481 1.80300 -0.75075 
0.23986 1.80300 -0.75075 
0.27117 1.81100 -0.75408 
0.29532 1.82000 -0.75783 
0.32733 1.82900 -0.76158 
0.33661 1.83800 -0.76533 
0.48637 1.88300 -0.78406 
0.51754 1.91100 -0.79572 
0.57173 1.96000 -0.81613 
0.56572 1.78600 -0.74367 
0.63886 1.80300 -0.75075 
1.20406 2.83100 -1.17880 
1.21859 2.81000 -1.17006 
1.23322 2.79000 -1.16173 
1.24357 2.71100 -1.12883 
1.24610 2.69200 -1.12092 
1.29929 2.61800 -1.09011 
1.31207 2.60000 -1.08261 
1.32293 2.60000 -1.08261 
1.33378 2.60000 -1.08261 
1.49704 2.58200 -1.07512 
1.56216 2.56500 -1.06804 
0.97942 1.50500 -0.62667 
1.00091 1.48100 -0.61667 
1.02259 1.45900 -0.60751 
1.11766 1.44800 -0.60293 
1.14900 1.40500 -0.58503 
1.15660 1.40000 -0.58295 
1.16245 1.40000 -0.58295 
1.17736 1.39000 -0.57878 
1.19048 1.38500 -0.57670 
1.20923 1.38000 -0.57462 
1.26685 1.38000 -0.57462 
1.30274 1.40000 -0.58295 
1.66782 1.75300 -0.72993 
1.85005 1.91100 -0.79572 
1.86776 1.92100 -0.79989 
1.96475 1.97000 -0.82029 
-1.19665 1.35100 -0.56818 
-1.18888 1.35500 -0.56987 
-1.16345 1.36500 -0.57407 
-1.15319 1.38000 -0.58038 
-1.15159 1.38500 -0.58248 
-1.13302 1.40500 -0.59090 
-1.10439 1.42100 -0.59762 
-1.09041 1.42600 -0.59973 
-1.06691 1.45900 -0.61361 
-1.04853 1.47600 -0.62076 
-1.00450 1.49300 -0.62790 
-0.99138 1.51100 -0.63548 
-0.89631 1.55400 -0.65356 
-0.85894 1.59300 -0.66996 
-0.81636 1.65500 -0.69604 
-0.80593 1.66200 -0.69898 
-0.77057 1.69100 -0.71118 
-0.73013 1.72900 -0.72716 
-0.70450 1.73700 -0.73052 
-0.63623 1.76900 -0.74398 
-0.61252 1.78600 -0.75113 
-0.55853 1.82900 -0.76921 
-0.53809 1.86400 -0.78393 
-0.51444 1.92100 -0.80791 
-0.45123 1.96000 -0.82431 
-0.38143 1.98000 -0.83272 
-0.35206 2.00100 -0.84155 
-0.33535 2.00100 -0.84155 
-0.31199 2.01200 -0.84618 
-0.29665 2.02200 -0.85038 
-0.23670 2.08900 -0.87856 
-0.15721 2.19700 -0.92398 
-0.13962 2.20900 -0.92903 
-0.07594 2.23500 -0.93996 
-0.01003 2.11200 -0.88823 
0.01524 1.96000 -0.82431 
0.07951 1.75300 -0.73725 
0.10146 1.75300 -0.73725 
0.11610 1.75300 -0.73725 
0.15270 1.75300 -0.73725 
0.28361 1.79400 -0.75450 
0.30762 1.80300 -0.75828 
0.31515 1.80300 -0.75828 
0.35611 1.82000 -0.76543 
0.42871 1.83800 -0.77300 
0.44188 1.82900 -0.76921 
0.44951 1.82900 -0.76921 
0.45715 1.82900 -0.76921 
0.53100 1.87400 -0.78814 
0.56160 1.84600 -0.77636 
0.56438 1.71400 -0.72085 
1.28621 2.63600 -1.10861 
1.32293 2.60000 -1.09347 
1.40286 2.54800 -1.07160 
1.01889 1.58600 -0.66702 
1.00091 1.48100 -0.62286 
1.00709 1.48100 -0.62286 
1.10939 1.45300 -0.61108 
1.14617 1.41600 -0.59552 
1.16074 1.40500 -0.59090 
1.16245 1.40000 -0.58879 
1.18897 1.39000 -0.58459 
1.29226 1.39500 -0.58669 
1.33756 1.43100 -0.60183 
1.97472 1.98000 -0.83272 
-1.18537 1.35100 -0.57383 
-1.16345 1.36500 -0.57977 
-1.16200 1.37000 -0.58190 
-1.15737 1.38500 -0.58827 
-1.15159 1.38500 -0.58827 
-1.14994 1.39000 -0.59039 
-1.14243 1.39500 -0.59251 
-1.14068 1.40000 -0.59464 
-1.11032 1.42100 -0.60356 
-1.08446 1.42600 -0.60568 
-1.06859 1.45300 -0.61715 
-1.06268 1.47000 -0.62437 
-1.04237 1.47600 -0.62692 
-1.02116 1.48100 -0.62904 
-1.00001 1.50500 -0.63924 
-0.99138 1.51100 -0.64178 
-0.98898 1.51700 -0.64433 
-0.92658 1.52900 -0.64943 
-0.90519 1.54700 -0.65707 
-0.89873 1.54700 -0.65707 
-0.89631 1.55400 -0.66005 
-0.83018 1.65500 -0.70295 
-0.74891 1.70600 -0.72461 
-0.67439 1.75300 -0.74457 
-0.63623 1.76900 -0.75137 
-0.58328 1.81100 -0.76921 
-0.57858 1.82000 -0.77303 
-0.55361 1.83800 -0.78067 
-0.50879 1.93000 -0.81975 
-0.50333 1.94000 -0.82400 
-0.45123 1.96000 -0.83249 
-0.41241 1.97000 -0.83674 
-0.34559 2.01200 -0.85458 
-0.32879 2.01200 -0.85458 
-0.16540 2.18400 -0.92763 
-0.05694 2.22200 -0.94377 
-0.00116 2.01200 -0.85458 
0.10054 1.73700 -0.73778 
0.10729 1.72900 -0.73438 
0.17306 1.73700 -0.73778 
0.18757 1.73700 -0.73778 
0.21758 1.74500 -0.74117 
0.25634 1.76100 -0.74797 
0.32709 1.78600 -0.75859 
0.35103 1.79400 -0.76199 
0.45589 1.79400 -0.76199 
0.54099 1.80300 -0.76581 
0.55983 1.72200 -0.73140 
0.59578 1.72200 -0.73140 
0.60297 1.72200 -0.73140 
0.68188 1.90200 -0.80786 
0.92526 2.46600 -1.04741 
1.15345 2.85200 -1.21136 
1.20108 2.85200 -1.21136 
1.21299 2.85200 -1.21136 
1.23850 2.75000 -1.16804 
1.27079 2.67300 -1.13533 
1.28621 2.63600 -1.11962 
1.29929 2.61800 -1.11197 
1.33378 2.60000 -1.10433 
1.34611 2.58200 -1.09668 
1.41350 2.54800 -1.08224 
0.97314 1.50500 -0.63924 
0.98804 1.49900 -0.63669 
0.99875 1.48700 -0.63159 
1.00091 1.48100 -0.62904 
1.05305 1.45900 -0.61970 
1.07133 1.45900 -0.61970 
1.08351 1.45900 -0.61970 
1.13917 1.43700 -0.61035 
1.14637 1.43100 -0.60780 
1.15022 1.42100 -0.60356 
1.15898 1.41000 -0.59889 
1.18160 1.39500 -0.59251 
1.20782 1.38500 -0.58827 
1.21499 1.38000 -0.58614 
1.22781 1.37500 -0.58402 
1.25532 1.38000 -0.58614 
1.27144 1.38500 -0.58827 
1.89749 1.96000 -0.83249 
1.93339 1.98000 -0.84099 
2.02073 2.00100 -0.84991 
-1.20346 1.34600 -0.57732 
-1.17756 1.35500 -0.58118 
-1.15895 1.38000 -0.59190 
-1.14825 1.39500 -0.59834 
-1.14652 1.40000 -0.60048 
-1.09041 1.42600 -0.61164 
-1.08229 1.43100 -0.61378 
-1.07482 1.43700 -0.61635 
-1.07254 1.44200 -0.61850 
-1.07096 1.44800 -0.62107 
-1.04853 1.47600 -0.63308 
-0.99769 1.51100 -0.64809 
-0.95850 1.52900 -0.65581 
-0.92380 1.53500 -0.65839 
-0.85924 1.60600 -0.68884 
-0.85625 1.61300 -0.69184 
-0.83992 1.64700 -0.70643 
-0.82327 1.65500 -0.70986 
-0.81287 1.66200 -0.71286 
-0.78144 1.68400 -0.72230 
-0.77057 1.69100 -0.72530 
-0.74527 1.71400 -0.73516 
-0.68589 1.74500 -0.74846 
-0.67439 1.75300 -0.75189 
-0.63623 1.76900 -0.75875 
-0.50333 1.94000 -0.83210 
-0.48713 1.94000 -0.83210 
-0.41241 1.97000 -0.84497 
-0.39796 1.98000 -0.84925 
-0.36041 2.00100 -0.85826 
-0.33719 2.01200 -0.86298 
-0.31354 2.02200 -0.86727 
-0.28281 2.04400 -0.87671 
-0.24402 2.07700 -0.89086 
-0.21285 2.11200 -0.90587 
-0.18153 2.15900 -0.92603 
-0.10273 2.20900 -0.94748 
-0.09350 2.20900 -0.94748 
-0.06583 2.20900 -0.94748 
-0.04713 2.19700 -0.94233 
-0.00966 2.03300 -0.87199 
0.01449 1.86400 -0.79950 
0.02175 1.82000 -0.78063 
0.04291 1.75300 -0.75189 
0.04977 1.73700 -0.74503 
0.05676 1.72900 -0.74160 
0.11352 1.71400 -0.73516 
0.16362 1.71400 -0.73516 
0.17077 1.71400 -0.73516 
0.18595 1.72200 -0.73859 
0.21471 1.72200 -0.73859 
0.23724 1.72900 -0.74160 
0.25284 1.73700 -0.74503 
0.30641 1.75300 -0.75189 
0.35352 1.76900 -0.75875 
0.40729 1.77800 -0.76261 
0.46221 1.76100 -0.75532 
0.47692 1.76100 -0.75532 
0.63886 1.80300 -0.77334 
0.84929 2.28900 -0.98179 
1.21299 2.85200 -1.22327 
1.28392 2.65400 -1.13834 
1.41350 2.54800 -1.09288 
1.42414 2.54800 -1.09288 
1.43477 2.54800 -1.09288 
1.47733 2.54800 -1.09288 
1.48861 2.53100 -1.08559 
1.50974 2.53100 -1.08559 
1.54221 2.49800 -1.07143 
1.39850 2.23500 -0.95863 
0.99875 1.48700 -0.63780 
1.00986 1.47600 -0.63308 
1.01602 1.47600 -0.63308 
1.03478 1.45900 -0.62579 
1.04087 1.45900 -0.62579 
1.08960 1.45900 -0.62579 
1.09569 1.45900 -0.62579 
1.14314 1.44200 -0.61850 
1.15615 1.42100 -0.60949 
1.15800 1.41600 -0.60735 
1.16487 1.41000 -0.60477 
1.16830 1.40000 -0.60048 
1.18897 1.39000 -0.59619 
1.19477 1.39000 -0.59619 
1.19626 1.38500 -0.59405 
1.22781 1.37500 -0.58976 
1.28644 1.39500 -0.59834 
1.35813 1.45300 -0.62322 
1.88112 1.96000 -0.84068 
