ply
format ascii 1.0
comment pointcloud saved from Realsense Viewer
element vertex 1832
property float32 x
property float32 y
property float32 z
end_header
1.30872 -1.37132 -5.236 
1.33058 -1.37132 -5.236 
1.33411 -1.35272 -5.165 
1.33756 -1.33465 -5.096 
1.35884 -1.33465 -5.096 
1.36197 -1.3171 -5.029 
1.36509 -1.30008 -4.964 
1.38582 -1.30008 -4.964 
1.40655 -1.30008 -4.964 
1.40887 -1.28332 -4.9 
1.41125 -1.26708 -4.838 
1.41369 -1.25137 -4.778 
1.43364 -1.25137 -4.778 
1.418 -1.22073 -4.661 
1.42019 -1.20606 -4.605 
1.42222 -1.19165 -4.55 
1.40765 -1.16389 -4.444 
1.40984 -1.15054 -4.393 
1.42818 -1.15054 -4.393 
1.43006 -1.13744 -4.343 
1.44819 -1.13744 -4.343 
1.44978 -1.12461 -4.294 
1.46771 -1.12461 -4.294 
1.50259 -1.13744 -4.343 
1.52072 -1.13744 -4.343 
1.55657 -1.15054 -4.393 
1.57492 -1.15054 -4.393 
1.59326 -1.15054 -4.393 
1.63031 -1.16389 -4.444 
1.66853 -1.17777 -4.497 
1.70719 -1.19165 -4.55 
1.74706 -1.20606 -4.605 
1.78776 -1.22073 -4.661 
1.82971 -1.23592 -4.719 
1.89605 -1.26708 -4.838 
1.94081 -1.28332 -4.9 
2.0129 -1.3171 -5.029 
2.061 -1.33465 -5.096 
2.11047 -1.35272 -5.165 
2.16134 -1.37132 -5.236 
2.21323 -1.39018 -5.308 
2.23539 -1.39018 -5.308 
2.28945 -1.40982 -5.383 
2.27972 -1.39018 -5.308 
2.30188 -1.39018 -5.308 
2.32404 -1.39018 -5.308 
2.3462 -1.39018 -5.308 
2.36837 -1.39018 -5.308 
2.39053 -1.39018 -5.308 
2.41269 -1.39018 -5.308 
2.46926 -1.40982 -5.383 
2.49174 -1.40982 -5.383 
2.51421 -1.40982 -5.383 
2.53669 -1.40982 -5.383 
2.55916 -1.40982 -5.383 
2.58164 -1.40982 -5.383 
2.60412 -1.40982 -5.383 
2.62659 -1.40982 -5.383 
2.64907 -1.40982 -5.383 
2.67154 -1.40982 -5.383 
2.69402 -1.40982 -5.383 
2.7165 -1.40982 -5.383 
2.70081 -1.39018 -5.308 
2.72297 -1.39018 -5.308 
2.74514 -1.39018 -5.308 
2.7673 -1.39018 -5.308 
2.78946 -1.39018 -5.308 
2.77349 -1.37132 -5.236 
2.79535 -1.37132 -5.236 
2.81721 -1.37132 -5.236 
2.83907 -1.37132 -5.236 
2.86093 -1.37132 -5.236 
2.8828 -1.37132 -5.236 
2.9446 -1.39018 -5.308 
2.96676 -1.39018 -5.308 
2.94838 -1.37132 -5.236 
2.97025 -1.37132 -5.236 
2.99211 -1.37132 -5.236 
3.01397 -1.37132 -5.236 
3.03583 -1.37132 -5.236 
3.05769 -1.37132 -5.236 
3.07956 -1.37132 -5.236 
3.05936 -1.35272 -5.165 
3.08093 -1.35272 -5.165 
3.06105 -1.33465 -5.096 
3.08233 -1.33465 -5.096 
3.1036 -1.33465 -5.096 
3.0838 -1.3171 -5.029 
3.10479 -1.3171 -5.029 
3.08539 -1.30008 -4.964 
3.06607 -1.28332 -4.9 
3.08653 -1.28332 -4.9 
3.06768 -1.26708 -4.838 
3.08788 -1.26708 -4.838 
3.06953 -1.25137 -4.778 
3.08948 -1.25137 -4.778 
3.10943 -1.25137 -4.778 
3.09074 -1.23592 -4.719 
3.07221 -1.22073 -4.661 
3.05453 -1.20606 -4.605 
3.03704 -1.19165 -4.55 
3.02044 -1.17777 -4.497 
3.0034 -1.16389 -4.444 
2.98728 -1.15054 -4.393 
2.97141 -1.13744 -4.343 
2.98954 -1.13744 -4.343 
2.97374 -1.12461 -4.294 
2.95893 -1.1123 -4.247 
2.94372 -1.09999 -4.2 
2.96125 -1.09999 -4.2 
2.91496 -1.07642 -4.11 
2.90073 -1.06489 -4.066 
2.88685 -1.05363 -4.023 
2.87333 -1.04263 -3.981 
2.83116 -1.02142 -3.9 
2.81897 -1.0112 -3.861 
2.77855 -0.991037 -3.784 
2.76702 -0.981347 -3.747 
2.75593 -0.971918 -3.711 
2.74454 -0.96249 -3.675 
2.7336 -0.953323 -3.64 
2.72312 -0.944418 -3.606 
2.73818 -0.944418 -3.606 
2.75324 -0.944418 -3.606 
2.76829 -0.944418 -3.606 
2.80959 -0.953323 -3.64 
2.82479 -0.953323 -3.64 
2.83999 -0.953323 -3.64 
2.85519 -0.953323 -3.64 
2.87039 -0.953323 -3.64 
2.88558 -0.953323 -3.64 
2.90078 -0.953323 -3.64 
2.91598 -0.953323 -3.64 
2.93118 -0.953323 -3.64 
2.94638 -0.953323 -3.64 
2.96158 -0.953323 -3.64 
2.97677 -0.953323 -3.64 
2.99197 -0.953323 -3.64 
3.00717 -0.953323 -3.64 
2.99414 -0.944418 -3.606 
3.00919 -0.944418 -3.606 
2.99574 -0.935514 -3.572 
2.95502 -0.918228 -3.506 
2.9163 -0.901728 -3.443 
2.90514 -0.893871 -3.413 
2.86807 -0.878157 -3.353 
2.85714 -0.870562 -3.324 
2.84597 -0.862967 -3.295 
2.85973 -0.862967 -3.295 
2.87349 -0.862967 -3.295 
2.88724 -0.862967 -3.295 
2.901 -0.862967 -3.295 
2.91476 -0.862967 -3.295 
2.92852 -0.862967 -3.295 
2.91727 -0.855634 -3.267 
2.93091 -0.855634 -3.267 
2.91932 -0.8483 -3.239 
2.93284 -0.8483 -3.239 
2.92181 -0.841229 -3.212 
2.93522 -0.841229 -3.212 
2.94863 -0.841229 -3.212 
2.94151 -0.820539 -3.133 
2.93007 -0.813729 -3.107 
3.38711 -0.885752 -3.382 
-1.5217 -0.432642 -1.626 
-1.51491 -0.432642 -1.626 
-1.50812 -0.432642 -1.626 
-1.50133 -0.432642 -1.626 
-1.48903 -0.431045 -1.62 
-1.48226 -0.431045 -1.62 
-1.4755 -0.431045 -1.62 
-1.47418 -0.432642 -1.626 
-1.4737 -0.434504 -1.633 
-1.46689 -0.434504 -1.633 
-1.46633 -0.436367 -1.64 
-1.46571 -0.438229 -1.647 
-1.45883 -0.438229 -1.647 
-1.45901 -0.440358 -1.655 
-1.45824 -0.442221 -1.662 
-1.45741 -0.444083 -1.669 
-1.45044 -0.444083 -1.669 
-1.44953 -0.445946 -1.676 
-1.44942 -0.448074 -1.684 
-1.44838 -0.449937 -1.691 
-1.44132 -0.449937 -1.691 
-1.44105 -0.452065 -1.699 
-1.43986 -0.453928 -1.706 
-1.43274 -0.453928 -1.706 
-1.4323 -0.456057 -1.714 
-1.43179 -0.458185 -1.722 
-1.4246 -0.458185 -1.722 
-1.42318 -0.460048 -1.729 
-1.41596 -0.460048 -1.729 
-1.41526 -0.462176 -1.737 
-1.41449 -0.464305 -1.745 
-1.41365 -0.466434 -1.753 
-1.41275 -0.468562 -1.761 
-1.41178 -0.470691 -1.769 
-1.41154 -0.473085 -1.778 
-1.41044 -0.475214 -1.786 
-1.41633 -0.479737 -1.803 
-1.41506 -0.481866 -1.811 
-1.41449 -0.484261 -1.82 
-1.40689 -0.484261 -1.82 
-1.40621 -0.486655 -1.829 
-1.40545 -0.48905 -1.838 
-1.39778 -0.48905 -1.838 
-1.39616 -0.491179 -1.846 
-1.39522 -0.493573 -1.855 
-1.3942 -0.495968 -1.864 
-1.39386 -0.498629 -1.874 
-1.39269 -0.501024 -1.883 
-1.39145 -0.503418 -1.892 
-1.39744 -0.508474 -1.911 
-1.39673 -0.511135 -1.921 
-1.39522 -0.513529 -1.93 
-1.39435 -0.51619 -1.94 
-1.39339 -0.518851 -1.95 
-1.39236 -0.521512 -1.96 
-1.38417 -0.521512 -1.96 
-1.38301 -0.524172 -1.97 
-1.38176 -0.526833 -1.98 
-1.38113 -0.52976 -1.991 
-1.37281 -0.52976 -1.991 
-1.37135 -0.532421 -2.001 
-1.363 -0.532421 -2.001 
-1.36209 -0.535348 -2.012 
-1.35369 -0.535348 -2.012 
-1.35197 -0.538008 -2.022 
-1.34353 -0.538008 -2.022 
-1.34235 -0.540935 -2.033 
-1.33386 -0.540935 -2.033 
-1.33255 -0.543862 -2.044 
-1.33114 -0.546789 -2.055 
-1.32964 -0.549716 -2.066 
-1.32804 -0.552643 -2.077 
-1.32699 -0.555835 -2.089 
-1.32521 -0.558762 -2.1 
-1.33086 -0.564882 -2.123 
-1.32947 -0.568075 -2.135 
-1.32798 -0.571268 -2.147 
-1.32639 -0.574461 -2.159 
-1.33263 -0.581113 -2.184 
-1.33139 -0.584572 -2.197 
-1.32943 -0.587765 -2.209 
-1.32798 -0.591224 -2.222 
-1.32642 -0.594683 -2.235 
-1.32475 -0.598142 -2.248 
-1.32355 -0.601867 -2.262 
-1.32166 -0.605326 -2.275 
-1.32024 -0.609051 -2.289 
-1.31812 -0.61251 -2.302 
-1.31647 -0.616235 -2.316 
-1.31526 -0.620226 -2.331 
-1.31337 -0.623951 -2.345 
-1.31136 -0.627676 -2.359 
-1.30979 -0.631668 -2.374 
-1.29988 -0.631668 -2.374 
-1.29811 -0.635659 -2.389 
-1.28814 -0.635659 -2.389 
-1.28619 -0.63965 -2.404 
-1.27615 -0.63965 -2.404 
-1.27401 -0.643641 -2.419 
-1.26391 -0.643641 -2.419 
-1.25381 -0.643641 -2.419 
-1.25143 -0.647632 -2.434 
-1.24942 -0.651889 -2.45 
-1.24729 -0.656147 -2.466 
-1.24502 -0.660404 -2.482 
-1.24261 -0.664661 -2.498 
-1.24057 -0.669184 -2.515 
-1.23789 -0.673442 -2.531 
-1.23557 -0.677965 -2.548 
-1.2331 -0.682488 -2.565 
-1.23049 -0.687012 -2.582 
-1.22821 -0.691801 -2.6 
-1.22579 -0.69659 -2.618 
-1.22321 -0.70138 -2.636 
-1.2122 -0.70138 -2.636 
-1.2094 -0.706169 -2.654 
-1.19832 -0.706169 -2.654 
-1.19573 -0.711225 -2.673 
-1.19299 -0.71628 -2.692 
-1.18175 -0.71628 -2.692 
-1.17878 -0.721336 -2.711 
-1.17564 -0.726391 -2.73 
-1.17277 -0.731713 -2.75 
-1.16129 -0.731713 -2.75 
-1.15817 -0.737034 -2.77 
-1.1466 -0.737034 -2.77 
-1.14323 -0.742356 -2.79 
-1.13158 -0.742356 -2.79 
-1.12796 -0.747677 -2.81 
-1.10828 -0.742356 -2.79 
-1.08091 -0.731713 -2.75 
-1.05426 -0.721336 -2.711 
-1.02101 -0.706169 -2.654 
-0.982535 -0.687012 -2.582 
-0.94014 -0.664661 -2.498 
-0.90589 -0.647632 -2.434 
-0.794479 -0.587765 -2.209 
-0.767482 -0.574461 -2.159 
-0.745821 -0.564882 -2.123 
-0.733138 -0.561955 -2.112 
-0.716431 -0.555835 -2.089 
-0.707709 -0.555835 -2.089 
-0.698987 -0.555835 -2.089 
-0.697864 -0.561955 -2.112 
-0.692635 -0.564882 -2.123 
-0.687635 -0.568075 -2.135 
-0.682536 -0.571268 -2.147 
-0.673571 -0.571268 -2.147 
-0.660892 -0.568075 -2.135 
-0.648313 -0.564882 -2.123 
-0.636136 -0.561955 -2.112 
-0.627317 -0.561955 -2.112 
-0.614985 -0.558762 -2.1 
-0.606217 -0.558762 -2.1 
-0.594319 -0.555835 -2.089 
-0.585597 -0.555835 -2.089 
-0.576874 -0.555835 -2.089 
-0.568152 -0.555835 -2.089 
-0.55943 -0.555835 -2.089 
-0.550707 -0.555835 -2.089 
-0.541985 -0.555835 -2.089 
-0.533263 -0.555835 -2.089 
-0.52454 -0.555835 -2.089 
-0.515818 -0.555835 -2.089 
-0.507096 -0.555835 -2.089 
-0.498373 -0.555835 -2.089 
-0.489651 -0.555835 -2.089 
-0.480929 -0.555835 -2.089 
-0.469494 -0.552643 -2.077 
-0.460822 -0.552643 -2.077 
-0.452149 -0.552643 -2.077 
-0.441129 -0.549716 -2.066 
-0.432502 -0.549716 -2.066 
-0.421619 -0.546789 -2.055 
-0.413039 -0.546789 -2.055 
-0.404458 -0.546789 -2.055 
-0.393759 -0.543862 -2.044 
-0.385225 -0.543862 -2.044 
-0.37669 -0.543862 -2.044 
-0.368156 -0.543862 -2.044 
-0.359621 -0.543862 -2.044 
-0.351087 -0.543862 -2.044 
-0.342552 -0.543862 -2.044 
-0.334018 -0.543862 -2.044 
-0.325484 -0.543862 -2.044 
-0.316949 -0.543862 -2.044 
-0.308415 -0.543862 -2.044 
-0.29988 -0.543862 -2.044 
-0.291346 -0.543862 -2.044 
-0.282811 -0.543862 -2.044 
-0.272801 -0.540935 -2.033 
-0.264312 -0.540935 -2.033 
-0.255824 -0.540935 -2.033 
-0.245997 -0.538008 -2.022 
-0.237555 -0.538008 -2.022 
-0.227979 -0.535348 -2.012 
-0.218378 -0.532421 -2.001 
-0.210023 -0.532421 -2.001 
-0.20066 -0.52976 -1.991 
-0.192347 -0.52976 -1.991 
-0.184034 -0.52976 -1.991 
-0.176603 -0.532421 -2.001 
-0.170014 -0.538008 -2.022 
-0.165087 -0.549716 -2.066 
-0.161686 -0.568075 -2.135 
-0.157209 -0.584572 -2.197 
-0.153291 -0.605326 -2.275 
-0.148216 -0.623951 -2.345 
-0.142793 -0.643641 -2.419 
-0.137027 -0.664661 -2.498 
-0.130854 -0.687012 -2.582 
-0.122584 -0.70138 -2.636 
-0.11234 -0.706169 -2.654 
-0.101983 -0.711225 -2.673 
-0.0908226 -0.711225 -2.673 
-0.0802281 -0.71628 -2.692 
-0.0689881 -0.71628 -2.692 
-0.0581556 -0.721336 -2.711 
-0.0471645 -0.726391 -2.73 
-0.0357657 -0.726391 -2.73 
-0.0245455 -0.731713 -2.75 
-0.0130633 -0.731713 -2.75 
-0.00159255 -0.737034 -2.77 
0.00997319 -0.737034 -2.77 
0.0215389 -0.737034 -2.77 
0.0331047 -0.737034 -2.77 
0.0449929 -0.742356 -2.79 
0.0566422 -0.742356 -2.79 
0.0682914 -0.742356 -2.79 
0.0805137 -0.747677 -2.81 
0.0922465 -0.747677 -2.81 
0.103979 -0.747677 -2.81 
0.116577 -0.753265 -2.831 
0.128397 -0.753265 -2.831 
0.141258 -0.758853 -2.852 
0.153166 -0.758853 -2.852 
0.166347 -0.764706 -2.874 
0.178347 -0.764706 -2.874 
0.190347 -0.764706 -2.874 
0.203826 -0.770294 -2.895 
0.215913 -0.770294 -2.895 
0.228001 -0.770294 -2.895 
0.241996 -0.776414 -2.918 
0.25418 -0.776414 -2.918 
0.266364 -0.776414 -2.918 
0.280647 -0.782267 -2.94 
0.292923 -0.782267 -2.94 
0.305199 -0.782267 -2.94 
0.317474 -0.782267 -2.94 
0.32975 -0.782267 -2.94 
0.342025 -0.782267 -2.94 
0.354301 -0.782267 -2.94 
0.366576 -0.782267 -2.94 
0.378852 -0.782267 -2.94 
0.391127 -0.782267 -2.94 
0.403403 -0.782267 -2.94 
0.415679 -0.782267 -2.94 
0.427954 -0.782267 -2.94 
0.44023 -0.782267 -2.94 
0.456045 -0.788387 -2.963 
0.472053 -0.794507 -2.986 
0.488252 -0.800627 -3.009 
0.504811 -0.807013 -3.033 
0.52174 -0.813664 -3.058 
0.543073 -0.826702 -3.107 
0.560699 -0.83362 -3.133 
0.588248 -0.85464 -3.212 
0.622639 -0.884441 -3.324 
0.665433 -0.924619 -3.475 
0.712227 -0.968521 -3.64 
0.763797 -1.01695 -3.822 
0.820763 -1.07043 -4.023 
0.874411 -1.11752 -4.2 
0.943765 -1.18245 -4.444 
1.00931 -1.24019 -4.661 
1.08152 -1.30378 -4.9 
1.13099 -1.3381 -5.029 
1.16734 -1.35593 -5.096 
1.18862 -1.35593 -5.096 
1.22628 -1.37429 -5.165 
1.24784 -1.37429 -5.165 
1.26941 -1.37429 -5.165 
1.29097 -1.37429 -5.165 
1.29501 -1.35593 -5.096 
1.31628 -1.35593 -5.096 
1.31997 -1.3381 -5.029 
1.32364 -1.32081 -4.964 
1.32703 -1.30378 -4.9 
1.34749 -1.30378 -4.9 
1.35064 -1.28728 -4.838 
1.37084 -1.28728 -4.838 
1.39104 -1.28728 -4.838 
1.39374 -1.27132 -4.778 
1.41369 -1.27132 -4.778 
1.41594 -1.25562 -4.719 
1.418 -1.24019 -4.661 
1.42019 -1.22529 -4.605 
1.40566 -1.19655 -4.497 
1.40765 -1.18245 -4.444 
1.40984 -1.16888 -4.393 
1.41192 -1.15557 -4.343 
1.41392 -1.14254 -4.294 
1.43185 -1.14254 -4.294 
1.43391 -1.13003 -4.247 
1.45164 -1.13003 -4.247 
1.46938 -1.13003 -4.247 
1.48711 -1.13003 -4.247 
1.5215 -1.14254 -4.294 
1.53942 -1.14254 -4.294 
1.55735 -1.14254 -4.294 
1.59326 -1.15557 -4.343 
1.61139 -1.15557 -4.343 
1.64829 -1.16888 -4.393 
1.70608 -1.19655 -4.497 
1.74519 -1.21065 -4.55 
1.78551 -1.22529 -4.605 
1.84942 -1.25562 -4.719 
1.89249 -1.27132 -4.778 
1.96127 -1.30378 -4.9 
2.00761 -1.32081 -4.964 
2.0549 -1.3381 -5.029 
2.10355 -1.35593 -5.096 
2.1536 -1.37429 -5.165 
2.17517 -1.37429 -5.165 
2.19673 -1.37429 -5.165 
2.2183 -1.37429 -5.165 
2.23987 -1.37429 -5.165 
2.26143 -1.37429 -5.165 
2.31438 -1.39318 -5.236 
2.33624 -1.39318 -5.236 
2.3581 -1.39318 -5.236 
2.37997 -1.39318 -5.236 
2.40183 -1.39318 -5.236 
2.42369 -1.39318 -5.236 
2.44555 -1.39318 -5.236 
2.46742 -1.39318 -5.236 
2.48928 -1.39318 -5.236 
2.51114 -1.39318 -5.236 
2.56783 -1.41234 -5.308 
2.59 -1.41234 -5.308 
2.61216 -1.41234 -5.308 
2.63432 -1.41234 -5.308 
2.65648 -1.41234 -5.308 
2.64231 -1.39318 -5.236 
2.66417 -1.39318 -5.236 
2.68604 -1.39318 -5.236 
2.7079 -1.39318 -5.236 
2.72976 -1.39318 -5.236 
2.71431 -1.37429 -5.165 
2.73588 -1.37429 -5.165 
2.75744 -1.37429 -5.165 
2.77901 -1.37429 -5.165 
2.80057 -1.37429 -5.165 
2.82214 -1.37429 -5.165 
2.84371 -1.37429 -5.165 
2.86527 -1.37429 -5.165 
2.88684 -1.37429 -5.165 
2.86955 -1.35593 -5.096 
2.89083 -1.35593 -5.096 
2.9121 -1.35593 -5.096 
2.93338 -1.35593 -5.096 
2.95466 -1.35593 -5.096 
2.97594 -1.35593 -5.096 
2.99722 -1.35593 -5.096 
2.97881 -1.3381 -5.029 
2.9998 -1.3381 -5.029 
3.0208 -1.3381 -5.029 
3.00249 -1.32081 -4.964 
3.02321 -1.32081 -4.964 
3.04394 -1.32081 -4.964 
3.06466 -1.32081 -4.964 
3.04561 -1.30378 -4.9 
3.02728 -1.28728 -4.838 
3.04748 -1.28728 -4.838 
3.06768 -1.28728 -4.838 
3.04958 -1.27132 -4.778 
3.06953 -1.27132 -4.778 
3.05133 -1.25562 -4.719 
3.07104 -1.25562 -4.719 
3.05275 -1.24019 -4.661 
3.07221 -1.24019 -4.661 
3.05453 -1.22529 -4.605 
3.03704 -1.21065 -4.55 
3.02044 -1.19655 -4.497 
2.96893 -1.16888 -4.393 
2.95328 -1.15557 -4.343 
2.93789 -1.14254 -4.294 
2.92346 -1.13003 -4.247 
2.90864 -1.11752 -4.2 
2.89413 -1.10529 -4.154 
2.88064 -1.09358 -4.11 
2.8978 -1.09358 -4.11 
2.88375 -1.08187 -4.066 
2.87005 -1.07043 -4.023 
2.82729 -1.04834 -3.94 
2.81487 -1.0377 -3.9 
2.80284 -1.02732 -3.861 
2.79049 -1.01695 -3.822 
2.75138 -0.996992 -3.747 
2.74044 -0.987413 -3.711 
2.7292 -0.977834 -3.675 
2.7184 -0.968521 -3.64 
2.7336 -0.968521 -3.64 
2.72312 -0.959475 -3.606 
2.73818 -0.959475 -3.606 
2.75324 -0.959475 -3.606 
2.76829 -0.959475 -3.606 
2.80959 -0.968521 -3.64 
2.82479 -0.968521 -3.64 
2.8673 -0.977834 -3.675 
2.88264 -0.977834 -3.675 
2.87039 -0.968521 -3.64 
2.88558 -0.968521 -3.64 
2.87369 -0.959475 -3.606 
2.91598 -0.968521 -3.64 
2.9038 -0.959475 -3.606 
2.94638 -0.968521 -3.64 
2.96158 -0.968521 -3.64 
2.94897 -0.959475 -3.606 
2.99197 -0.968521 -3.64 
3.00717 -0.968521 -3.64 
3.02237 -0.968521 -3.64 
3.00919 -0.959475 -3.606 
2.99574 -0.950428 -3.572 
2.95502 -0.932867 -3.506 
2.9434 -0.924619 -3.475 
2.90514 -0.908122 -3.413 
2.89287 -0.899873 -3.382 
2.88207 -0.892157 -3.353 
2.87102 -0.884441 -3.324 
2.8849 -0.884441 -3.324 
2.89878 -0.884441 -3.324 
2.88724 -0.876725 -3.295 
2.901 -0.876725 -3.295 
2.91476 -0.876725 -3.295 
2.90363 -0.869275 -3.267 
2.91727 -0.869275 -3.267 
2.90579 -0.861824 -3.239 
2.91932 -0.861824 -3.239 
2.90839 -0.85464 -3.212 
2.92181 -0.85464 -3.212 
2.93522 -0.85464 -3.212 
2.92384 -0.847456 -3.185 
2.93714 -0.847456 -3.185 
2.90227 -0.83362 -3.133 
2.91535 -0.83362 -3.133 
2.90413 -0.826702 -3.107 
2.89363 -0.82005 -3.082 
2.9065 -0.82005 -3.082 
2.87295 -0.807013 -3.033 
2.88562 -0.807013 -3.033 
2.89828 -0.807013 -3.033 
3.27246 -0.876725 -3.295 
3.31514 -0.884441 -3.324 
3.35807 -0.892157 -3.353 
-1.50932 -0.437809 -1.62 
-1.50812 -0.439431 -1.626 
-1.50133 -0.439431 -1.626 
-1.48903 -0.437809 -1.62 
-1.48226 -0.437809 -1.62 
-1.4755 -0.437809 -1.62 
-1.47418 -0.439431 -1.626 
-1.4737 -0.441323 -1.633 
-1.46689 -0.441323 -1.633 
-1.46633 -0.443214 -1.64 
-1.46571 -0.445106 -1.647 
-1.45883 -0.445106 -1.647 
-1.45901 -0.447268 -1.655 
-1.45824 -0.44916 -1.662 
-1.4513 -0.44916 -1.662 
-1.45044 -0.451052 -1.669 
-1.44953 -0.452944 -1.676 
-1.44942 -0.455106 -1.684 
-1.44239 -0.455106 -1.684 
-1.44132 -0.456997 -1.691 
-1.44105 -0.459159 -1.699 
-1.43986 -0.461051 -1.706 
-1.43274 -0.461051 -1.706 
-1.4323 -0.463213 -1.714 
-1.43179 -0.465375 -1.722 
-1.4246 -0.465375 -1.722 
-1.41741 -0.465375 -1.722 
-1.41596 -0.467267 -1.729 
-1.41526 -0.469429 -1.737 
-1.41449 -0.471591 -1.745 
-1.41365 -0.473753 -1.753 
-1.41275 -0.475915 -1.761 
-1.41178 -0.478077 -1.769 
-1.41154 -0.480509 -1.778 
-1.41675 -0.484833 -1.794 
-1.41633 -0.487266 -1.803 
-1.41506 -0.489428 -1.811 
-1.41449 -0.49186 -1.82 
-1.41385 -0.494292 -1.829 
-1.40621 -0.494292 -1.829 
-1.40545 -0.496724 -1.838 
-1.40386 -0.498886 -1.846 
-1.39616 -0.498886 -1.846 
-1.39522 -0.501319 -1.855 
-1.3942 -0.503751 -1.864 
-1.39386 -0.506454 -1.874 
-1.39269 -0.508886 -1.883 
-1.39145 -0.511318 -1.892 
-1.39744 -0.516453 -1.911 
-1.39673 -0.519155 -1.921 
-1.39522 -0.521588 -1.93 
-1.39435 -0.52429 -1.94 
-1.39339 -0.526993 -1.95 
-1.39236 -0.529695 -1.96 
-1.38417 -0.529695 -1.96 
-1.38301 -0.532398 -1.97 
-1.38176 -0.5351 -1.98 
-1.38113 -0.538073 -1.991 
-1.37281 -0.538073 -1.991 
-1.3645 -0.538073 -1.991 
-1.363 -0.540776 -2.001 
-1.36209 -0.543748 -2.012 
-1.35369 -0.543748 -2.012 
-1.34529 -0.543748 -2.012 
-1.34353 -0.546451 -2.022 
-1.33509 -0.546451 -2.022 
-1.33386 -0.549424 -2.033 
-1.33255 -0.552397 -2.044 
-1.33114 -0.555369 -2.055 
-1.32964 -0.558342 -2.066 
-1.32804 -0.561315 -2.077 
-1.32699 -0.564558 -2.089 
-1.32521 -0.567531 -2.1 
-1.33086 -0.573746 -2.123 
-1.32947 -0.576989 -2.135 
-1.3354 -0.583476 -2.159 
-1.33437 -0.586989 -2.172 
-1.33263 -0.590232 -2.184 
-1.33139 -0.593745 -2.197 
-1.33726 -0.600501 -2.222 
-1.32798 -0.600501 -2.222 
-1.32642 -0.604015 -2.235 
-1.32475 -0.607528 -2.248 
-1.32355 -0.611312 -2.262 
-1.32979 -0.618608 -2.289 
-1.32024 -0.618608 -2.289 
-1.31812 -0.622122 -2.302 
-1.31647 -0.625905 -2.316 
-1.31526 -0.629959 -2.331 
-1.31337 -0.633743 -2.345 
-1.31136 -0.637526 -2.359 
-1.30979 -0.64158 -2.374 
-1.29988 -0.64158 -2.374 
-1.28996 -0.64158 -2.374 
-1.28814 -0.645634 -2.389 
-1.27816 -0.645634 -2.389 
-1.27615 -0.649687 -2.404 
-1.27401 -0.653741 -2.419 
-1.26391 -0.653741 -2.419 
-1.25381 -0.653741 -2.419 
-1.25143 -0.657795 -2.434 
-1.24942 -0.662119 -2.45 
-1.24729 -0.666443 -2.466 
-1.24502 -0.670767 -2.482 
-1.24261 -0.675091 -2.498 
-1.24057 -0.679686 -2.515 
-1.23789 -0.68401 -2.531 
-1.23557 -0.688604 -2.548 
-1.2331 -0.693198 -2.565 
-1.23049 -0.697792 -2.582 
-1.22821 -0.702657 -2.6 
-1.22579 -0.707521 -2.618 
-1.22321 -0.712386 -2.636 
-1.2122 -0.712386 -2.636 
-1.2094 -0.717251 -2.654 
-1.19832 -0.717251 -2.654 
-1.19573 -0.722385 -2.673 
-1.18457 -0.722385 -2.673 
-1.18175 -0.72752 -2.692 
-1.17878 -0.732655 -2.711 
-1.17564 -0.73779 -2.73 
-1.16424 -0.73779 -2.73 
-1.16129 -0.743195 -2.75 
-1.1498 -0.743195 -2.75 
-1.1466 -0.7486 -2.77 
-1.13504 -0.7486 -2.77 
-1.13158 -0.754005 -2.79 
-1.11993 -0.754005 -2.79 
-1.10034 -0.7486 -2.77 
-1.06558 -0.732655 -2.711 
-1.0251 -0.712386 -2.636 
-0.986776 -0.693198 -2.565 
-0.944482 -0.670767 -2.482 
-0.904763 -0.649687 -2.404 
-0.861973 -0.625905 -2.316 
-0.827278 -0.607528 -2.248 
-0.790241 -0.586989 -2.172 
-0.763549 -0.573746 -2.123 
-0.742598 -0.564558 -2.089 
-0.725796 -0.558342 -2.066 
-0.713351 -0.555369 -2.055 
-0.697226 -0.549424 -2.033 
-0.692464 -0.552397 -2.044 
-0.694972 -0.561315 -2.077 
-0.690264 -0.564558 -2.089 
-0.689046 -0.570774 -2.112 
-0.68377 -0.573746 -2.123 
-0.678721 -0.576989 -2.135 
-0.669807 -0.576989 -2.135 
-0.660892 -0.576989 -2.135 
-0.648313 -0.573746 -2.123 
-0.636136 -0.570774 -2.112 
-0.623753 -0.567531 -2.1 
-0.614985 -0.567531 -2.1 
-0.603041 -0.564558 -2.089 
-0.594319 -0.564558 -2.089 
-0.582233 -0.561315 -2.077 
-0.573561 -0.561315 -2.077 
-0.568152 -0.564558 -2.089 
-0.55943 -0.564558 -2.089 
-0.550707 -0.564558 -2.089 
-0.541985 -0.564558 -2.089 
-0.530199 -0.561315 -2.077 
-0.521527 -0.561315 -2.077 
-0.512855 -0.561315 -2.077 
-0.504183 -0.561315 -2.077 
-0.498373 -0.564558 -2.089 
-0.489651 -0.564558 -2.089 
-0.478166 -0.561315 -2.077 
-0.469494 -0.561315 -2.077 
-0.460822 -0.561315 -2.077 
-0.452149 -0.561315 -2.077 
-0.441129 -0.558342 -2.066 
-0.432502 -0.558342 -2.066 
-0.421619 -0.555369 -2.055 
-0.413039 -0.555369 -2.055 
-0.404458 -0.555369 -2.055 
-0.393759 -0.552397 -2.044 
-0.385225 -0.552397 -2.044 
-0.37669 -0.552397 -2.044 
-0.368156 -0.552397 -2.044 
-0.359621 -0.552397 -2.044 
-0.351087 -0.552397 -2.044 
-0.342552 -0.552397 -2.044 
-0.334018 -0.552397 -2.044 
-0.325484 -0.552397 -2.044 
-0.316949 -0.552397 -2.044 
-0.308415 -0.552397 -2.044 
-0.29988 -0.552397 -2.044 
-0.291346 -0.552397 -2.044 
-0.282811 -0.552397 -2.044 
-0.272801 -0.549424 -2.033 
-0.264312 -0.549424 -2.033 
-0.255824 -0.549424 -2.033 
-0.245997 -0.546451 -2.022 
-0.23638 -0.543748 -2.012 
-0.227979 -0.543748 -2.012 
-0.218378 -0.540776 -2.001 
-0.208973 -0.538073 -1.991 
-0.20066 -0.538073 -1.991 
-0.191284 -0.5351 -1.98 
-0.183017 -0.5351 -1.98 
-0.175721 -0.538073 -1.991 
-0.169173 -0.543748 -2.012 
-0.164208 -0.555369 -2.055 
-0.159945 -0.570774 -2.112 
-0.156278 -0.590232 -2.184 
-0.151472 -0.607528 -2.248 
-0.147332 -0.629959 -2.331 
-0.141908 -0.649687 -2.404 
-0.136149 -0.670767 -2.482 
-0.129992 -0.693198 -2.565 
-0.122584 -0.712386 -2.636 
-0.111578 -0.712386 -2.636 
-0.101258 -0.717251 -2.654 
-0.0908226 -0.722385 -2.673 
-0.0796619 -0.722385 -2.673 
-0.0685012 -0.722385 -2.673 
-0.057748 -0.72752 -2.692 
-0.0468362 -0.732655 -2.711 
-0.0355168 -0.732655 -2.711 
-0.024367 -0.73779 -2.73 
-0.0129683 -0.73779 -2.73 
-0.00158105 -0.743195 -2.75 
0.00990118 -0.743195 -2.75 
0.0215389 -0.7486 -2.77 
0.0331047 -0.7486 -2.77 
0.0446704 -0.7486 -2.77 
0.0566422 -0.754005 -2.79 
0.068781 -0.75941 -2.81 
0.0799407 -0.754005 -2.79 
0.0922465 -0.75941 -2.81 
0.103979 -0.75941 -2.81 
0.116577 -0.765085 -2.831 
0.128397 -0.765085 -2.831 
0.141258 -0.770761 -2.852 
0.153166 -0.770761 -2.852 
0.165074 -0.770761 -2.852 
0.178347 -0.776706 -2.874 
0.191738 -0.782382 -2.895 
0.203826 -0.782382 -2.895 
0.215913 -0.782382 -2.895 
0.229813 -0.788597 -2.918 
0.241996 -0.788597 -2.918 
0.256096 -0.794543 -2.94 
0.268372 -0.794543 -2.94 
0.280647 -0.794543 -2.94 
0.292923 -0.794543 -2.94 
0.305199 -0.794543 -2.94 
0.317474 -0.794543 -2.94 
0.332329 -0.800759 -2.963 
0.344701 -0.800759 -2.963 
0.354301 -0.794543 -2.94 
0.366576 -0.794543 -2.94 
0.378852 -0.794543 -2.94 
0.391127 -0.794543 -2.94 
0.403403 -0.794543 -2.94 
0.415679 -0.794543 -2.94 
0.427954 -0.794543 -2.94 
0.44023 -0.794543 -2.94 
0.456045 -0.800759 -2.963 
0.468417 -0.800759 -2.963 
0.48452 -0.806975 -2.986 
0.500816 -0.81319 -3.009 
0.52174 -0.826433 -3.058 
0.543073 -0.839675 -3.107 
0.560699 -0.846702 -3.133 
0.588248 -0.868052 -3.212 
0.622639 -0.89832 -3.324 
0.665433 -0.939128 -3.475 
0.712227 -0.98372 -3.64 
0.763797 -1.03291 -3.822 
0.812194 -1.07588 -3.981 
0.874411 -1.13506 -4.2 
0.932934 -1.18722 -4.393 
0.997184 -1.24451 -4.605 
1.06784 -1.30748 -4.838 
1.11638 -1.34153 -4.964 
1.15199 -1.3591 -5.029 
1.17299 -1.3591 -5.029 
1.20989 -1.37721 -5.096 
1.23117 -1.37721 -5.096 
1.25245 -1.37721 -5.096 
1.25698 -1.3591 -5.029 
1.27798 -1.3591 -5.029 
1.28219 -1.34153 -4.964 
1.28612 -1.32424 -4.9 
1.30658 -1.32424 -4.9 
1.31024 -1.30748 -4.838 
1.33044 -1.30748 -4.838 
1.33389 -1.29127 -4.778 
1.35384 -1.29127 -4.778 
1.37379 -1.29127 -4.778 
1.39374 -1.29127 -4.778 
1.39624 -1.27532 -4.719 
1.39854 -1.25965 -4.661 
1.418 -1.25965 -4.661 
1.42019 -1.24451 -4.605 
1.40566 -1.21533 -4.497 
1.40765 -1.201 -4.444 
1.40984 -1.18722 -4.393 
1.41192 -1.17371 -4.343 
1.41392 -1.16047 -4.294 
1.41618 -1.14776 -4.247 
1.41804 -1.13506 -4.2 
1.43558 -1.13506 -4.2 
1.45312 -1.13506 -4.2 
1.47065 -1.13506 -4.2 
1.48819 -1.13506 -4.2 
1.50572 -1.13506 -4.2 
1.52326 -1.13506 -4.2 
1.5408 -1.13506 -4.2 
1.57577 -1.14776 -4.247 
1.61114 -1.16047 -4.294 
1.64766 -1.17371 -4.343 
1.68497 -1.18722 -4.393 
1.74364 -1.21533 -4.497 
1.80474 -1.24451 -4.605 
1.84615 -1.25965 -4.661 
1.91244 -1.29127 -4.778 
1.95666 -1.30748 -4.838 
2.00219 -1.32424 -4.9 
2.04907 -1.34153 -4.964 
2.0969 -1.3591 -5.029 
2.11789 -1.3591 -5.029 
2.13889 -1.3591 -5.029 
2.15989 -1.3591 -5.029 
2.20994 -1.37721 -5.096 
2.23122 -1.37721 -5.096 
2.2525 -1.37721 -5.096 
2.27378 -1.37721 -5.096 
2.29505 -1.37721 -5.096 
2.31633 -1.37721 -5.096 
2.33761 -1.37721 -5.096 
2.35889 -1.37721 -5.096 
2.41239 -1.39586 -5.165 
2.43396 -1.39586 -5.165 
2.45552 -1.39586 -5.165 
2.47709 -1.39586 -5.165 
2.49865 -1.39586 -5.165 
2.52022 -1.39586 -5.165 
2.54179 -1.39586 -5.165 
2.56335 -1.39586 -5.165 
2.58492 -1.39586 -5.165 
2.60648 -1.39586 -5.165 
2.62805 -1.39586 -5.165 
2.64961 -1.39586 -5.165 
2.6355 -1.37721 -5.096 
2.65677 -1.37721 -5.096 
2.67805 -1.37721 -5.096 
2.69933 -1.37721 -5.096 
2.72061 -1.37721 -5.096 
2.74188 -1.37721 -5.096 
2.76316 -1.37721 -5.096 
2.78444 -1.37721 -5.096 
2.80572 -1.37721 -5.096 
2.78983 -1.3591 -5.029 
2.81082 -1.3591 -5.029 
2.83182 -1.3591 -5.029 
2.85282 -1.3591 -5.029 
2.87382 -1.3591 -5.029 
2.89482 -1.3591 -5.029 
2.87813 -1.34153 -4.964 
2.89885 -1.34153 -4.964 
2.91958 -1.34153 -4.964 
2.94031 -1.34153 -4.964 
2.92286 -1.32424 -4.9 
2.94332 -1.32424 -4.9 
2.96377 -1.32424 -4.9 
2.98423 -1.32424 -4.9 
2.96667 -1.30748 -4.838 
2.98687 -1.30748 -4.838 
3.00708 -1.30748 -4.838 
3.02728 -1.30748 -4.838 
3.00968 -1.29127 -4.778 
3.02963 -1.29127 -4.778 
3.04958 -1.29127 -4.778 
3.03163 -1.27532 -4.719 
3.05133 -1.27532 -4.719 
3.03329 -1.25965 -4.661 
3.05275 -1.25965 -4.661 
3.0353 -1.24451 -4.605 
3.01805 -1.22965 -4.55 
3.00167 -1.21533 -4.497 
2.98485 -1.201 -4.444 
2.96893 -1.18722 -4.393 
2.91996 -1.16047 -4.294 
2.90573 -1.14776 -4.247 
2.85944 -1.12263 -4.154 
2.84632 -1.11074 -4.11 
2.83282 -1.09885 -4.066 
2.81966 -1.08723 -4.023 
2.80685 -1.07588 -3.981 
2.79439 -1.0648 -3.94 
2.7823 -1.05399 -3.9 
2.7706 -1.04345 -3.861 
2.75857 -1.03291 -3.822 
2.74695 -1.02264 -3.784 
2.73573 -1.01264 -3.747 
2.72494 -1.00291 -3.711 
2.71385 -0.993179 -3.675 
2.7032 -0.98372 -3.64 
2.7184 -0.98372 -3.64 
2.7336 -0.98372 -3.64 
2.72312 -0.974531 -3.606 
2.73818 -0.974531 -3.606 
2.75324 -0.974531 -3.606 
2.79439 -0.98372 -3.64 
2.80959 -0.98372 -3.64 
2.82479 -0.98372 -3.64 
2.8673 -0.993179 -3.675 
2.88264 -0.993179 -3.675 
2.87039 -0.98372 -3.64 
2.88558 -0.98372 -3.64 
2.87369 -0.974531 -3.606 
2.86151 -0.965343 -3.572 
2.9038 -0.974531 -3.606 
2.89134 -0.965343 -3.572 
2.93391 -0.974531 -3.606 
2.92116 -0.965343 -3.572 
2.96403 -0.974531 -3.606 
2.95099 -0.965343 -3.572 
2.96591 -0.965343 -3.572 
2.98082 -0.965343 -3.572 
2.96806 -0.956424 -3.539 
2.98284 -0.956424 -3.539 
2.9434 -0.939128 -3.475 
2.93067 -0.93048 -3.443 
2.89287 -0.913995 -3.382 
2.88207 -0.906157 -3.353 
2.89607 -0.906157 -3.353 
2.8849 -0.89832 -3.324 
2.87349 -0.890483 -3.295 
2.88724 -0.890483 -3.295 
2.87635 -0.882916 -3.267 
2.88999 -0.882916 -3.267 
2.90363 -0.882916 -3.267 
2.89227 -0.875348 -3.239 
2.90579 -0.875348 -3.239 
2.89498 -0.868052 -3.212 
2.90839 -0.868052 -3.212 
2.89724 -0.860755 -3.185 
2.91054 -0.860755 -3.185 
2.92384 -0.860755 -3.185 
2.91316 -0.853728 -3.159 
2.90227 -0.846702 -3.133 
2.89116 -0.839675 -3.107 
2.90413 -0.839675 -3.107 
2.89363 -0.832919 -3.082 
2.88386 -0.826433 -3.058 
2.89663 -0.826433 -3.058 
2.88562 -0.819676 -3.033 
2.89828 -0.819676 -3.033 
2.88791 -0.81319 -3.009 
2.90047 -0.81319 -3.009 
3.1242 -0.853728 -3.159 
3.19003 -0.868052 -3.212 
3.20344 -0.868052 -3.212 
3.24389 -0.875348 -3.239 
-1.50932 -0.444573 -1.62 
-1.50256 -0.444573 -1.62 
-1.49579 -0.444573 -1.62 
-1.48903 -0.444573 -1.62 
-1.48226 -0.444573 -1.62 
-1.4755 -0.444573 -1.62 
-1.47418 -0.44622 -1.626 
-1.4737 -0.448141 -1.633 
-1.46689 -0.448141 -1.633 
-1.46633 -0.450062 -1.64 
-1.46571 -0.451983 -1.647 
-1.45883 -0.451983 -1.647 
-1.45901 -0.454178 -1.655 
-1.45824 -0.456099 -1.662 
-1.4513 -0.456099 -1.662 
-1.45044 -0.45802 -1.669 
-1.44953 -0.459941 -1.676 
-1.44942 -0.462137 -1.684 
-1.44838 -0.464058 -1.691 
-1.44132 -0.464058 -1.691 
-1.44105 -0.466253 -1.699 
-1.43986 -0.468174 -1.706 
-1.43274 -0.468174 -1.706 
-1.4323 -0.47037 -1.714 
-1.42514 -0.47037 -1.714 
-1.4246 -0.472565 -1.722 
-1.41741 -0.472565 -1.722 
-1.41596 -0.474486 -1.729 
-1.41526 -0.476681 -1.737 
-1.41449 -0.478877 -1.745 
-1.41365 -0.481072 -1.753 
-1.41275 -0.483268 -1.761 
-1.41178 -0.485463 -1.769 
-1.41154 -0.487933 -1.778 
-1.41675 -0.492324 -1.794 
-1.41633 -0.494794 -1.803 
-1.41506 -0.496989 -1.811 
-1.41449 -0.499459 -1.82 
-1.41385 -0.501929 -1.829 
-1.40621 -0.501929 -1.829 
-1.40545 -0.504399 -1.838 
-1.40386 -0.506594 -1.846 
-1.39616 -0.506594 -1.846 
-1.39522 -0.509064 -1.855 
-1.3942 -0.511534 -1.864 
-1.39386 -0.514278 -1.874 
-1.39269 -0.516748 -1.883 
-1.39145 -0.519218 -1.892 
-1.39744 -0.524432 -1.911 
-1.39673 -0.527176 -1.921 
-1.39522 -0.529646 -1.93 
-1.39435 -0.53239 -1.94 
-1.39339 -0.535135 -1.95 
-1.38525 -0.535135 -1.95 
-1.38417 -0.537879 -1.96 
-1.38301 -0.540623 -1.97 
-1.38176 -0.543368 -1.98 
-1.38113 -0.546386 -1.991 
-1.37281 -0.546386 -1.991 
-1.3645 -0.546386 -1.991 
-1.363 -0.54913 -2.001 
-1.36209 -0.552149 -2.012 
-1.35369 -0.552149 -2.012 
-1.34529 -0.552149 -2.012 
-1.34353 -0.554893 -2.022 
-1.33509 -0.554893 -2.022 
-1.33386 -0.557912 -2.033 
-1.33255 -0.560931 -2.044 
-1.33114 -0.56395 -2.055 
-1.32964 -0.566968 -2.066 
-1.32804 -0.569987 -2.077 
-1.32699 -0.57328 -2.089 
-1.32521 -0.576299 -2.1 
-1.33086 -0.582611 -2.123 
-1.32947 -0.585904 -2.135 
-1.3354 -0.59249 -2.159 
-1.33437 -0.596058 -2.172 
-1.33263 -0.599351 -2.184 
-1.33139 -0.602918 -2.197 
-1.33726 -0.609779 -2.222 
-1.32798 -0.609779 -2.222 
-1.32642 -0.613347 -2.235 
-1.333 -0.620756 -2.262 
-1.33116 -0.624324 -2.275 
-1.32979 -0.628166 -2.289 
-1.32024 -0.628166 -2.289 
-1.31812 -0.631733 -2.302 
-1.31647 -0.635575 -2.316 
-1.31526 -0.639692 -2.331 
-1.31337 -0.643534 -2.345 
-1.30358 -0.643534 -2.345 
-1.30151 -0.647376 -2.359 
-1.29988 -0.651492 -2.374 
-1.28996 -0.651492 -2.374 
-1.28814 -0.655609 -2.389 
-1.27816 -0.655609 -2.389 
-1.27615 -0.659725 -2.404 
-1.26611 -0.659725 -2.404 
-1.26391 -0.663841 -2.419 
-1.25381 -0.663841 -2.419 
-1.25143 -0.667958 -2.434 
-1.24126 -0.667958 -2.434 
-1.23919 -0.672349 -2.45 
-1.23699 -0.67674 -2.466 
-1.24261 -0.685521 -2.498 
-1.24057 -0.690187 -2.515 
-1.23789 -0.694577 -2.531 
-1.23557 -0.699243 -2.548 
-1.2331 -0.703908 -2.565 
-1.23049 -0.708573 -2.582 
-1.22821 -0.713513 -2.6 
-1.22579 -0.718453 -2.618 
-1.21486 -0.718453 -2.618 
-1.2122 -0.723392 -2.636 
-1.2094 -0.728332 -2.654 
-1.19832 -0.728332 -2.654 
-1.19573 -0.733546 -2.673 
-1.18457 -0.733546 -2.673 
-1.18175 -0.73876 -2.692 
-1.17878 -0.743974 -2.711 
-1.16746 -0.743974 -2.711 
-1.16424 -0.749188 -2.73 
-1.16129 -0.754677 -2.75 
-1.1498 -0.754677 -2.75 
-1.1466 -0.760166 -2.77 
-1.13504 -0.760166 -2.77 
-1.12347 -0.760166 -2.77 
-1.1119 -0.760166 -2.77 
-1.0769 -0.743974 -2.711 
-1.04318 -0.728332 -2.654 
-0.997485 -0.703908 -2.565 
-0.954845 -0.68113 -2.482 
-0.909092 -0.655609 -2.389 
-0.866374 -0.631733 -2.302 
-0.826988 -0.609779 -2.222 
-0.79011 -0.589197 -2.147 
-0.764045 -0.576299 -2.1 
-0.739092 -0.56395 -2.055 
-0.722691 -0.557912 -2.033 
-0.706826 -0.552149 -2.012 
-0.698425 -0.552149 -2.012 
-0.690024 -0.552149 -2.012 
-0.688737 -0.557912 -2.033 
-0.691291 -0.566968 -2.066 
-0.690264 -0.57328 -2.089 
-0.687635 -0.585904 -2.135 
-0.678721 -0.585904 -2.135 
-0.669807 -0.585904 -2.135 
-0.657178 -0.582611 -2.123 
-0.648313 -0.582611 -2.123 
-0.636136 -0.579592 -2.112 
-0.623753 -0.576299 -2.1 
-0.611764 -0.57328 -2.089 
-0.603041 -0.57328 -2.089 
-0.590905 -0.569987 -2.077 
-0.582233 -0.569987 -2.077 
-0.573561 -0.569987 -2.077 
-0.568152 -0.57328 -2.089 
-0.556216 -0.569987 -2.077 
-0.547544 -0.569987 -2.077 
-0.538872 -0.569987 -2.077 
-0.530199 -0.569987 -2.077 
-0.521527 -0.569987 -2.077 
-0.512855 -0.569987 -2.077 
-0.504183 -0.569987 -2.077 
-0.495511 -0.569987 -2.077 
-0.486838 -0.569987 -2.077 
-0.478166 -0.569987 -2.077 
-0.469494 -0.569987 -2.077 
-0.460822 -0.569987 -2.077 
-0.452149 -0.569987 -2.077 
-0.441129 -0.566968 -2.066 
-0.432502 -0.566968 -2.066 
-0.421619 -0.56395 -2.055 
-0.413039 -0.56395 -2.055 
-0.404458 -0.56395 -2.055 
-0.393759 -0.560931 -2.044 
-0.385225 -0.560931 -2.044 
-0.37669 -0.560931 -2.044 
-0.366174 -0.557912 -2.033 
-0.357686 -0.557912 -2.033 
-0.351087 -0.560931 -2.044 
-0.342552 -0.560931 -2.044 
-0.334018 -0.560931 -2.044 
-0.325484 -0.560931 -2.044 
-0.316949 -0.560931 -2.044 
-0.308415 -0.560931 -2.044 
-0.298266 -0.557912 -2.033 
-0.289778 -0.557912 -2.033 
-0.281289 -0.557912 -2.033 
-0.272801 -0.557912 -2.033 
-0.264312 -0.557912 -2.033 
-0.25444 -0.554893 -2.022 
-0.245997 -0.554893 -2.022 
-0.23638 -0.552149 -2.012 
-0.226732 -0.54913 -2.001 
-0.217286 -0.546386 -1.991 
-0.208973 -0.546386 -1.991 
-0.199551 -0.543368 -1.98 
-0.190318 -0.540623 -1.97 
-0.183017 -0.543368 -1.98 
-0.17475 -0.543368 -1.98 
-0.169173 -0.552149 -2.012 
-0.164208 -0.56395 -2.055 
-0.160778 -0.582611 -2.123 
-0.156278 -0.599351 -2.184 
-0.152415 -0.620756 -2.262 
-0.147332 -0.639692 -2.331 
-0.142793 -0.663841 -2.419 
-0.137027 -0.685521 -2.498 
-0.129992 -0.703908 -2.565 
-0.121747 -0.718453 -2.618 
-0.111578 -0.723392 -2.636 
-0.101258 -0.728332 -2.654 
-0.0901771 -0.728332 -2.654 
-0.0796619 -0.733546 -2.673 
-0.0685012 -0.733546 -2.673 
-0.057748 -0.73876 -2.692 
-0.046508 -0.73876 -2.692 
-0.0355168 -0.743974 -2.711 
-0.024367 -0.749188 -2.73 
-0.0129683 -0.749188 -2.73 
-0.00158105 -0.754677 -2.75 
0.00990118 -0.754677 -2.75 
0.0215389 -0.760166 -2.77 
0.0331047 -0.760166 -2.77 
0.0449929 -0.765654 -2.79 
0.0566422 -0.765654 -2.79 
0.068781 -0.771143 -2.81 
0.0799407 -0.765654 -2.79 
0.0922465 -0.771143 -2.81 
0.103979 -0.771143 -2.81 
0.116577 -0.776906 -2.831 
0.12935 -0.782669 -2.852 
0.141258 -0.782669 -2.852 
0.153166 -0.782669 -2.852 
0.166347 -0.788706 -2.874 
0.178347 -0.788706 -2.874 
0.191738 -0.794469 -2.895 
0.203826 -0.794469 -2.895 
0.217629 -0.800781 -2.918 
0.229813 -0.800781 -2.918 
0.243821 -0.806818 -2.94 
0.256096 -0.806818 -2.94 
0.270471 -0.81313 -2.963 
0.282843 -0.81313 -2.963 
0.297506 -0.819442 -2.986 
0.309974 -0.819442 -2.986 
0.322441 -0.819442 -2.986 
0.334909 -0.819442 -2.986 
0.347377 -0.819442 -2.986 
0.359844 -0.819442 -2.986 
0.369444 -0.81313 -2.963 
0.381816 -0.81313 -2.963 
0.391127 -0.806818 -2.94 
0.403403 -0.806818 -2.94 
0.415679 -0.806818 -2.94 
0.427954 -0.806818 -2.94 
0.44023 -0.806818 -2.94 
0.452505 -0.806818 -2.94 
0.468417 -0.81313 -2.963 
0.48452 -0.819442 -2.986 
0.500816 -0.825754 -3.009 
0.52174 -0.839201 -3.058 
0.543073 -0.852648 -3.107 
0.565352 -0.866918 -3.159 
0.588248 -0.881463 -3.212 
0.622639 -0.912199 -3.324 
0.665433 -0.953637 -3.475 
0.705575 -0.989587 -3.606 
0.756203 -1.03844 -3.784 
0.812194 -1.0925 -3.981 
0.864834 -1.13997 -4.154 
0.922316 -1.19184 -4.343 
0.985274 -1.24865 -4.55 
1.0546 -1.31122 -4.778 
1.10198 -1.3447 -4.9 
1.12244 -1.3447 -4.9 
1.15783 -1.36226 -4.964 
1.19399 -1.3801 -5.029 
1.21499 -1.3801 -5.029 
1.23598 -1.3801 -5.029 
1.24073 -1.36226 -4.964 
1.2452 -1.3447 -4.9 
1.26566 -1.3447 -4.9 
1.26984 -1.32768 -4.838 
1.27404 -1.31122 -4.778 
1.29399 -1.31122 -4.778 
1.29772 -1.29503 -4.719 
1.31742 -1.29503 -4.719 
1.33713 -1.29503 -4.719 
1.35683 -1.29503 -4.719 
1.37653 -1.29503 -4.719 
1.37908 -1.27911 -4.661 
1.39854 -1.27911 -4.661 
1.418 -1.27911 -4.661 
1.42019 -1.26374 -4.605 
1.42222 -1.24865 -4.55 
1.40765 -1.21956 -4.444 
1.40984 -1.20556 -4.393 
1.41192 -1.19184 -4.343 
1.41392 -1.17839 -4.294 
1.41618 -1.1655 -4.247 
1.43391 -1.1655 -4.247 
1.43558 -1.1526 -4.2 
1.45312 -1.1526 -4.2 
1.45454 -1.13997 -4.154 
1.47189 -1.13997 -4.154 
1.48923 -1.13997 -4.154 
1.50658 -1.13997 -4.154 
1.5408 -1.1526 -4.2 
1.55833 -1.1526 -4.2 
1.59351 -1.1655 -4.247 
1.61124 -1.1655 -4.247 
1.647 -1.17839 -4.294 
1.70331 -1.20556 -4.393 
1.74164 -1.21956 -4.444 
1.80218 -1.24865 -4.55 
1.84319 -1.26374 -4.605 
1.90853 -1.29503 -4.719 
1.95234 -1.31122 -4.778 
1.99706 -1.32768 -4.838 
2.04311 -1.3447 -4.9 
2.09052 -1.36226 -4.964 
2.08403 -1.3447 -4.9 
2.10449 -1.3447 -4.9 
2.1527 -1.36226 -4.964 
2.17343 -1.36226 -4.964 
2.19415 -1.36226 -4.964 
2.21488 -1.36226 -4.964 
2.23561 -1.36226 -4.964 
2.25633 -1.36226 -4.964 
2.30687 -1.3801 -5.029 
2.32787 -1.3801 -5.029 
2.34887 -1.3801 -5.029 
2.36987 -1.3801 -5.029 
2.42272 -1.39849 -5.096 
2.444 -1.39849 -5.096 
2.46527 -1.39849 -5.096 
2.48655 -1.39849 -5.096 
2.50783 -1.39849 -5.096 
2.52911 -1.39849 -5.096 
2.55038 -1.39849 -5.096 
2.57166 -1.39849 -5.096 
2.55885 -1.3801 -5.029 
2.57985 -1.3801 -5.029 
2.60085 -1.3801 -5.029 
2.62184 -1.3801 -5.029 
2.60868 -1.36226 -4.964 
2.62941 -1.36226 -4.964 
2.65014 -1.36226 -4.964 
2.67086 -1.36226 -4.964 
2.69159 -1.36226 -4.964 
2.71231 -1.36226 -4.964 
2.73304 -1.36226 -4.964 
2.75377 -1.36226 -4.964 
2.77449 -1.36226 -4.964 
2.79522 -1.36226 -4.964 
2.81595 -1.36226 -4.964 
2.83667 -1.36226 -4.964 
2.82056 -1.3447 -4.9 
2.84102 -1.3447 -4.9 
2.86148 -1.3447 -4.9 
2.88194 -1.3447 -4.9 
2.86567 -1.32768 -4.838 
2.88587 -1.32768 -4.838 
2.90607 -1.32768 -4.838 
2.92627 -1.32768 -4.838 
2.94647 -1.32768 -4.838 
2.96667 -1.32768 -4.838 
2.94983 -1.31122 -4.778 
2.96978 -1.31122 -4.778 
2.98973 -1.31122 -4.778 
3.00968 -1.31122 -4.778 
3.02963 -1.31122 -4.778 
3.01192 -1.29503 -4.719 
3.03163 -1.29503 -4.719 
3.01383 -1.27911 -4.661 
3.03329 -1.27911 -4.661 
3.01607 -1.26374 -4.605 
3.0353 -1.26374 -4.605 
2.98289 -1.2341 -4.497 
2.96629 -1.21956 -4.444 
2.95059 -1.20556 -4.393 
2.93514 -1.19184 -4.343 
2.91996 -1.17839 -4.294 
2.87357 -1.1526 -4.2 
2.85944 -1.13997 -4.154 
2.84632 -1.1279 -4.11 
2.80286 -1.10402 -4.023 
2.76149 -1.08125 -3.94 
2.74974 -1.07027 -3.9 
2.73836 -1.05957 -3.861 
2.72666 -1.04886 -3.822 
2.71535 -1.03844 -3.784 
2.70444 -1.02828 -3.747 
2.69395 -1.0184 -3.711 
2.70945 -1.0184 -3.711 
2.69851 -1.00852 -3.675 
2.68801 -0.998918 -3.64 
2.7032 -0.998918 -3.64 
2.7184 -0.998918 -3.64 
2.7336 -0.998918 -3.64 
2.7488 -0.998918 -3.64 
2.764 -0.998918 -3.64 
2.7792 -0.998918 -3.64 
2.79439 -0.998918 -3.64 
2.80959 -0.998918 -3.64 
2.85195 -1.00852 -3.675 
2.8673 -1.00852 -3.675 
2.88264 -1.00852 -3.675 
2.89799 -1.00852 -3.675 
2.88558 -0.998918 -3.64 
2.87369 -0.989587 -3.606 
2.86151 -0.980257 -3.572 
2.87642 -0.980257 -3.572 
2.89134 -0.980257 -3.572 
2.90625 -0.980257 -3.572 
2.92116 -0.980257 -3.572 
2.93608 -0.980257 -3.572 
2.97908 -0.989587 -3.606 
2.99414 -0.989587 -3.606 
3.00919 -0.989587 -3.606 
2.99574 -0.980257 -3.572 
2.98284 -0.971201 -3.539 
2.96966 -0.962145 -3.506 
2.93067 -0.944856 -3.443 
2.91939 -0.936623 -3.413 
2.90699 -0.928116 -3.382 
2.89607 -0.920157 -3.353 
2.8849 -0.912199 -3.324 
2.89878 -0.912199 -3.324 
2.88724 -0.90424 -3.295 
2.901 -0.90424 -3.295 
2.88999 -0.896556 -3.267 
2.90363 -0.896556 -3.267 
2.89227 -0.888872 -3.239 
2.90579 -0.888872 -3.239 
2.89498 -0.881463 -3.212 
2.88395 -0.874053 -3.185 
2.89724 -0.874053 -3.185 
2.91054 -0.874053 -3.185 
2.89997 -0.866918 -3.159 
2.91316 -0.866918 -3.159 
2.87818 -0.852648 -3.107 
2.89116 -0.852648 -3.107 
2.88076 -0.845787 -3.082 
2.8711 -0.839201 -3.058 
2.86029 -0.83234 -3.033 
2.87295 -0.83234 -3.033 
2.88562 -0.83234 -3.033 
2.87535 -0.825754 -3.009 
2.88791 -0.825754 -3.009 
2.90047 -0.825754 -3.009 
2.91304 -0.825754 -3.009 
2.94894 -0.83234 -3.033 
3.02231 -0.845787 -3.082 
3.08541 -0.859783 -3.133 
3.09849 -0.859783 -3.133 
3.13739 -0.866918 -3.159 
3.15058 -0.866918 -3.159 
3.16377 -0.866918 -3.159 
-1.50932 -0.451338 -1.62 
-1.50256 -0.451338 -1.62 
-1.49579 -0.451338 -1.62 
-1.49454 -0.453009 -1.626 
-1.48226 -0.451338 -1.62 
-1.4755 -0.451338 -1.62 
-1.47418 -0.453009 -1.626 
-1.4737 -0.454959 -1.633 
-1.46689 -0.454959 -1.633 
-1.46633 -0.45691 -1.64 
-1.46571 -0.45886 -1.647 
-1.45883 -0.45886 -1.647 
-1.45901 -0.461089 -1.655 
-1.45824 -0.463039 -1.662 
-1.4513 -0.463039 -1.662 
-1.45044 -0.464989 -1.669 
-1.44953 -0.466939 -1.676 
-1.44942 -0.469168 -1.684 
-1.44838 -0.471118 -1.691 
-1.44132 -0.471118 -1.691 
-1.44105 -0.473347 -1.699 
-1.43986 -0.475297 -1.706 
-1.43274 -0.475297 -1.706 
-1.42561 -0.475297 -1.706 
-1.42514 -0.477526 -1.714 
-1.4246 -0.479755 -1.722 
-1.41741 -0.479755 -1.722 
-1.41596 -0.481705 -1.729 
-1.41526 -0.483934 -1.737 
-1.41449 -0.486163 -1.745 
-1.41365 -0.488392 -1.753 
-1.41275 -0.490621 -1.761 
-1.41178 -0.492849 -1.769 
-1.41154 -0.495357 -1.778 
-1.41675 -0.499814 -1.794 
-1.41633 -0.502322 -1.803 
-1.41506 -0.504551 -1.811 
-1.41449 -0.507058 -1.82 
-1.41385 -0.509566 -1.829 
-1.40621 -0.509566 -1.829 
-1.40545 -0.512073 -1.838 
-1.40386 -0.514302 -1.846 
-1.39616 -0.514302 -1.846 
-1.39522 -0.516809 -1.855 
-1.3942 -0.519317 -1.864 
-1.39386 -0.522103 -1.874 
-1.39269 -0.52461 -1.883 
-1.39145 -0.527118 -1.892 
-1.39744 -0.532411 -1.911 
-1.39673 -0.535197 -1.921 
-1.38871 -0.535197 -1.921 
-1.38716 -0.537705 -1.93 
-1.38625 -0.540491 -1.94 
-1.38525 -0.543277 -1.95 
-1.38417 -0.546063 -1.96 
-1.38301 -0.548849 -1.97 
-1.37478 -0.548849 -1.97 
-1.37349 -0.551635 -1.98 
-1.37281 -0.554699 -1.991 
-1.3645 -0.554699 -1.991 
-1.35619 -0.554699 -1.991 
-1.35464 -0.557485 -2.001 
-1.35369 -0.56055 -2.012 
-1.34529 -0.56055 -2.012 
-1.33689 -0.56055 -2.012 
-1.33509 -0.563336 -2.022 
-1.33386 -0.566401 -2.033 
-1.32538 -0.566401 -2.033 
-1.32401 -0.569465 -2.044 
-1.32256 -0.57253 -2.055 
-1.32804 -0.578659 -2.077 
-1.32699 -0.582002 -2.089 
-1.32521 -0.585067 -2.1 
-1.33086 -0.591475 -2.123 
-1.32947 -0.594818 -2.135 
-1.3354 -0.601505 -2.159 
-1.33437 -0.605127 -2.172 
-1.33263 -0.60847 -2.184 
-1.33139 -0.612092 -2.197 
-1.32943 -0.615435 -2.209 
-1.32798 -0.619057 -2.222 
-1.33413 -0.6263 -2.248 
-1.333 -0.630201 -2.262 
-1.33116 -0.633823 -2.275 
-1.32979 -0.637723 -2.289 
-1.32024 -0.637723 -2.289 
-1.31812 -0.641345 -2.302 
-1.31647 -0.645245 -2.316 
-1.31526 -0.649424 -2.331 
-1.31337 -0.653325 -2.345 
-1.30358 -0.653325 -2.345 
-1.30151 -0.657225 -2.359 
-1.29988 -0.661404 -2.374 
-1.28996 -0.661404 -2.374 
-1.28005 -0.661404 -2.374 
-1.27816 -0.665583 -2.389 
-1.26819 -0.665583 -2.389 
-1.26611 -0.669763 -2.404 
-1.26391 -0.673942 -2.419 
-1.25381 -0.673942 -2.419 
-1.25143 -0.678121 -2.434 
-1.24126 -0.678121 -2.434 
-1.23919 -0.682578 -2.45 
-1.23699 -0.687036 -2.466 
-1.23465 -0.691494 -2.482 
-1.23218 -0.695951 -2.498 
-1.23007 -0.700688 -2.515 
-1.23557 -0.709881 -2.548 
-1.2331 -0.714618 -2.565 
-1.23049 -0.719354 -2.582 
-1.22821 -0.724369 -2.6 
-1.21736 -0.724369 -2.6 
-1.21486 -0.729384 -2.618 
-1.2122 -0.734399 -2.636 
-1.2012 -0.734399 -2.636 
-1.19832 -0.739413 -2.654 
-1.19573 -0.744707 -2.673 
-1.18457 -0.744707 -2.673 
-1.18175 -0.75 -2.692 
-1.17878 -0.755294 -2.711 
-1.16746 -0.755294 -2.711 
-1.16424 -0.760587 -2.73 
-1.15284 -0.760587 -2.73 
-1.1498 -0.766159 -2.75 
-1.13832 -0.766159 -2.75 
-1.12684 -0.766159 -2.75 
-1.12347 -0.771731 -2.77 
-1.09585 -0.760587 -2.73 
-1.06181 -0.744707 -2.673 
-1.02195 -0.724369 -2.6 
-0.97143 -0.695951 -2.498 
-0.875986 -0.641345 -2.302 
-0.836266 -0.619057 -2.222 
-0.794608 -0.594818 -2.135 
-0.768765 -0.582002 -2.089 
-0.743671 -0.569465 -2.044 
-0.723627 -0.56055 -2.012 
-0.707761 -0.554699 -1.991 
-0.695584 -0.551635 -1.98 
-0.687317 -0.551635 -1.98 
-0.682822 -0.554699 -1.991 
-0.685011 -0.563336 -2.022 
-0.68761 -0.57253 -2.055 
-0.687635 -0.594818 -2.135 
-0.678721 -0.594818 -2.135 
-0.666042 -0.591475 -2.123 
-0.657178 -0.591475 -2.123 
-0.648313 -0.591475 -2.123 
-0.636136 -0.58841 -2.112 
-0.623753 -0.585067 -2.1 
-0.611764 -0.582002 -2.089 
-0.599577 -0.578659 -2.077 
-0.590905 -0.578659 -2.077 
-0.582233 -0.578659 -2.077 
-0.573561 -0.578659 -2.077 
-0.564888 -0.578659 -2.077 
-0.556216 -0.578659 -2.077 
-0.547544 -0.578659 -2.077 
-0.538872 -0.578659 -2.077 
-0.530199 -0.578659 -2.077 
-0.521527 -0.578659 -2.077 
-0.512855 -0.578659 -2.077 
-0.504183 -0.578659 -2.077 
-0.498373 -0.582002 -2.089 
-0.486838 -0.578659 -2.077 
-0.478166 -0.578659 -2.077 
-0.469494 -0.578659 -2.077 
-0.460822 -0.578659 -2.077 
-0.452149 -0.578659 -2.077 
-0.443477 -0.578659 -2.077 
-0.432502 -0.575595 -2.066 
-0.421619 -0.57253 -2.055 
-0.413039 -0.57253 -2.055 
-0.404458 -0.57253 -2.055 
-0.393759 -0.569465 -2.044 
-0.385225 -0.569465 -2.044 
-0.37669 -0.569465 -2.044 
-0.368156 -0.569465 -2.044 
-0.357686 -0.566401 -2.033 
-0.351087 -0.569465 -2.044 
-0.340709 -0.566401 -2.033 
-0.33222 -0.566401 -2.033 
-0.323732 -0.566401 -2.033 
-0.315243 -0.566401 -2.033 
-0.306755 -0.566401 -2.033 
-0.298266 -0.566401 -2.033 
-0.289778 -0.566401 -2.033 
-0.281289 -0.566401 -2.033 
-0.272801 -0.566401 -2.033 
-0.262882 -0.563336 -2.022 
-0.25444 -0.563336 -2.022 
-0.245997 -0.563336 -2.022 
-0.23638 -0.56055 -2.012 
-0.226732 -0.557485 -2.001 
-0.217286 -0.554699 -1.991 
-0.207819 -0.551635 -1.98 
-0.198544 -0.548849 -1.97 
-0.190318 -0.548849 -1.97 
-0.181168 -0.546063 -1.96 
-0.17475 -0.551635 -1.98 
-0.168248 -0.557485 -2.001 
-0.164208 -0.57253 -2.055 
-0.160778 -0.591475 -2.123 
-0.156278 -0.60847 -2.184 
-0.152415 -0.630201 -2.262 
-0.148216 -0.653325 -2.345 
-0.142793 -0.673942 -2.419 
-0.137027 -0.695951 -2.498 
-0.129992 -0.714618 -2.565 
-0.121747 -0.729384 -2.618 
-0.111578 -0.734399 -2.636 
-0.100572 -0.734399 -2.636 
-0.0901771 -0.739413 -2.654 
-0.0796619 -0.744707 -2.673 
-0.0685012 -0.744707 -2.673 
-0.057748 -0.75 -2.692 
-0.0468362 -0.755294 -2.711 
-0.0355168 -0.755294 -2.711 
-0.024367 -0.760587 -2.73 
-0.0130633 -0.766159 -2.75 
-0.00159255 -0.771731 -2.77 
0.00997319 -0.771731 -2.77 
0.0216944 -0.777303 -2.79 
0.0333437 -0.777303 -2.79 
0.0453155 -0.782876 -2.81 
0.0570482 -0.782876 -2.81 
0.069295 -0.788726 -2.831 
0.0805137 -0.782876 -2.81 
0.0929359 -0.788726 -2.831 
0.104756 -0.788726 -2.831 
0.117442 -0.794577 -2.852 
0.12935 -0.794577 -2.852 
0.142347 -0.800706 -2.874 
0.154347 -0.800706 -2.874 
0.167563 -0.806557 -2.895 
0.179651 -0.806557 -2.895 
0.193261 -0.812965 -2.918 
0.205445 -0.812965 -2.918 
0.21927 -0.819094 -2.94 
0.231545 -0.819094 -2.94 
0.245728 -0.825502 -2.963 
0.2581 -0.825502 -2.963 
0.272571 -0.83191 -2.986 
0.285039 -0.83191 -2.986 
0.297506 -0.83191 -2.986 
0.309974 -0.83191 -2.986 
0.322441 -0.83191 -2.986 
0.334909 -0.83191 -2.986 
0.347377 -0.83191 -2.986 
0.359844 -0.83191 -2.986 
0.369444 -0.825502 -2.963 
0.381816 -0.825502 -2.963 
0.391127 -0.819094 -2.94 
0.403403 -0.819094 -2.94 
0.412568 -0.812965 -2.918 
0.424752 -0.812965 -2.918 
0.436935 -0.812965 -2.918 
0.449119 -0.812965 -2.918 
0.464781 -0.819094 -2.94 
0.480788 -0.825502 -2.963 
0.496988 -0.83191 -2.986 
0.517475 -0.845004 -3.033 
0.538703 -0.858656 -3.082 
0.560699 -0.872864 -3.133 
0.588248 -0.894874 -3.212 
0.622639 -0.926078 -3.324 
0.659305 -0.959231 -3.443 
0.705575 -1.00464 -3.606 
0.756203 -1.05424 -3.784 
0.803829 -1.0977 -3.94 
0.855673 -1.14506 -4.11 
0.91191 -1.19632 -4.294 
0.973797 -1.25288 -4.497 
1.04157 -1.31473 -4.719 
1.08804 -1.34788 -4.838 
1.12244 -1.36516 -4.9 
1.1429 -1.36516 -4.9 
1.17856 -1.38299 -4.964 
1.19928 -1.38299 -4.964 
1.22001 -1.38299 -4.964 
1.22474 -1.36516 -4.9 
1.22944 -1.34788 -4.838 
1.23414 -1.33117 -4.778 
1.23861 -1.31473 -4.719 
1.25831 -1.31473 -4.719 
1.26231 -1.29857 -4.661 
1.28177 -1.29857 -4.661 
1.30123 -1.29857 -4.661 
1.32069 -1.29857 -4.661 
1.34015 -1.29857 -4.661 
1.35961 -1.29857 -4.661 
1.39624 -1.31473 -4.719 
