ply
format ascii 1.0
comment pointcloud saved from Realsense Viewer
element vertex 1805
property float32 x
property float32 y
property float32 z
end_header
1.68883 2.44600 -0.10826 
1.68773 2.41700 -0.10698 
1.81802 2.26500 -0.10025 
1.81611 2.24800 -0.09950 
1.93371 2.29000 -0.10136 
-1.60327 2.10100 -0.09848 
-1.59815 2.11600 -0.09918 
-1.58682 2.12300 -0.09951 
-1.53063 2.16100 -0.10129 
-1.52499 2.16100 -0.10129 
-1.39492 2.29000 -0.10734 
-1.32918 2.29000 -0.10734 
-1.31125 2.29000 -0.10734 
-1.30528 2.29000 -0.10734 
-1.27337 2.30800 -0.10818 
-0.91642 2.53700 -0.11891 
-0.89155 2.58000 -0.12093 
-0.88860 2.59100 -0.12144 
-0.82182 2.68200 -0.12571 
-0.66262 2.71800 -0.12740 
-0.65553 2.71800 -0.12740 
-0.42421 2.83100 -0.13269 
-0.32384 2.85800 -0.13396 
-0.30568 2.89800 -0.13583 
-0.09206 3.08900 -0.14479 
-0.02743 3.07300 -0.14404 
0.02915 3.12000 -0.14624 
0.09525 3.15200 -0.14774 
1.05009 3.70600 -0.17370 
1.19756 3.59700 -0.16860 
1.25444 3.49400 -0.16377 
1.24946 3.45500 -0.16194 
1.34933 3.10400 -0.14549 
1.37115 3.02700 -0.14188 
1.37366 2.99800 -0.14052 
1.38410 2.85800 -0.13396 
1.54258 2.74200 -0.12852 
1.54296 2.73000 -0.12796 
1.54352 2.70600 -0.12683 
1.53752 2.65900 -0.12463 
1.55316 2.55900 -0.11994 
1.68531 2.51700 -0.11797 
1.69050 2.48600 -0.11652 
1.80438 2.24800 -0.10537 
1.89995 2.25700 -0.10579 
-1.61432 2.09400 -0.10361 
-1.59287 2.10900 -0.10436 
-1.58687 2.13800 -0.10579 
-1.58161 2.14600 -0.10619 
-1.46713 2.18400 -0.10807 
-1.41633 2.17600 -0.10767 
-1.39440 2.29900 -0.11376 
-1.26570 2.31600 -0.11460 
-1.23766 2.34300 -0.11593 
-1.19787 2.36100 -0.11682 
-1.14003 2.40800 -0.11915 
-0.96653 2.44600 -0.12103 
-0.89155 2.58000 -0.12766 
-0.85362 2.69400 -0.13330 
-0.81482 2.68200 -0.13271 
-0.64843 2.71800 -0.13449 
-0.61297 2.71800 -0.13449 
-0.58718 2.73000 -0.13508 
-0.55661 2.75500 -0.13632 
-0.45376 2.83100 -0.14008 
-0.41682 2.83100 -0.14008 
-0.30100 2.92600 -0.14478 
-0.22339 3.01200 -0.14904 
-0.01139 3.07300 -0.15205 
0.04566 3.13600 -0.15517 
0.19703 3.20200 -0.15844 
0.26095 3.27000 -0.16180 
0.40623 3.34200 -0.16536 
0.49891 3.37900 -0.16720 
0.62026 3.41600 -0.16903 
0.83559 3.53500 -0.17491 
0.94206 3.66200 -0.18120 
0.99207 3.70600 -0.18338 
1.14822 3.61900 -0.17907 
1.35327 3.05800 -0.15131 
1.36584 2.99800 -0.14834 
1.37943 2.81800 -0.13944 
1.38679 2.81800 -0.13944 
1.69574 2.45600 -0.12152 
1.68698 2.39800 -0.11866 
1.89824 2.24800 -0.11123 
-1.51935 2.16100 -0.11257 
-1.42309 2.16900 -0.11298 
-1.27062 2.32500 -0.12111 
-1.25117 2.33400 -0.12158 
-1.16658 2.39800 -0.12491 
-0.99702 2.42700 -0.12642 
-0.96407 2.45600 -0.12793 
-0.85362 2.69400 -0.14033 
-0.84281 2.68200 -0.13971 
-0.75816 2.73000 -0.14221 
-0.71542 2.73000 -0.14221 
-0.67681 2.71800 -0.14158 
-0.56581 2.73000 -0.14221 
-0.29336 2.92600 -0.15242 
-0.25364 2.99800 -0.15617 
-0.15498 3.05800 -0.15929 
-0.01941 3.07300 -0.16007 
0.12884 3.16900 -0.16507 
0.42596 3.36000 -0.17502 
0.44600 3.37900 -0.17601 
0.52536 3.37900 -0.17601 
0.67769 3.43600 -0.17898 
0.69046 3.45500 -0.17997 
1.16001 3.59700 -0.18737 
1.22042 3.47500 -0.18101 
1.29047 3.30600 -0.17221 
1.31909 3.27000 -0.17034 
1.33071 3.23600 -0.16856 
1.36243 2.94000 -0.15315 
1.41330 2.75500 -0.14351 
1.45106 2.71800 -0.14158 
1.50071 2.71800 -0.14158 
1.53110 2.63600 -0.13731 
1.54648 2.54800 -0.13273 
1.55984 2.55900 -0.13330 
1.68145 2.40800 -0.12543 
1.71707 2.37900 -0.12392 
1.74923 2.38900 -0.12444 
-1.53627 2.16100 -0.11821 
-1.42769 2.17600 -0.11903 
-1.41840 2.29900 -0.12576 
-1.29144 2.30800 -0.12625 
-1.26455 2.32500 -0.12718 
-1.19338 2.38900 -0.13068 
-1.16517 2.40800 -0.13172 
-1.06860 2.41700 -0.13221 
-0.92966 2.53700 -0.13877 
-0.48394 2.79200 -0.15272 
-0.45376 2.83100 -0.15486 
-0.44637 2.83100 -0.15486 
-0.33280 2.87100 -0.15704 
-0.02743 3.07300 -0.16809 
-0.01139 3.07300 -0.16809 
0.14538 3.16900 -0.17334 
0.45482 3.37900 -0.18483 
1.03075 3.70600 -0.20272 
1.23079 3.37900 -0.18483 
1.29349 3.27000 -0.17887 
1.32669 3.08900 -0.16897 
1.35801 2.99800 -0.16399 
1.36121 2.95400 -0.16158 
1.35200 2.88500 -0.15781 
1.34147 2.83100 -0.15486 
1.36083 2.78000 -0.15207 
1.38623 2.73000 -0.14933 
1.50821 2.70600 -0.14802 
1.65333 2.55900 -0.13998 
1.66560 2.51700 -0.13768 
1.67125 2.49600 -0.13653 
1.67776 2.49600 -0.13653 
1.68560 2.36100 -0.12915 
1.76170 2.38900 -0.13068 
1.81339 2.21600 -0.12122 
1.81917 2.21600 -0.12122 
1.83074 2.21600 -0.12122 
-1.59268 2.08000 -0.11920 
-1.58128 2.12300 -0.12167 
-1.57601 2.14600 -0.12299 
-1.55319 2.16100 -0.12385 
-1.51255 2.19200 -0.12562 
-1.43337 2.17600 -0.12471 
-1.42015 2.27300 -0.13026 
-1.42480 2.29000 -0.13124 
-1.39803 2.32500 -0.13324 
-1.35636 2.31600 -0.13273 
-1.29144 2.30800 -0.13227 
-1.25727 2.33400 -0.13376 
-1.18536 2.39800 -0.13743 
-1.14003 2.40800 -0.13800 
-1.10610 2.38900 -0.13691 
-1.04136 2.42700 -0.13909 
-1.03502 2.42700 -0.13909 
-0.90787 2.56900 -0.14723 
-0.89027 2.63600 -0.15107 
-0.88708 2.64700 -0.15170 
-0.79029 2.71800 -0.15577 
-0.71542 2.73000 -0.15646 
-0.59430 2.73000 -0.15646 
-0.47665 2.79200 -0.16001 
-0.17004 3.04200 -0.17434 
-0.06753 3.07300 -0.17611 
0.12884 3.16900 -0.18161 
0.18867 3.20200 -0.18351 
0.20757 3.23600 -0.18545 
0.34147 3.30600 -0.18947 
0.56945 3.37900 -0.19365 
0.59908 3.39700 -0.19468 
0.63809 3.41600 -0.19577 
1.12077 3.68400 -0.21113 
1.15230 3.66200 -0.20987 
1.15324 3.57600 -0.20494 
1.18634 3.45500 -0.19800 
1.32503 3.10400 -0.17789 
1.36037 2.96900 -0.17015 
1.35885 2.71800 -0.15577 
1.52995 2.67000 -0.15302 
1.52525 2.59100 -0.14849 
1.67125 2.49600 -0.14304 
1.78998 2.28200 -0.13078 
-1.58134 2.10100 -0.12589 
-1.57574 2.12300 -0.12721 
-1.42193 2.25700 -0.13524 
-1.36770 2.32500 -0.13931 
-1.32010 2.31600 -0.13877 
-1.27779 2.31600 -0.13877 
-1.22868 2.36100 -0.14147 
-1.19961 2.38900 -0.14315 
-1.11026 2.39800 -0.14369 
-0.96653 2.44600 -0.14656 
-0.85742 2.70600 -0.16214 
-0.83252 2.69400 -0.16142 
-0.77241 2.73000 -0.16358 
-0.64843 2.71800 -0.16286 
-0.55156 2.73000 -0.16358 
-0.02743 3.07300 -0.18413 
0.17196 3.20200 -0.19186 
0.18867 3.20200 -0.19186 
0.43473 3.36000 -0.20133 
0.49891 3.37900 -0.20247 
0.51043 3.39700 -0.20355 
0.59908 3.39700 -0.20355 
0.73979 3.47500 -0.20822 
0.86815 3.55500 -0.21301 
1.14000 3.68400 -0.22074 
1.16001 3.59700 -0.21553 
1.19552 3.37900 -0.20247 
1.21283 3.30600 -0.19809 
1.29693 3.23600 -0.19390 
1.31557 3.12000 -0.18695 
1.41150 2.67000 -0.15998 
1.65372 2.59100 -0.15525 
1.67850 2.33400 -0.13985 
1.80965 2.24000 -0.13422 
1.82496 2.21600 -0.13278 
-1.58128 2.12300 -0.13275 
-1.56430 2.15300 -0.13462 
-1.51286 2.17600 -0.13606 
-1.50659 2.20000 -0.13756 
-1.39867 2.31600 -0.14482 
-1.39262 2.31600 -0.14482 
-1.37376 2.32500 -0.14538 
-1.34343 2.32500 -0.14538 
-1.16321 2.41700 -0.15113 
-0.96156 2.46600 -0.15420 
-0.76192 2.71800 -0.16995 
-0.68794 2.70600 -0.16920 
-0.43160 2.83100 -0.17702 
-0.34516 2.91200 -0.18208 
-0.25610 3.02700 -0.18927 
-0.13902 3.05800 -0.19121 
0.35200 3.32400 -0.20785 
0.47246 3.37900 -0.21128 
1.19552 3.37900 -0.21128 
1.21248 3.23600 -0.20234 
1.36405 2.65900 -0.16626 
1.42006 2.64700 -0.16551 
1.46027 2.67000 -0.16695 
1.49511 2.67000 -0.16695 
1.51671 2.65900 -0.16626 
1.52368 2.64700 -0.16551 
1.52494 2.60200 -0.16270 
1.52551 2.58000 -0.16132 
1.69471 2.42700 -0.15176 
1.77057 2.34300 -0.14651 
1.79479 2.27300 -0.14213 
1.82989 2.20800 -0.13806 
1.83379 2.19200 -0.13706 
-1.57639 2.08000 -0.13549 
-1.58154 2.09400 -0.13640 
-1.39383 2.30800 -0.15034 
-1.27779 2.31600 -0.15086 
-1.21942 2.37900 -0.15496 
-1.20701 2.37900 -0.15496 
-1.19658 2.40800 -0.15685 
-1.18069 2.42700 -0.15809 
-1.00483 2.44600 -0.15933 
-0.99844 2.44600 -0.15933 
-0.90888 2.59100 -0.16877 
-0.86065 2.69400 -0.17548 
-0.75483 2.71800 -0.17705 
-0.74774 2.71800 -0.17705 
-0.68794 2.70600 -0.17626 
-0.66676 2.70600 -0.17626 
-0.51594 2.73000 -0.17783 
-0.47238 2.76700 -0.18024 
-0.01951 3.08900 -0.20121 
0.00470 3.10400 -0.20219 
0.12949 3.18500 -0.20747 
0.36935 3.32400 -0.21652 
0.46980 3.36000 -0.21886 
0.74384 3.49400 -0.22759 
0.77583 3.51500 -0.22896 
1.23493 3.18500 -0.20747 
1.31179 3.07300 -0.20017 
1.33165 3.02700 -0.19717 
1.34785 2.68200 -0.17470 
1.50986 2.64700 -0.17242 
1.67874 2.51700 -0.16395 
1.71645 2.48600 -0.16193 
1.70856 2.45600 -0.15998 
-1.57571 2.13800 -0.14485 
-1.56456 2.13800 -0.14485 
-1.41422 2.27300 -0.15399 
-1.35472 2.33400 -0.15812 
-1.20287 2.40800 -0.16314 
-1.18703 2.42700 -0.16442 
-1.04951 2.44600 -0.16571 
-0.89614 2.61300 -0.17703 
-0.76562 2.70600 -0.18333 
-0.63569 2.75500 -0.18665 
-0.53967 2.74200 -0.18577 
-0.49456 2.73000 -0.18495 
-0.47238 2.76700 -0.18746 
-0.27189 3.02700 -0.20507 
-0.23355 3.04200 -0.20609 
-0.01150 3.10400 -0.21029 
0.31730 3.32400 -0.22519 
1.01141 3.70600 -0.25107 
1.03715 3.72900 -0.25263 
1.17083 3.75200 -0.25419 
1.18357 3.55500 -0.24084 
1.21645 3.20200 -0.21693 
1.33292 3.01200 -0.20406 
1.33507 2.74200 -0.18577 
1.37099 2.65900 -0.18014 
1.45460 2.64700 -0.17933 
1.51047 2.63600 -0.17858 
1.65933 2.29900 -0.15575 
1.76132 2.29900 -0.15575 
1.76638 2.29000 -0.15514 
1.83154 2.22400 -0.15067 
1.82989 2.20800 -0.14959 
-1.57647 2.03800 -0.14339 
-1.41386 2.28200 -0.16056 
-1.37449 2.31600 -0.16295 
-1.34254 2.33400 -0.16421 
-1.29489 2.32500 -0.16358 
-1.27669 2.32500 -0.16358 
-1.16169 2.42700 -0.17076 
-1.09202 2.42700 -0.17076 
-1.07700 2.43600 -0.17139 
-1.04098 2.45600 -0.17280 
-0.85995 2.67000 -0.18785 
-0.83904 2.67000 -0.18785 
-0.73355 2.71800 -0.19123 
-0.25737 3.04200 -0.21403 
-0.24943 3.04200 -0.21403 
-0.23478 3.05800 -0.21515 
-0.21767 3.04200 -0.21403 
-0.07594 3.08900 -0.21733 
-0.02771 3.10400 -0.21839 
0.12247 3.21900 -0.22648 
0.18223 3.23600 -0.22768 
0.35200 3.32400 -0.23387 
0.46103 3.36000 -0.23640 
0.49891 3.37900 -0.23774 
0.74831 3.51500 -0.24731 
0.85404 3.53500 -0.24871 
1.21645 3.20200 -0.22528 
1.24403 3.10400 -0.21839 
1.29741 3.05800 -0.21515 
1.32299 2.79200 -0.19644 
1.38487 2.65900 -0.18708 
1.39243 2.64700 -0.18624 
1.40040 2.63600 -0.18546 
1.46919 2.63600 -0.18546 
1.50416 2.62500 -0.18469 
1.55967 2.53700 -0.17850 
1.62650 2.58000 -0.18152 
1.66563 2.52700 -0.17779 
1.69200 2.52700 -0.17779 
1.71815 2.51700 -0.17709 
1.66493 2.28200 -0.16056 
1.82807 2.19200 -0.15422 
1.84420 2.18400 -0.15366 
-1.59263 2.11600 -0.15440 
-1.59280 2.13100 -0.15549 
-1.39492 2.29000 -0.16709 
-1.37376 2.32500 -0.16965 
-1.33645 2.33400 -0.17031 
-1.28046 2.34300 -0.17096 
-1.25949 2.36100 -0.17228 
-1.18069 2.42700 -0.17709 
-1.14269 2.42700 -0.17709 
-1.08972 2.43600 -0.17775 
-1.02175 2.45600 -0.17921 
-0.95517 2.51700 -0.18366 
-0.83182 2.64700 -0.19314 
-0.79728 2.64700 -0.19314 
-0.78702 2.65900 -0.19402 
-0.78008 2.65900 -0.19402 
-0.76937 2.67000 -0.19482 
-0.74064 2.71800 -0.19832 
-0.71227 2.71800 -0.19832 
-0.55903 2.76700 -0.20190 
-0.54942 2.75500 -0.20102 
-0.42226 2.81800 -0.20562 
-0.25737 3.04200 -0.22197 
-0.14772 3.07300 -0.22423 
-0.10762 3.07300 -0.22423 
-0.00342 3.12000 -0.22766 
0.06268 3.16900 -0.23123 
0.24657 3.30600 -0.24123 
0.27245 3.30600 -0.24123 
0.49611 3.36000 -0.24517 
0.51655 3.37900 -0.24656 
0.72996 3.51500 -0.25648 
0.76179 3.53500 -0.25794 
0.77102 3.53500 -0.25794 
0.84032 3.55500 -0.25940 
1.09553 3.72900 -0.27209 
1.22662 3.18500 -0.23240 
1.23230 3.13600 -0.22883 
1.24155 3.05800 -0.22313 
1.33795 2.87100 -0.20949 
1.38985 2.68200 -0.19570 
1.65333 2.55900 -0.18672 
1.73026 2.50600 -0.18286 
1.68698 2.39800 -0.17498 
1.64706 2.28200 -0.16651 
1.71768 2.27300 -0.16585 
1.74733 2.27300 -0.16585 
1.75920 2.27300 -0.16585 
1.83176 2.17600 -0.15878 
-1.55898 2.13800 -0.16158 
-1.43531 2.23200 -0.16869 
-1.42366 2.23200 -0.16869 
-1.40924 2.26500 -0.17118 
-1.27924 2.35200 -0.17776 
-1.16169 2.42700 -0.18342 
-1.11736 2.42700 -0.18342 
-0.87651 2.63600 -0.19922 
-0.74816 2.69400 -0.20360 
-0.74443 2.70600 -0.20451 
-0.69808 2.71800 -0.20542 
-0.40755 2.81800 -0.21298 
-0.08400 3.08900 -0.23346 
-0.07594 3.08900 -0.23346 
-0.06011 3.10400 -0.23459 
-0.00344 3.13600 -0.23701 
0.02960 3.16900 -0.23950 
0.07169 3.20200 -0.24200 
0.16621 3.25300 -0.24585 
0.26382 3.30600 -0.24986 
0.30696 3.30600 -0.24986 
0.33284 3.30600 -0.24986 
0.49611 3.36000 -0.25394 
0.84960 3.55500 -0.26868 
1.06944 3.70600 -0.28009 
1.20208 3.32400 -0.25122 
1.30650 3.04200 -0.22990 
1.34763 2.84400 -0.21494 
1.37208 2.81800 -0.21298 
1.45637 2.61300 -0.19748 
1.50736 2.52700 -0.19098 
1.57953 2.53700 -0.19174 
1.62662 2.55900 -0.19340 
1.65287 2.54800 -0.19257 
1.65378 2.30800 -0.17443 
1.68705 2.24800 -0.16990 
1.83744 2.17600 -0.16446 
-1.48721 2.24000 -0.17514 
-1.35994 2.34300 -0.18319 
-1.34160 2.34300 -0.18319 
-0.94578 2.52700 -0.19758 
-0.87285 2.62500 -0.20524 
-0.86600 2.62500 -0.20524 
-0.79750 2.62500 -0.20524 
-0.78380 2.62500 -0.20524 
-0.73031 2.70600 -0.21157 
-0.52293 2.76700 -0.21634 
-0.42763 2.80500 -0.21931 
-0.39466 2.83100 -0.22135 
-0.37605 2.85800 -0.22346 
-0.35862 2.89800 -0.22658 
-0.33313 2.94000 -0.22987 
-0.29908 2.98300 -0.23323 
-0.28494 2.99800 -0.23440 
-0.16376 3.07300 -0.24027 
-0.08441 3.10400 -0.24269 
-0.06011 3.10400 -0.24269 
0.04638 3.18500 -0.24902 
0.33284 3.30600 -0.25848 
0.51655 3.37900 -0.26419 
0.99579 3.68400 -0.28804 
1.21076 3.32400 -0.25989 
1.35705 2.91200 -0.22768 
1.40885 2.81800 -0.22033 
1.40967 2.80500 -0.21931 
1.43592 2.61300 -0.20430 
1.49329 2.54800 -0.19922 
1.49417 2.52700 -0.19758 
1.53407 2.50600 -0.19594 
1.57953 2.53700 -0.19836 
1.62627 2.54800 -0.19922 
1.64661 2.26500 -0.17709 
1.84224 2.27300 -0.17772 
-1.52001 2.14600 -0.17339 
-1.51255 2.19200 -0.17710 
-1.49891 2.24000 -0.18098 
-1.46968 2.24000 -0.18098 
-1.38296 2.29000 -0.18502 
-1.35994 2.34300 -0.18931 
-1.31103 2.34300 -0.18931 
-1.26196 2.38900 -0.19302 
-1.21322 2.37900 -0.19221 
-0.78380 2.62500 -0.21209 
-0.45284 2.78000 -0.22461 
-0.37027 2.87100 -0.23197 
-0.27841 3.01200 -0.24336 
0.07245 3.23600 -0.26146 
0.09830 3.25300 -0.26283 
0.30529 3.28800 -0.26566 
0.40186 3.30600 -0.26711 
0.46477 3.32400 -0.26857 
0.47344 3.32400 -0.26857 
0.63442 3.49400 -0.28230 
0.77996 3.57600 -0.28893 
1.16001 3.59700 -0.29062 
1.23971 3.21900 -0.26008 
1.33031 3.04200 -0.24578 
1.34619 3.04200 -0.24578 
1.34745 3.02700 -0.24457 
1.37885 2.92600 -0.23641 
1.42650 2.65900 -0.21484 
1.47878 2.56900 -0.20756 
1.61962 2.54800 -0.20587 
1.68546 2.53700 -0.20498 
1.67303 2.35200 -0.19003 
1.65333 2.29900 -0.18575 
1.64599 2.24800 -0.18163 
1.65182 2.24000 -0.18098 
1.66351 2.24000 -0.18098 
1.83631 2.27300 -0.18365 
1.84817 2.27300 -0.18365 
1.81570 2.18400 -0.17646 
-1.58243 2.03200 -0.16948 
-1.51233 2.20000 -0.18349 
-1.37640 2.29900 -0.19175 
-1.36845 2.31600 -0.19317 
-1.14693 2.43600 -0.20318 
-1.13002 2.42700 -0.20243 
-1.12150 2.43600 -0.20318 
-1.04522 2.46600 -0.20568 
-1.03007 2.47600 -0.20651 
-0.98145 2.51700 -0.20993 
-0.97488 2.51700 -0.20993 
-0.79731 2.60200 -0.21702 
-0.50127 2.76700 -0.23078 
-0.42031 2.80500 -0.23395 
-0.41299 2.80500 -0.23395 
-0.33154 2.92600 -0.24404 
0.09028 3.27000 -0.27274 
0.41049 3.30600 -0.27574 
0.66575 3.51500 -0.29317 
0.70644 3.53500 -0.29484 
0.79862 3.57600 -0.29826 
0.83147 3.59700 -0.30001 
1.01141 3.70600 -0.30910 
1.11779 3.70600 -0.30910 
1.16257 3.57600 -0.29826 
1.16502 3.55500 -0.29651 
1.24527 3.16900 -0.26431 
1.24230 3.12000 -0.26023 
1.37115 3.02700 -0.25247 
1.39911 2.96900 -0.24763 
1.39975 2.95400 -0.24638 
1.41703 2.92600 -0.24404 
1.47334 2.54800 -0.21252 
1.70955 2.47600 -0.20651 
1.80665 2.27300 -0.18958 
-1.55868 2.15300 -0.18519 
-1.49306 2.24000 -0.19267 
-1.48721 2.24000 -0.19267 
-1.41855 2.22400 -0.19130 
-1.40695 2.22400 -0.19130 
-1.16803 2.42700 -0.20876 
-1.11102 2.42700 -0.20876 
-1.10469 2.42700 -0.20876 
-1.03007 2.47600 -0.21297 
-0.97488 2.51700 -0.21650 
-0.92966 2.53700 -0.21822 
-0.86521 2.60200 -0.22381 
-0.77695 2.62500 -0.22579 
-0.73031 2.70600 -0.23276 
-0.63985 2.74200 -0.23585 
-0.58594 2.79200 -0.24015 
-0.44751 2.79200 -0.24015 
-0.44022 2.79200 -0.24015 
-0.21767 3.04200 -0.26166 
-0.16376 3.07300 -0.26432 
-0.05982 3.08900 -0.26570 
-0.03599 3.12000 -0.26837 
-0.00346 3.15200 -0.27112 
0.02991 3.20200 -0.27542 
0.09881 3.27000 -0.28127 
0.33961 3.28800 -0.28282 
0.36735 3.30600 -0.28437 
0.43007 3.32400 -0.28591 
0.59128 3.45500 -0.29718 
1.36125 3.05800 -0.26303 
1.37905 3.02700 -0.26037 
1.45335 2.96900 -0.25538 
1.45371 2.95400 -0.25409 
1.46984 2.94000 -0.25288 
1.47104 2.91200 -0.25048 
1.46823 2.80500 -0.24127 
1.43388 2.64700 -0.22768 
1.63249 2.53700 -0.21822 
1.66560 2.51700 -0.21650 
1.66583 2.30800 -0.19852 
1.66359 2.24800 -0.19336 
1.70465 2.24800 -0.19336 
1.72914 2.25700 -0.19414 
1.80189 2.28200 -0.19629 
1.83813 2.23200 -0.19199 
-1.56447 2.16100 -0.19152 
-1.51366 2.16900 -0.19223 
-1.50659 2.20000 -0.19497 
-1.41275 2.22400 -0.19710 
-1.25572 2.38900 -0.21172 
-1.20080 2.37900 -0.21084 
-0.96831 2.51700 -0.22307 
-0.88183 2.59100 -0.22963 
-0.68489 2.69400 -0.23876 
-0.62695 2.78000 -0.24638 
-0.53264 2.78000 -0.24638 
-0.50127 2.76700 -0.24522 
-0.42565 2.79200 -0.24744 
-0.41299 2.80500 -0.24859 
-0.40020 2.81800 -0.24974 
-0.37027 2.87100 -0.25444 
-0.28351 2.98300 -0.26437 
-0.09206 3.08900 -0.27376 
-0.04391 3.10400 -0.27509 
0.07283 3.25300 -0.28830 
0.36735 3.30600 -0.29299 
0.54589 3.39700 -0.30106 
0.83147 3.59700 -0.31878 
0.87841 3.59700 -0.31878 
1.05661 3.72900 -0.33048 
1.10738 3.64000 -0.32259 
1.18473 3.32400 -0.29459 
1.34281 3.08900 -0.27376 
1.35893 3.08900 -0.27376 
1.36923 3.05800 -0.27101 
1.46362 2.75500 -0.24416 
1.43855 2.56900 -0.22768 
1.48175 2.50600 -0.22209 
1.57365 2.51700 -0.22307 
1.59939 2.53700 -0.22484 
1.68829 2.43600 -0.21589 
1.76513 2.27300 -0.20144 
-1.61424 2.10100 -0.19168 
-1.62024 2.11600 -0.19305 
-1.51273 2.18400 -0.19926 
-1.32937 2.34300 -0.21376 
-1.32220 2.35200 -0.21458 
-1.05380 2.45600 -0.22407 
-1.02126 2.48600 -0.22681 
-0.96831 2.51700 -0.22964 
-0.91457 2.56900 -0.23438 
-0.90502 2.58000 -0.23538 
-0.90212 2.59100 -0.23639 
-0.70598 2.69400 -0.24579 
-0.53264 2.78000 -0.25363 
-0.07594 3.08900 -0.28182 
0.00479 3.16900 -0.28912 
0.63442 3.49400 -0.31877 
1.13457 3.57600 -0.32625 
1.13719 3.55500 -0.32434 
1.26491 3.21900 -0.29368 
1.26549 3.05800 -0.27899 
1.37595 3.07300 -0.28036 
1.39382 3.04200 -0.27753 
1.46779 2.52700 -0.23055 
1.48887 2.49600 -0.22772 
1.63933 2.51700 -0.22964 
1.68072 2.39800 -0.21878 
1.67982 2.37900 -0.21705 
1.69292 2.24800 -0.20510 
1.81802 2.15300 -0.19643 
-1.62527 2.08700 -0.19585 
-1.62038 2.10900 -0.19792 
-1.57553 2.15300 -0.20205 
-1.53558 2.17600 -0.20420 
-1.52413 2.18400 -0.20496 
-1.50630 2.20800 -0.20721 
-1.49441 2.21600 -0.20796 
-1.46443 2.23200 -0.20946 
-1.40114 2.22400 -0.20871 
-1.39369 2.24000 -0.21021 
-1.34565 2.30800 -0.21659 
-1.32937 2.34300 -0.21988 
-1.09202 2.42700 -0.22776 
-1.07064 2.43600 -0.22860 
-1.06429 2.43600 -0.22860 
-1.02816 2.45600 -0.23048 
-0.97488 2.51700 -0.23621 
-0.91457 2.56900 -0.24109 
-0.89237 2.60200 -0.24418 
-0.73844 2.65900 -0.24953 
-0.55939 2.80500 -0.26323 
-0.50362 2.78000 -0.26089 
-0.48911 2.78000 -0.26089 
-0.44751 2.79200 -0.26201 
-0.40204 2.83100 -0.26567 
-0.38905 2.84400 -0.26689 
-0.37027 2.87100 -0.26943 
-0.27573 2.98300 -0.27994 
-0.09960 3.07300 -0.28838 
-0.05175 3.08900 -0.28988 
-0.01981 3.13600 -0.29429 
0.02144 3.18500 -0.29889 
0.10679 3.25300 -0.30527 
0.13226 3.25300 -0.30527 
0.23290 3.23600 -0.30368 
0.33103 3.28800 -0.30856 
0.52241 3.36000 -0.31532 
0.55786 3.41600 -0.32057 
0.64354 3.49400 -0.32789 
0.73827 3.55500 -0.33362 
0.86395 3.57600 -0.33559 
1.15292 3.43600 -0.32245 
1.26181 3.16900 -0.29739 
1.31981 3.07300 -0.28838 
1.39382 3.04200 -0.28547 
1.43351 3.04200 -0.28547 
1.44939 3.04200 -0.28547 
1.63829 2.46600 -0.23142 
1.63777 2.44600 -0.22954 
1.65631 2.40800 -0.22598 
1.67185 2.30800 -0.21659 
1.68799 2.26500 -0.21256 
1.69981 2.26500 -0.21256 
1.82242 2.30800 -0.21659 
1.87061 2.30800 -0.21659 
1.85283 2.25700 -0.21181 
-1.57026 2.16900 -0.20921 
-1.54126 2.17600 -0.20988 
-1.38659 2.25700 -0.21770 
-1.32220 2.35200 -0.22686 
-1.11736 2.42700 -0.23409 
-1.09202 2.42700 -0.23409 
-1.01715 2.47600 -0.23882 
-0.99024 2.50600 -0.24171 
-0.85523 2.61300 -0.25203 
-0.81431 2.61300 -0.25203 
-0.78704 2.61300 -0.25203 
-0.72059 2.67000 -0.25753 
-0.57866 2.79200 -0.26930 
-0.43294 2.79200 -0.26930 
-0.33313 2.94000 -0.28357 
-0.30543 2.96900 -0.28637 
-0.20080 3.02700 -0.29196 
-0.17094 3.05800 -0.29496 
-0.05175 3.08900 -0.29795 
-0.00348 3.16900 -0.30566 
0.01313 3.18500 -0.30720 
0.56677 3.41600 -0.32949 
0.61833 3.45500 -0.33325 
0.69327 3.51500 -0.33903 
0.96490 3.64000 -0.35109 
1.05979 3.77500 -0.36411 
1.09788 3.64000 -0.35109 
1.11044 3.61900 -0.34907 
1.13719 3.55500 -0.34289 
1.15512 3.41600 -0.32949 
1.15372 3.36000 -0.32408 
1.18906 3.28800 -0.31714 
1.37595 3.07300 -0.29640 
1.46637 2.69400 -0.25985 
1.45818 2.58000 -0.24885 
1.48829 2.50600 -0.24171 
1.53424 2.51700 -0.24277 
1.62563 2.48600 -0.23978 
1.63097 2.41700 -0.23313 
1.67185 2.30800 -0.22261 
1.68209 2.27300 -0.21924 
1.71754 2.26500 -0.21847 
1.77932 2.29900 -0.22175 
1.84191 2.32500 -0.22425 
1.86012 2.32500 -0.22425 
1.86618 2.32500 -0.22425 
1.83565 2.20800 -0.21297 
1.83153 2.16900 -0.20921 
-1.60362 2.15300 -0.21328 
-1.49510 2.20000 -0.21794 
-1.48285 2.21600 -0.21952 
-1.41855 2.22400 -0.22032 
-1.33218 2.31600 -0.22943 
-1.31606 2.35200 -0.23300 
-1.26429 2.37000 -0.23478 
-1.13421 2.43600 -0.24132 
-1.06036 2.42700 -0.24043 
-1.03886 2.43600 -0.24132 
-0.99931 2.49600 -0.24726 
-0.92304 2.53700 -0.25132 
-0.85523 2.61300 -0.25885 
-0.81805 2.62500 -0.26004 
-0.75583 2.64700 -0.26222 
-0.64974 2.69400 -0.26688 
-0.49122 2.79200 -0.27658 
-0.40755 2.81800 -0.27916 
-0.36035 2.91200 -0.28847 
-0.08356 3.07300 -0.30442 
-0.01168 3.15200 -0.31225 
0.00479 3.16900 -0.31393 
0.03806 3.18500 -0.31552 
0.24979 3.23600 -0.32057 
0.35009 3.30600 -0.32750 
0.88261 3.57600 -0.35425 
1.06313 3.75200 -0.37168 
1.12246 3.59700 -0.35633 
1.14924 3.53500 -0.35019 
1.18048 3.28800 -0.32572 
1.21283 3.30600 -0.32750 
1.28943 3.05800 -0.30294 
1.34387 3.07300 -0.30442 
1.44903 3.05800 -0.30294 
1.48791 3.08900 -0.30601 
1.49142 2.78000 -0.27540 
1.47340 2.69400 -0.26688 
1.46724 2.67000 -0.26450 
1.47838 2.58000 -0.25558 
1.61914 2.49600 -0.24726 
1.61898 2.46600 -0.24429 
1.67361 2.37900 -0.23567 
1.72954 2.27300 -0.22517 
1.75443 2.29000 -0.22685 
1.78629 2.30800 -0.22864 
-1.63172 2.15300 -0.21890 
-1.62610 2.15300 -0.21890 
-1.57013 2.13800 -0.21738 
-1.52413 2.18400 -0.22205 
-1.49510 2.20000 -0.22368 
-1.48902 2.20800 -0.22449 
-1.47128 2.21600 -0.22531 
-1.36440 2.29900 -0.23375 
-1.26565 2.36100 -0.24005 
-1.24716 2.36100 -0.24005 
-1.12150 2.43600 -0.24767 
-1.09202 2.42700 -0.24676 
-0.93547 2.51700 -0.25591 
-0.90787 2.56900 -0.26120 
-0.87568 2.61300 -0.26567 
-0.76645 2.63600 -0.26801 
-0.64974 2.69400 -0.27391 
-0.61244 2.78000 -0.28265 
-0.58867 2.80500 -0.28519 
-0.49122 2.79200 -0.28387 
-0.40755 2.81800 -0.28651 
-0.23911 3.01200 -0.30624 
-0.22339 3.01200 -0.30624 
-0.17004 3.04200 -0.30929 
-0.12366 3.07300 -0.31244 
-0.09960 3.07300 -0.31244 
0.12312 3.23600 -0.32901 
0.18032 3.20200 -0.32556 
0.35009 3.30600 -0.33613 
0.60596 3.43600 -0.34935 
0.91595 3.59700 -0.36572 
1.26629 3.28800 -0.33430 
1.28268 3.04200 -0.30929 
1.44105 3.05800 -0.31092 
1.51943 3.10400 -0.31559 
1.55300 3.01200 -0.30624 
1.48223 2.64700 -0.26913 
1.54737 2.51700 -0.25591 
1.67203 2.32500 -0.23639 
1.88559 2.33400 -0.23730 
1.87783 2.27300 -0.23110 
-1.52990 2.17600 -0.22692 
-1.45918 2.22400 -0.23192 
-1.45338 2.22400 -0.23192 
-1.41122 2.24000 -0.23359 
-1.40538 2.24000 -0.23359 
-1.32523 2.32500 -0.24246 
-1.31714 2.34300 -0.24433 
-1.21322 2.37900 -0.24809 
-1.07302 2.42700 -0.25309 
-1.02615 2.43600 -0.25403 
-0.96408 2.50600 -0.26133 
-0.91374 2.54800 -0.26571 
-0.87879 2.60200 -0.27134 
-0.81805 2.62500 -0.27374 
-0.77333 2.63600 -0.27489 
-0.75957 2.63600 -0.27489 
-0.64557 2.70600 -0.28219 
-0.51547 2.80500 -0.29251 
-0.47665 2.79200 -0.29116 
-0.40755 2.81800 -0.29387 
-0.28494 2.99800 -0.31264 
-0.21660 3.02700 -0.31566 
-0.13970 3.07300 -0.32046 
-0.10762 3.07300 -0.32046 
0.22210 3.20200 -0.33391 
0.49946 3.32400 -0.34663 
0.93100 3.61900 -0.37740 
1.14390 3.57600 -0.37291 
1.16969 3.30600 -0.34476 
1.26549 3.05800 -0.31890 
1.27347 3.05800 -0.31890 
1.44105 3.05800 -0.31890 
1.55239 3.08900 -0.32213 
1.51136 2.60200 -0.27134 
1.52767 2.51700 -0.26248 
1.69988 2.27300 -0.23703 
1.85006 2.34300 -0.24433 
1.89168 2.33400 -0.24340 
1.88868 2.30800 -0.24068 
-1.55883 2.16100 -0.23099 
-1.55328 2.16900 -0.23185 
-1.54196 2.16900 -0.23185 
-1.50703 2.18400 -0.23345 
-1.47749 2.20800 -0.23602 
-1.44757 2.22400 -0.23773 
-1.44113 2.23200 -0.23858 
-1.40453 2.24800 -0.24029 
-1.36504 2.29000 -0.24478 
-1.34640 2.29900 -0.24574 
-1.31103 2.34300 -0.25045 
-1.29765 2.35200 -0.25141 
-1.27310 2.35200 -0.25141 
-1.25469 2.35200 -0.25141 
-1.19961 2.38900 -0.25537 
-1.16169 2.42700 -0.25943 
-1.14902 2.42700 -0.25943 
-0.98882 2.48600 -0.26573 
-0.89155 2.58000 -0.27578 
-0.88860 2.59100 -0.27696 
-0.71683 2.68200 -0.28668 
-0.58135 2.80500 -0.29983 
-0.49351 2.80500 -0.29983 
-0.41491 2.81800 -0.30122 
-0.38905 2.84400 -0.30400 
-0.29768 2.96900 -0.31736 
0.02960 3.16900 -0.33874 
0.18767 3.18500 -0.34045 
0.29671 3.28800 -0.35146 
0.30529 3.28800 -0.35146 
0.39537 3.32400 -0.35531 
0.48473 3.34200 -0.35723 
0.54300 3.37900 -0.36119 
0.57569 3.41600 -0.36514 
0.60596 3.43600 -0.36728 
0.68913 3.49400 -0.37348 
0.72079 3.51500 -0.37573 
0.78929 3.57600 -0.38225 
0.81270 3.59700 -0.38449 
0.82209 3.59700 -0.38449 
0.86902 3.59700 -0.38449 
1.02742 3.72900 -0.39860 
1.06313 3.75200 -0.40106 
1.08878 3.70600 -0.39614 
1.11688 3.64000 -0.38909 
1.28268 3.04200 -0.32517 
1.38588 3.04200 -0.32517 
1.39382 3.04200 -0.32517 
1.56841 3.07300 -0.32848 
1.56874 3.05800 -0.32688 
1.53889 2.94000 -0.31426 
1.52471 2.62500 -0.28059 
1.51815 2.60200 -0.27813 
1.51324 2.54800 -0.27236 
1.59335 2.51700 -0.26905 
1.61306 2.51700 -0.26905 
1.66533 2.29900 -0.24574 
1.73052 2.29000 -0.24478 
1.88559 2.33400 -0.24949 
1.88131 2.29900 -0.24574 
1.89122 2.28200 -0.24393 
1.88969 2.27300 -0.24297 
-1.65441 2.14600 -0.23499 
-1.37863 2.27300 -0.24890 
-1.35840 2.29900 -0.25174 
-1.24989 2.34300 -0.25656 
-1.11514 2.43600 -0.26675 
-0.94204 2.51700 -0.27562 
-0.74150 2.67000 -0.29237 
-0.66784 2.68200 -0.29368 
-0.50083 2.80500 -0.30715 
-0.47665 2.79200 -0.30573 
-0.37776 2.87100 -0.31438 
-0.29336 2.92600 -0.32040 
-0.16675 2.98300 -0.32664 
-0.04949 2.95400 -0.32347 
0.11347 3.20200 -0.35062 
0.20539 3.20200 -0.35062 
0.98029 3.66200 -0.40099 
1.06313 3.75200 -0.41085 
1.16001 3.59700 -0.39388 
1.16257 3.57600 -0.39158 
1.27347 3.05800 -0.33486 
1.33031 3.04200 -0.33310 
1.42509 3.05800 -0.33486 
1.45701 3.05800 -0.33486 
1.49597 3.08900 -0.33825 
1.52525 2.87100 -0.31438 
1.54221 2.76700 -0.30299 
1.52571 2.56900 -0.28131 
1.60601 2.50600 -0.27441 
1.60611 2.46600 -0.27003 
1.61224 2.44600 -0.26784 
1.70738 2.42700 -0.26576 
1.69224 2.37900 -0.26050 
1.67185 2.30800 -0.25273 
1.72455 2.29000 -0.25076 
1.79944 2.32500 -0.25459 
1.88439 2.32500 -0.25459 
1.90156 2.27300 -0.24890 
-1.67666 2.15300 -0.24138 
-1.61521 2.14600 -0.24059 
-1.54191 2.16100 -0.24227 
-1.46498 2.22400 -0.24934 
-1.41604 2.25700 -0.25304 
-1.39248 2.25700 -0.25304 
-1.39151 2.26500 -0.25393 
-1.37101 2.29000 -0.25673 
-1.27310 2.35200 -0.26369 
-1.07936 2.42700 -0.27209 
-1.06669 2.42700 -0.27209 
-0.99374 2.46600 -0.27647 
-0.98484 2.47600 -0.27759 
-0.88775 2.56900 -0.28801 
-0.82490 2.62500 -0.29429 
-0.79037 2.64700 -0.29676 
-0.67786 2.69400 -0.30203 
-0.64288 2.75500 -0.30887 
-0.59875 2.81800 -0.31593 
-0.37605 2.85800 -0.32041 
-0.32531 2.87100 -0.32187 
-0.28655 2.85800 -0.32041 
-0.23319 2.84400 -0.31884 
-0.19138 2.88500 -0.32344 
-0.18385 2.88500 -0.32344 
-0.02575 2.88500 -0.32344 
0.23290 3.23600 -0.36279 
0.26095 3.27000 -0.36660 
0.50487 3.36000 -0.37669 
0.52241 3.36000 -0.37669 
0.80331 3.59700 -0.40326 
1.09193 3.68400 -0.41302 
1.12363 3.66200 -0.41055 
1.21315 3.37900 -0.37882 
1.26394 3.39700 -0.38084 
1.28004 3.23600 -0.36279 
1.54632 2.96900 -0.33286 
1.54857 2.81800 -0.31593 
1.53980 2.55900 -0.28689 
1.69845 2.37900 -0.26671 
1.69176 2.36100 -0.26469 
1.68497 2.34300 -0.26268 
1.70064 2.29000 -0.25673 
1.70662 2.29000 -0.25673 
1.76830 2.31600 -0.25965 
1.89122 2.28200 -0.25584 
-1.63201 2.14600 -0.24619 
-1.59803 2.13800 -0.24527 
-1.57011 2.16100 -0.24791 
-1.55319 2.16100 -0.24791 
-1.47749 2.20800 -0.25330 
-1.39151 2.26500 -0.25984 
-1.19626 2.37000 -0.27189 
-1.18838 2.37900 -0.27292 
-1.17145 2.40800 -0.27625 
-1.14902 2.42700 -0.27843 
-1.02615 2.43600 -0.27946 
-0.98233 2.48600 -0.28520 
-0.97977 2.49600 -0.28634 
-0.92304 2.53700 -0.29105 
-0.88105 2.56900 -0.29472 
-0.69500 2.70600 -0.31043 
-0.56934 2.81800 -0.32328 
-0.42031 2.80500 -0.32179 
-0.39647 2.84400 -0.32627 
-0.28855 2.80500 -0.32179 
-0.26422 2.78000 -0.31892 
-0.24854 2.76700 -0.31743 
-0.16488 2.81800 -0.32328 
-0.13363 2.78000 -0.31892 
-0.08848 2.73000 -0.31319 
0.23290 3.23600 -0.37124 
0.34628 3.27000 -0.37514 
0.38460 3.30600 -0.37927 
0.49345 3.34200 -0.38340 
0.64537 3.45500 -0.39636 
0.68538 3.47500 -0.39865 
0.70737 3.49400 -0.40083 
1.05661 3.72900 -0.42779 
1.27483 3.47500 -0.39865 
1.39382 3.04200 -0.34898 
1.69467 2.29000 -0.26271 
1.83077 2.33400 -0.26776 
-1.68853 2.16100 -0.25355 
-1.62081 2.14600 -0.25179 
-1.57575 2.16100 -0.25355 
-1.51932 2.16900 -0.25449 
-1.44549 2.25700 -0.26481 
-1.39837 2.25700 -0.26481 
-1.38560 2.26500 -0.26575 
-1.35240 2.29900 -0.26974 
-1.35167 2.30800 -0.27080 
-1.31208 2.33400 -0.27385 
-1.23766 2.34300 -0.27491 
-1.20244 2.37000 -0.27807 
-1.14693 2.43600 -0.28582 
-1.12786 2.43600 -0.28582 
-0.96831 2.51700 -0.29532 
-0.90045 2.54800 -0.29896 
-0.86764 2.56900 -0.30142 
-0.86094 2.56900 -0.30142 
-0.82836 2.63600 -0.30928 
-0.59875 2.81800 -0.33064 
-0.54980 2.83100 -0.33216 
-0.44751 2.79200 -0.32759 
-0.36343 2.81800 -0.33064 
-0.15260 2.73000 -0.32031 
-0.13008 2.70600 -0.31750 
-0.07856 2.63600 -0.30928 
-0.03053 2.64700 -0.31057 
-0.01679 2.65900 -0.31198 
0.00408 2.69400 -0.31609 
0.41272 3.32400 -0.39001 
0.49345 3.34200 -0.39212 
1.00174 3.70600 -0.43483 
1.16257 3.57600 -0.41957 
1.19321 3.47500 -0.40772 
1.19536 3.45500 -0.40538 
1.21135 3.47500 -0.40772 
1.29203 3.28800 -0.38578 
1.30539 3.05800 -0.35880 
1.41711 3.05800 -0.35880 
1.54022 2.88500 -0.33850 
1.54802 2.84400 -0.33369 
1.55822 2.64700 -0.31057 
1.55862 2.63600 -0.30928 
1.55230 2.59100 -0.30400 
1.59309 2.52700 -0.29649 
1.66455 2.48600 -0.29168 
1.75926 2.54800 -0.29896 
1.77153 2.53700 -0.29767 
1.75478 2.47600 -0.29051 
1.70372 2.35200 -0.27596 
1.74484 2.32500 -0.27279 
1.87931 2.28200 -0.26775 
-1.67105 2.15300 -0.25823 
-1.48395 2.19200 -0.26291 
-1.44559 2.24800 -0.26963 
-1.42193 2.25700 -0.27070 
-1.33036 2.33400 -0.27994 
-1.25117 2.33400 -0.27994 
-1.21636 2.36100 -0.28318 
-1.20863 2.37000 -0.28426 
-1.16517 2.40800 -0.28882 
-1.15260 2.40800 -0.28882 
-1.14269 2.42700 -0.29109 
-1.09202 2.42700 -0.29109 
-1.03886 2.43600 -0.29217 
-1.00661 2.46600 -0.29577 
-0.95897 2.52700 -0.30309 
-0.92304 2.53700 -0.30429 
-0.42226 2.81800 -0.33799 
-0.25849 2.64700 -0.31748 
-0.08327 2.56900 -0.30813 
-0.04251 2.53700 -0.30429 
0.11510 2.83100 -0.33955 
0.15170 2.96900 -0.35610 
0.48473 3.34200 -0.40084 
0.51364 3.36000 -0.40300 
0.68001 3.49400 -0.41907 
0.80823 3.61900 -0.43406 
1.31558 3.41600 -0.40971 
1.30202 3.27000 -0.39220 
1.37794 3.04200 -0.36486 
1.44224 3.02700 -0.36306 
1.52884 3.05800 -0.36678 
1.55300 3.01200 -0.36126 
1.56310 2.83100 -0.33955 
1.59267 2.80500 -0.33643 
1.56643 2.54800 -0.30561 
1.73931 2.54800 -0.30561 
1.79387 2.56900 -0.30813 
1.74550 2.43600 -0.29217 
1.78280 2.34300 -0.28102 
1.82874 2.31600 -0.27778 
1.89237 2.24800 -0.26963 
-1.62641 2.14600 -0.26299 
-1.61486 2.15300 -0.26385 
-1.58724 2.16900 -0.26581 
-1.51935 2.16100 -0.26483 
-1.51366 2.16900 -0.26581 
-1.49015 2.17600 -0.26667 
-1.45860 2.23200 -0.27353 
-1.36677 2.27300 -0.27856 
-1.31817 2.33400 -0.28603 
-1.29269 2.34300 -0.28713 
-1.22400 2.35200 -0.28824 
-1.15888 2.40800 -0.29510 
-1.08569 2.42700 -0.29743 
-1.02615 2.43600 -0.29853 
-0.89302 2.52700 -0.30968 
-0.69808 2.71800 -0.33309 
-0.59875 2.81800 -0.34534 
-0.56934 2.81800 -0.34534 
-0.50547 2.83100 -0.34694 
-0.29608 2.61300 -0.32022 
-0.22986 2.55900 -0.31360 
-0.20315 2.55900 -0.31360 
-0.10084 2.50600 -0.30711 
0.15204 2.83100 -0.34694 
0.24135 3.23600 -0.39657 
0.34628 3.27000 -0.40074 
0.54300 3.37900 -0.41409 
1.05674 3.66200 -0.44878 
1.14124 3.59700 -0.44081 
1.18860 3.51500 -0.43076 
1.32619 3.51500 -0.43076 
1.30743 3.12000 -0.38235 
1.30883 3.10400 -0.38039 
1.33031 3.04200 -0.37280 
1.36207 3.04200 -0.37280 
1.40275 3.02700 -0.37096 
1.56593 2.56900 -0.31483 
1.63870 2.50600 -0.30711 
1.73941 2.33400 -0.28603 
1.81061 2.31600 -0.28382 
1.84694 2.25700 -0.27659 
1.87308 2.23200 -0.27353 
-1.64267 2.13800 -0.26759 
-1.52499 2.16100 -0.27047 
-1.47706 2.21600 -0.27735 
-1.43879 2.26500 -0.28349 
-1.38659 2.25700 -0.28248 
-1.37378 2.26500 -0.28349 
-1.23766 2.34300 -0.29325 
-1.06669 2.42700 -0.30376 
-1.05157 2.43600 -0.30489 
-1.02175 2.45600 -0.30739 
-0.98370 2.50600 -0.31365 
-0.97488 2.51700 -0.31503 
-0.85759 2.55900 -0.32028 
-0.80419 2.64700 -0.33130 
-0.72325 2.70600 -0.33868 
-0.58867 2.80500 -0.35107 
-0.53502 2.83100 -0.35433 
-0.40020 2.81800 -0.35270 
-0.15316 2.50600 -0.31365 
0.01621 2.40800 -0.30138 
0.20106 3.01200 -0.37698 
0.34628 3.27000 -0.40927 
0.37393 3.28800 -0.41152 
0.40186 3.30600 -0.41378 
0.47601 3.34200 -0.41828 
0.56677 3.41600 -0.42754 
0.68001 3.49400 -0.43731 
0.84141 3.64000 -0.45558 
0.91888 3.68400 -0.46109 
1.06629 3.66200 -0.45833 
1.16257 3.57600 -0.44757 
1.27455 3.57600 -0.44757 
1.29322 3.57600 -0.44757 
1.31673 3.20200 -0.40076 
1.32783 3.07300 -0.38461 
1.42724 3.01200 -0.37698 
1.50666 2.99800 -0.37523 
1.56479 2.67000 -0.33418 
1.55866 2.61300 -0.32704 
1.58638 2.54800 -0.31891 
1.84978 2.23200 -0.27936 
-1.68241 2.14600 -0.27419 
-1.63709 2.13800 -0.27317 
-1.61508 2.17600 -0.27802 
-1.30702 2.32500 -0.29706 
-1.14003 2.40800 -0.30767 
-1.13798 2.41700 -0.30882 
-1.02816 2.45600 -0.31380 
-1.01304 2.46600 -0.31508 
-0.96276 2.53700 -0.32415 
-0.74150 2.67000 -0.34114 
-0.67681 2.71800 -0.34728 
-0.66676 2.70600 -0.34574 
-0.66131 2.74200 -0.35034 
-0.65726 2.75500 -0.35200 
-0.63552 2.81800 -0.36005 
-0.53502 2.83100 -0.36171 
-0.38029 2.78000 -0.35520 
-0.34434 2.67000 -0.34114 
-0.21167 2.42700 -0.31009 
-0.13511 2.41700 -0.30882 
-0.10156 2.37000 -0.30281 
-0.02052 2.29900 -0.29374 
0.35482 3.27000 -0.41780 
0.36335 3.27000 -0.41780 
0.37393 3.28800 -0.42010 
0.41049 3.30600 -0.42240 
0.53418 3.37900 -0.43173 
0.85606 3.66200 -0.46789 
1.32796 3.16900 -0.40490 
1.39580 3.01200 -0.38484 
1.45190 2.99800 -0.38305 
1.51538 2.95400 -0.37743 
1.52651 2.81800 -0.36005 
1.55614 2.79200 -0.35673 
1.56396 2.78000 -0.35520 
1.55923 2.56900 -0.32824 
1.56593 2.56900 -0.32824 
1.59323 2.55900 -0.32696 
1.59990 2.55900 -0.32696 
1.61994 2.55900 -0.32696 
1.65236 2.53700 -0.32415 
1.76438 2.42700 -0.31009 
1.78892 2.34300 -0.29936 
1.80032 2.33400 -0.29821 
-1.69361 2.14600 -0.27979 
-1.62641 2.14600 -0.27979 
-1.56965 2.17600 -0.28370 
-1.56397 2.17600 -0.28370 
-1.43973 2.24800 -0.29309 
-1.26211 2.34300 -0.30548 
-1.20404 2.36100 -0.30782 
-1.14631 2.40800 -0.31395 
-0.89962 2.52700 -0.32947 
-0.88332 2.53700 -0.33077 
-0.85423 2.56900 -0.33494 
-0.65726 2.75500 -0.35919 
-0.65007 2.75500 -0.35919 
-0.62368 2.83100 -0.36910 
-0.59599 2.80500 -0.36571 
-0.46115 2.83100 -0.36910 
0.04367 2.20800 -0.28788 
0.08087 2.28200 -0.29752 
0.35677 3.28800 -0.42868 
0.69327 3.51500 -0.45828 
0.86041 3.64000 -0.47458 
0.89428 3.66200 -0.47745 
0.97656 3.68400 -0.48031 
1.11591 3.57600 -0.46623 
1.13719 3.55500 -0.46349 
1.18357 3.55500 -0.46349 
1.19536 3.53500 -0.46089 
1.35599 3.61900 -0.47184 
1.34298 3.18500 -0.41526 
1.37222 3.01200 -0.39270 
1.42128 2.98300 -0.38892 
1.47684 2.95400 -0.38514 
1.52700 2.79200 -0.36402 
1.55764 2.70600 -0.35280 
1.55782 2.68200 -0.34967 
1.76793 2.38900 -0.31147 
1.79393 2.25700 -0.29426 
1.80833 2.22400 -0.28996 
1.82496 2.21600 -0.28892 
1.86544 2.21600 -0.28892 
-1.66509 2.13100 -0.28340 
-1.62686 2.16900 -0.28845 
-1.58112 2.18400 -0.29045 
-1.48902 2.20800 -0.29364 
-1.39248 2.25700 -0.30015 
-1.35604 2.26500 -0.30122 
-1.34897 2.27300 -0.30228 
-1.24241 2.35200 -0.31279 
-1.22400 2.35200 -0.31279 
-0.97875 2.52700 -0.33606 
-0.94952 2.53700 -0.33739 
-0.86426 2.55900 -0.34032 
-0.81460 2.63600 -0.35056 
-0.69808 2.71800 -0.36146 
-0.62368 2.83100 -0.37649 
-0.58135 2.80500 -0.37303 
-0.56198 2.81800 -0.37476 
-0.54241 2.83100 -0.37649 
-0.52764 2.83100 -0.37649 
-0.42961 2.81800 -0.37476 
-0.22706 2.38900 -0.31771 
-0.13814 2.36100 -0.31398 
-0.12534 2.35200 -0.31279 
-0.00246 2.24000 -0.29789 
0.01492 2.21600 -0.29470 
0.54300 3.37900 -0.44937 
0.76577 3.59700 -0.47836 
1.03715 3.72900 -0.49591 
1.18357 3.55500 -0.47277 
1.19285 3.55500 -0.47277 
1.29736 3.64000 -0.48408 
1.31636 3.64000 -0.48408 
1.37206 3.51500 -0.46745 
1.34892 3.21900 -0.42809 
1.34552 3.15200 -0.41918 
1.36125 3.05800 -0.40668 
1.43830 2.95400 -0.39285 
1.44682 2.94000 -0.39098 
1.49867 2.78000 -0.36971 
1.54258 2.74200 -0.36465 
1.54974 2.74200 -0.36465 
1.54531 2.60200 -0.34603 
1.54553 2.59100 -0.34457 
1.59945 2.56900 -0.34165 
1.66016 2.58000 -0.34311 
1.82695 2.55900 -0.34032 
1.77669 2.34300 -0.31159 
1.78847 2.26500 -0.30122 
1.78804 2.25700 -0.30015 
1.84809 2.21600 -0.29470 
1.85965 2.21600 -0.29470 
1.87122 2.21600 -0.29470 
-1.62650 2.16100 -0.29303 
-1.50151 2.17600 -0.29506 
-1.38070 2.25700 -0.30604 
-1.27554 2.33400 -0.31648 
-1.25600 2.34300 -0.31771 
-1.21020 2.36100 -0.32015 
-1.20863 2.37000 -0.32137 
-1.18217 2.37900 -0.32259 
-0.88332 2.53700 -0.34401 
-0.74483 2.68200 -0.36367 
-0.69099 2.71800 -0.36855 
-0.53502 2.83100 -0.38388 
-0.26546 2.39800 -0.32516 
-0.09963 2.32500 -0.31526 
0.04872 2.17600 -0.29506 
0.07658 2.16100 -0.29303 
0.33103 3.28800 -0.44584 
0.67090 3.49400 -0.47378 
0.72899 3.55500 -0.48205 
0.75638 3.59700 -0.48774 
0.81767 3.61900 -0.49073 
0.97073 3.66200 -0.49656 
1.19056 3.57600 -0.48490 
1.19990 3.57600 -0.48490 
1.35713 3.59700 -0.48774 
1.36787 3.57600 -0.48490 
1.37366 2.99800 -0.40652 
1.39014 2.98300 -0.40449 
1.43785 2.96900 -0.40259 
1.47800 2.75500 -0.37357 
1.53618 2.71800 -0.36855 
1.53897 2.58000 -0.34984 
1.82389 2.52700 -0.34266 
1.87122 2.21600 -0.30048 
-1.52499 2.16100 -0.29867 
-1.50111 2.19200 -0.30295 
-1.30196 2.31600 -0.32009 
-1.26211 2.34300 -0.32382 
-1.19626 2.37000 -0.32755 
-1.15407 2.39800 -0.33142 
-1.14631 2.40800 -0.33280 
-1.07700 2.43600 -0.33667 
-0.94952 2.53700 -0.35063 
-0.87762 2.55900 -0.35367 
-0.86462 2.58000 -0.35657 
-0.78709 2.63600 -0.36431 
-0.75926 2.65900 -0.36749 
-0.65416 2.74200 -0.37896 
-0.62368 2.83100 -0.39126 
-0.57669 2.81800 -0.38947 
-0.47811 2.84400 -0.39306 
-0.23852 2.37900 -0.32879 
-0.18058 2.35200 -0.32506 
-0.13656 2.33400 -0.32258 
0.08753 2.15300 -0.29756 
0.37598 3.30600 -0.45691 
0.58460 3.41600 -0.47212 
0.92156 3.61900 -0.50017 
1.05976 3.70600 -0.51220 
1.12791 3.55500 -0.49133 
1.16257 3.57600 -0.49423 
1.37590 3.59700 -0.49713 
1.38767 3.55500 -0.49133 
1.38805 3.39700 -0.46949 
1.36812 3.30600 -0.45691 
1.39014 2.98300 -0.41227 
1.43059 2.95400 -0.40826 
1.45122 2.85800 -0.39500 
1.49309 2.73000 -0.37731 
1.51446 2.73000 -0.37731 
1.52199 2.71800 -0.37565 
1.53798 2.63600 -0.36431 
1.55316 2.55900 -0.35367 
1.77517 2.32500 -0.32133 
1.78026 2.30800 -0.31898 
-1.63201 2.14600 -0.30219 
-1.61554 2.16900 -0.30543 
-1.54762 2.16900 -0.30543 
-1.46383 2.24000 -0.31543 
-1.39280 2.24800 -0.31656 
-1.33516 2.29000 -0.32247 
-1.08336 2.43600 -0.34303 
-1.03235 2.46600 -0.34725 
-1.00180 2.48600 -0.35007 
-0.95614 2.53700 -0.35725 
-0.87435 2.56900 -0.36176 
-0.75232 2.65900 -0.37443 
-0.74150 2.67000 -0.37598 
-0.64146 2.78000 -0.39147 
-0.47811 2.84400 -0.40048 
-0.38573 2.76700 -0.38964 
-0.18528 2.33400 -0.32867 
-0.15423 2.32500 -0.32740 
-0.11697 2.30800 -0.32501 
-0.08618 2.29000 -0.32247 
-0.06774 2.27300 -0.32008 
-0.04977 2.26500 -0.31895 
-0.00827 2.23200 -0.31430 
0.06530 2.16100 -0.30431 
0.08753 2.15300 -0.30318 
0.12781 2.16900 -0.30543 
0.20282 2.81800 -0.39682 
0.24462 3.16900 -0.44625 
0.30362 3.27000 -0.46047 
0.32245 3.28800 -0.46301 
0.37802 3.32400 -0.46807 
0.64537 3.45500 -0.48652 
0.85963 3.59700 -0.50652 
0.89718 3.59700 -0.50652 
0.94989 3.61900 -0.50962 
1.10738 3.64000 -0.51257 
1.29932 3.61900 -0.50962 
1.40686 2.96900 -0.41808 
1.41461 2.96900 -0.41808 
1.43830 2.95400 -0.41597 
1.43915 2.94000 -0.41400 
1.46531 2.87100 -0.40428 
1.53798 2.63600 -0.37119 
1.55313 2.54800 -0.35880 
1.63343 2.59100 -0.36486 
1.71342 2.56900 -0.36176 
1.80127 2.41700 -0.34035 
1.79438 2.26500 -0.31895 
1.85561 2.23200 -0.31430 
-1.58682 2.18400 -0.31324 
-1.50133 2.18400 -0.31324 
-1.48773 2.23200 -0.32013 
-1.48190 2.23200 -0.32013 
-1.46383 2.24000 -0.32128 
-1.45733 2.24800 -0.32242 
-1.33645 2.28200 -0.32730 
-1.28988 2.31600 -0.33218 
-1.19626 2.37000 -0.33992 
-1.16844 2.38900 -0.34265 
-1.16033 2.39800 -0.34394 
-0.84841 2.61300 -0.37477 
-0.72004 2.69400 -0.38639 
-0.64146 2.78000 -0.39873 
-0.61346 2.81800 -0.40418 
-0.30764 2.48600 -0.35656 
-0.25617 2.37000 -0.33992 
-0.13504 2.30800 -0.33103 
-0.01410 2.23200 -0.32013 
0.03711 2.16100 -0.30994 
0.61135 3.41600 -0.48994 
0.74263 3.57600 -0.51289 
1.11591 3.57600 -0.51289 
1.21432 3.61900 -0.51906 
1.29736 3.64000 -0.52207 
1.39957 3.51500 -0.50414 
1.38170 3.36000 -0.48191 
1.36325 3.02700 -0.43415 
1.44128 2.89800 -0.41565 
1.44234 2.88500 -0.41379 
1.53798 2.63600 -0.37807 
1.54553 2.59100 -0.37162 
1.64020 2.59100 -0.37162 
1.79157 2.37900 -0.34121 
1.78886 2.27300 -0.32601 
1.88473 2.23200 -0.32013 
-1.61522 2.16100 -0.31558 
-1.60394 2.16100 -0.31558 
-1.38693 2.24800 -0.32829 
-1.36622 2.28200 -0.33325 
-1.32320 2.29000 -0.33442 
-1.31041 2.29900 -0.33574 
-1.29841 2.29900 -0.33574 
-1.24716 2.36100 -0.34479 
-1.22868 2.36100 -0.34479 
-1.16033 2.39800 -0.35019 
-1.14631 2.40800 -0.35165 
-1.01304 2.46600 -0.36012 
-0.99280 2.49600 -0.36451 
-0.98145 2.51700 -0.36757 
-0.90709 2.54800 -0.37210 
-0.78709 2.63600 -0.38495 
-0.74538 2.65900 -0.38831 
-0.63694 2.79200 -0.40773 
-0.52764 2.83100 -0.41343 
-0.52025 2.83100 -0.41343 
-0.50547 2.83100 -0.41343 
-0.31931 2.52700 -0.36903 
-0.21046 2.34300 -0.34216 
-0.20434 2.34300 -0.34216 
0.00904 2.19200 -0.32011 
0.09285 2.14600 -0.31339 
0.11563 2.15300 -0.31442 
0.15144 2.36100 -0.34479 
0.57569 3.41600 -0.49886 
0.78454 3.59700 -0.52529 
0.82662 3.57600 -0.52222 
0.83595 3.57600 -0.52222 
1.11591 3.57600 -0.52222 
1.31476 3.66200 -0.53478 
1.32432 3.66200 -0.53478 
1.41135 3.64000 -0.53157 
1.41453 3.57600 -0.52222 
1.39581 3.41600 -0.49886 
1.36104 3.16900 -0.46279 
1.35893 3.08900 -0.45111 
1.39975 2.95400 -0.43139 
1.45153 2.84400 -0.41533 
1.49166 2.76700 -0.40408 
1.57319 2.55900 -0.37371 
1.70148 2.60200 -0.37999 
1.82198 2.24800 -0.32829 
-1.56397 2.17600 -0.32345 
-1.50234 2.16900 -0.32241 
-1.41040 2.24800 -0.33416 
-1.36027 2.28200 -0.33921 
-1.31125 2.29000 -0.34040 
-1.29144 2.30800 -0.34307 
-1.24716 2.36100 -0.35095 
-1.21481 2.37000 -0.35229 
-1.18838 2.37900 -0.35363 
-1.16221 2.38900 -0.35511 
-1.13168 2.41700 -0.35928 
-1.09836 2.42700 -0.36076 
-0.94952 2.53700 -0.37711 
-0.90433 2.55900 -0.38038 
-0.88482 2.58000 -0.38351 
-0.87809 2.58000 -0.38351 
-0.71542 2.73000 -0.40580 
-0.18385 2.31600 -0.34426 
-0.08493 2.25700 -0.33549 
-0.01405 2.22400 -0.33059 
0.05903 2.13800 -0.31780 
0.09845 2.14600 -0.31899 
0.42596 3.36000 -0.49945 
0.57569 3.41600 -0.50777 
0.60243 3.41600 -0.50777 
0.62389 3.43600 -0.51075 
1.10812 3.70600 -0.55088 
1.12077 3.68400 -0.54761 
1.19544 3.61900 -0.53795 
1.26698 3.66200 -0.54434 
1.27653 3.66200 -0.54434 
1.28609 3.66200 -0.54434 
1.41032 3.66200 -0.54434 
1.42085 3.64000 -0.54107 
1.37675 3.30600 -0.49142 
1.45229 2.83100 -0.42082 
1.47503 2.81800 -0.41888 
1.52769 2.78000 -0.41323 
1.54221 2.76700 -0.41130 
1.55866 2.61300 -0.38841 
1.80414 2.61300 -0.38841 
1.84570 2.54800 -0.37875 
1.85097 2.53700 -0.37711 
1.77699 2.27300 -0.33787 
1.78292 2.27300 -0.33787 
-1.61521 2.14600 -0.32459 
-1.56965 2.17600 -0.32913 
-1.48863 2.21600 -0.33518 
-1.37813 2.28200 -0.34516 
-1.34113 2.29000 -0.34637 
-1.25949 2.36100 -0.35711 
-1.19459 2.37900 -0.35984 
-1.11736 2.42700 -0.36710 
-1.00423 2.47600 -0.37451 
-0.97716 2.50600 -0.37905 
-0.94290 2.53700 -0.38373 
-0.85523 2.61300 -0.39523 
-0.81805 2.62500 -0.39704 
-0.73737 2.70600 -0.40930 
-0.65130 2.73000 -0.41293 
-0.59599 2.80500 -0.42427 
-0.58135 2.80500 -0.42427 
-0.22183 2.33400 -0.35303 
-0.19064 2.32500 -0.35167 
-0.18385 2.31600 -0.35031 
0.00900 2.18400 -0.33034 
0.33465 3.32400 -0.50277 
0.40842 3.36000 -0.50822 
0.52816 3.39700 -0.51381 
0.54589 3.39700 -0.51381 
0.95933 3.61900 -0.54739 
1.01851 3.66200 -0.55390 
1.10812 3.70600 -0.56055 
1.12746 3.70600 -0.56055 
1.11591 3.57600 -0.54089 
1.41676 3.53500 -0.53469 
1.36104 3.16900 -0.47933 
1.55614 2.79200 -0.42230 
1.56512 2.64700 -0.40037 
1.56550 2.63600 -0.39871 
1.81360 2.55900 -0.38706 
1.78998 2.28200 -0.34516 
1.83958 2.24800 -0.34002 
-1.64222 2.12300 -0.32666 
-1.59801 2.15300 -0.33127 
-1.57533 2.17600 -0.33481 
-1.50659 2.20000 -0.33850 
-1.49478 2.20800 -0.33973 
-1.29269 2.34300 -0.36051 
-1.17597 2.37900 -0.36604 
-1.10469 2.42700 -0.37343 
-1.08122 2.41700 -0.37189 
-0.97716 2.50600 -0.38559 
-0.97062 2.50600 -0.38559 
-0.94290 2.53700 -0.39035 
-0.93628 2.53700 -0.39035 
-0.90709 2.54800 -0.39205 
-0.88775 2.56900 -0.39528 
-0.65553 2.71800 -0.41820 
-0.64417 2.73000 -0.42005 
-0.60051 2.79200 -0.42959 
-0.18385 2.31600 -0.35635 
-0.10849 2.25700 -0.34727 
-0.09014 2.24000 -0.34466 
-0.03713 2.21600 -0.34096 
0.02573 2.15300 -0.33127 
0.08192 2.15300 -0.33127 
0.09315 2.15300 -0.33127 
0.18769 2.70600 -0.41636 
0.43718 3.37900 -0.51991 
0.44600 3.37900 -0.51991 
0.53703 3.39700 -0.52268 
0.64537 3.45500 -0.53160 
0.84032 3.55500 -0.54699 
1.11044 3.61900 -0.55684 
1.42540 3.75200 -0.57730 
1.40875 3.51500 -0.54083 
1.36792 3.18500 -0.49006 
1.35650 3.01200 -0.46344 
1.39312 2.94000 -0.45236 
1.40846 2.94000 -0.45236 
1.42466 2.92600 -0.45021 
1.43230 2.92600 -0.45021 
1.56405 2.74200 -0.42190 
1.63367 2.61300 -0.40205 
1.77132 2.62500 -0.40390 
1.78502 2.62500 -0.40390 
1.82585 2.47600 -0.38097 
1.79962 2.39800 -0.36897 
1.75920 2.27300 -0.34973 
1.83371 2.24800 -0.34589 
1.83888 2.24000 -0.34466 
-1.58703 2.16100 -0.33814 
-1.57026 2.16900 -0.33939 
-1.46498 2.22400 -0.34800 
-1.43531 2.23200 -0.34925 
-1.42291 2.24000 -0.35050 
-1.30951 2.30800 -0.36114 
-1.25333 2.36100 -0.36944 
-1.24716 2.36100 -0.36944 
-1.20080 2.37900 -0.37225 
-0.99531 2.48600 -0.38900 
-0.96174 2.51700 -0.39385 
-0.91374 2.54800 -0.39870 
-0.89765 2.55900 -0.40042 
-0.75883 2.68200 -0.41966 
-0.75519 2.69400 -0.42154 
-0.63705 2.73000 -0.42718 
-0.31539 2.49600 -0.39056 
-0.14485 2.27300 -0.35567 
-0.13892 2.27300 -0.35567 
-0.10806 2.24800 -0.35175 
-0.07817 2.23200 -0.34925 
0.00330 2.18400 -0.34174 
0.06485 2.14600 -0.33579 
0.20764 2.88500 -0.45143 
0.47246 3.37900 -0.52873 
0.87743 3.55500 -0.55627 
1.06309 3.68400 -0.57645 
1.34855 3.72900 -0.58349 
1.38302 3.34200 -0.52294 
1.36679 2.98300 -0.46676 
1.40939 2.92600 -0.45784 
1.43305 2.91200 -0.45565 
1.45782 2.87100 -0.44924 
1.48779 2.87100 -0.44924 
1.57911 2.61300 -0.40887 
1.69620 2.63600 -0.41247 
1.79500 2.49600 -0.39056 
1.81204 2.46600 -0.38587 
1.76911 2.32500 -0.36380 
-1.55894 2.16900 -0.34505 
-1.53627 2.16100 -0.34378 
-1.49478 2.20800 -0.35126 
-1.40333 2.26500 -0.36033 
-1.35308 2.29000 -0.36430 
-1.34040 2.29900 -0.36573 
-1.30801 2.31600 -0.36844 
-1.15888 2.40800 -0.38307 
-1.09836 2.42700 -0.38610 
-1.05834 2.40800 -0.38307 
-0.83860 2.62500 -0.41760 
-0.80772 2.63600 -0.41935 
-0.80084 2.63600 -0.41935 
-0.75519 2.69400 -0.42857 
-0.72966 2.73000 -0.43430 
-0.63425 2.71800 -0.43239 
