ply
format ascii 1.0
comment pointcloud saved from Realsense Viewer
element vertex 1844
property float32 x
property float32 y
property float32 z
end_header
0.772003 -1.22803 -3.784 
0.803833 -1.25302 -3.861 
0.836731 -1.27866 -3.94 
0.871155 -1.30559 -4.023 
0.907155 -1.33383 -4.11 
0.924316 -1.33383 -4.11 
0.941477 -1.33383 -4.11 
0.958637 -1.33383 -4.11 
0.975798 -1.33383 -4.11 
0.982329 -1.31955 -4.066 
0.999306 -1.31955 -4.066 
1.01628 -1.31955 -4.066 
1.03326 -1.31955 -4.066 
1.03913 -1.30559 -4.023 
1.05593 -1.30559 -4.023 
1.07272 -1.30559 -4.023 
1.08952 -1.30559 -4.023 
1.10632 -1.30559 -4.023 
1.12312 -1.30559 -4.023 
1.13991 -1.30559 -4.023 
1.15671 -1.30559 -4.023 
1.17351 -1.30559 -4.023 
1.20303 -1.31955 -4.066 
1.22001 -1.31955 -4.066 
1.23698 -1.31955 -4.066 
1.25396 -1.31955 -4.066 
1.27094 -1.31955 -4.066 
1.28791 -1.31955 -4.066 
1.31901 -1.33383 -4.11 
1.33617 -1.33383 -4.11 
1.35333 -1.33383 -4.11 
1.37049 -1.33383 -4.11 
1.38766 -1.33383 -4.11 
1.40482 -1.33383 -4.11 
1.42198 -1.33383 -4.11 
1.43914 -1.33383 -4.11 
1.44071 -1.31955 -4.066 
1.45768 -1.31955 -4.066 
1.47466 -1.31955 -4.066 
1.49164 -1.31955 -4.066 
1.50862 -1.31955 -4.066 
1.52559 -1.31955 -4.066 
1.54257 -1.31955 -4.066 
1.55955 -1.31955 -4.066 
1.57652 -1.31955 -4.066 
1.5935 -1.31955 -4.066 
1.61048 -1.31955 -4.066 
1.62745 -1.31955 -4.066 
1.64443 -1.31955 -4.066 
1.64384 -1.30559 -4.023 
1.66064 -1.30559 -4.023 
1.67743 -1.30559 -4.023 
1.67654 -1.29196 -3.981 
1.69317 -1.29196 -3.981 
1.70979 -1.29196 -3.981 
1.74462 -1.30559 -4.023 
1.76142 -1.30559 -4.023 
1.79722 -1.31955 -4.066 
1.8142 -1.31955 -4.066 
1.83118 -1.31955 -4.066 
1.84816 -1.31955 -4.066 
1.88532 -1.33383 -4.11 
1.90248 -1.33383 -4.11 
1.91964 -1.33383 -4.11 
1.9368 -1.33383 -4.11 
1.93304 -1.31955 -4.066 
1.95002 -1.31955 -4.066 
1.96699 -1.31955 -4.066 
1.98397 -1.31955 -4.066 
1.97979 -1.30559 -4.023 
1.99659 -1.30559 -4.023 
2.01338 -1.30559 -4.023 
2.03018 -1.30559 -4.023 
2.04698 -1.30559 -4.023 
2.04223 -1.29196 -3.981 
2.05885 -1.29196 -3.981 
2.07547 -1.29196 -3.981 
2.0921 -1.29196 -3.981 
2.10872 -1.29196 -3.981 
2.12534 -1.29196 -3.981 
2.14196 -1.29196 -3.981 
2.15858 -1.29196 -3.981 
2.19815 -1.30559 -4.023 
2.21495 -1.30559 -4.023 
2.23175 -1.30559 -4.023 
2.24855 -1.30559 -4.023 
2.26534 -1.30559 -4.023 
2.28214 -1.30559 -4.023 
2.32351 -1.31955 -4.066 
2.34049 -1.31955 -4.066 
2.35747 -1.31955 -4.066 
2.37444 -1.31955 -4.066 
2.39142 -1.31955 -4.066 
2.4084 -1.31955 -4.066 
2.45162 -1.33383 -4.11 
2.46878 -1.33383 -4.11 
2.48594 -1.33383 -4.11 
2.5299 -1.34811 -4.154 
2.54724 -1.34811 -4.154 
2.56459 -1.34811 -4.154 
2.58193 -1.34811 -4.154 
2.59928 -1.34811 -4.154 
2.61662 -1.34811 -4.154 
2.63397 -1.34811 -4.154 
2.65131 -1.34811 -4.154 
2.66865 -1.34811 -4.154 
2.686 -1.34811 -4.154 
2.67471 -1.33383 -4.11 
2.69187 -1.33383 -4.11 
2.73803 -1.34811 -4.154 
2.72619 -1.33383 -4.11 
2.74335 -1.33383 -4.11 
2.76051 -1.33383 -4.11 
2.80741 -1.34811 -4.154 
2.82475 -1.34811 -4.154 
2.87357 -1.36304 -4.2 
2.89111 -1.36304 -4.2 
2.90864 -1.36304 -4.2 
2.92618 -1.36304 -4.2 
2.94372 -1.36304 -4.2 
2.99439 -1.37829 -4.247 
2.97879 -1.36304 -4.2 
2.99633 -1.36304 -4.2 
2.98085 -1.34811 -4.154 
2.9982 -1.34811 -4.154 
2.9836 -1.33383 -4.11 
2.93724 -1.30559 -4.023 
2.9232 -1.29196 -3.981 
2.90955 -1.27866 -3.94 
2.86733 -1.25302 -3.861 
2.85432 -1.24036 -3.822 
2.84174 -1.22803 -3.784 
2.8296 -1.21602 -3.747 
2.87334 -1.22803 -3.784 
2.94793 -1.25302 -3.861 
3.0247 -1.27866 -3.94 
3.13841 -1.31955 -4.066 
3.22368 -1.34811 -4.154 
3.27691 -1.36304 -4.2 
3.36818 -1.39354 -4.294 
3.42475 -1.40944 -4.343 
3.48252 -1.42567 -4.393 
3.50086 -1.42567 -4.393 
3.56006 -1.44222 -4.444 
3.6213 -1.45942 -4.497 
3.68297 -1.47662 -4.55 
3.70197 -1.47662 -4.55 
3.76595 -1.49447 -4.605 
3.78517 -1.49447 -4.605 
3.85067 -1.51265 -4.661 
3.87013 -1.51265 -4.661 
3.93799 -1.53147 -4.719 
3.95769 -1.53147 -4.719 
3.9774 -1.53147 -4.719 
3.9971 -1.53147 -4.719 
4.0168 -1.53147 -4.719 
3.9869 -1.51265 -4.661 
4.00636 -1.51265 -4.661 
3.97745 -1.49447 -4.605 
3.99668 -1.49447 -4.605 
3.96794 -1.47662 -4.55 
3.9405 -1.45942 -4.497 
3.86771 -1.42567 -4.393 
3.84182 -1.40944 -4.343 
3.81641 -1.39354 -4.294 
3.79237 -1.37829 -4.247 
3.72667 -1.34811 -4.154 
3.70435 -1.33383 -4.11 
3.64274 -1.30559 -4.023 
3.58403 -1.27866 -3.94 
3.56393 -1.26568 -3.9 
3.54441 -1.25302 -3.861 
3.52457 -1.24036 -3.822 
3.47105 -1.21602 -3.747 
3.4532 -1.20434 -3.711 
-1.49082 -0.523631 -1.593 
-1.48976 -0.525604 -1.599 
-1.48308 -0.525604 -1.599 
-1.48287 -0.527905 -1.606 
-1.47616 -0.527905 -1.606 
-1.46946 -0.527905 -1.606 
-1.46913 -0.530205 -1.613 
-1.46874 -0.532506 -1.62 
-1.46739 -0.534479 -1.626 
-1.46689 -0.53678 -1.633 
-1.46633 -0.539081 -1.64 
-1.46571 -0.541382 -1.647 
-1.46592 -0.544011 -1.655 
-1.45901 -0.544011 -1.655 
-1.45824 -0.546312 -1.662 
-1.45741 -0.548613 -1.669 
-1.45653 -0.550914 -1.676 
-1.44953 -0.550914 -1.676 
-1.44942 -0.553544 -1.684 
-1.44239 -0.553544 -1.684 
-1.44132 -0.555845 -1.691 
-1.44105 -0.558474 -1.699 
-1.43986 -0.560775 -1.706 
-1.43945 -0.563405 -1.714 
-1.43898 -0.566035 -1.722 
-1.43179 -0.566035 -1.722 
-1.43039 -0.568336 -1.729 
-1.42976 -0.570965 -1.737 
-1.42251 -0.570965 -1.737 
-1.42177 -0.573595 -1.745 
-1.41449 -0.573595 -1.745 
-1.41365 -0.576225 -1.753 
-1.40633 -0.576225 -1.753 
-1.39901 -0.576225 -1.753 
-1.39805 -0.578854 -1.761 
-1.39701 -0.581484 -1.769 
-1.39669 -0.584442 -1.778 
-1.38927 -0.584442 -1.778 
-1.38806 -0.587072 -1.786 
-1.38679 -0.589702 -1.794 
-1.38622 -0.59266 -1.803 
-1.39169 -0.598248 -1.82 
-1.38409 -0.598248 -1.82 
-1.3833 -0.601206 -1.829 
-1.38243 -0.604165 -1.838 
-1.38074 -0.606794 -1.846 
-1.37973 -0.609753 -1.855 
-1.37864 -0.612711 -1.864 
-1.38483 -0.618957 -1.883 
-1.38355 -0.621915 -1.892 
-1.38292 -0.625202 -1.902 
-1.38148 -0.62816 -1.911 
-1.38069 -0.631447 -1.921 
-1.3791 -0.634406 -1.93 
-1.37815 -0.637693 -1.94 
-1.37711 -0.64098 -1.95 
-1.36897 -0.64098 -1.95 
-1.3678 -0.644267 -1.96 
-1.35962 -0.644267 -1.96 
-1.35833 -0.647554 -1.97 
-1.35696 -0.650841 -1.98 
-1.35619 -0.654457 -1.991 
-1.35464 -0.657744 -2.001 
-1.35369 -0.66136 -2.012 
-1.35197 -0.664647 -2.022 
-1.35815 -0.671879 -2.044 
-1.35688 -0.675494 -2.055 
-1.35552 -0.67911 -2.066 
-1.36188 -0.68667 -2.089 
-1.36029 -0.690286 -2.1 
-1.35924 -0.694231 -2.112 
-1.36513 -0.701791 -2.135 
-1.36384 -0.705735 -2.147 
-1.36245 -0.70968 -2.159 
-1.36158 -0.713953 -2.172 
-1.35998 -0.717898 -2.184 
-1.35086 -0.717898 -2.184 
-1.34973 -0.722171 -2.197 
-1.35581 -0.730388 -2.222 
-1.34654 -0.730388 -2.222 
-1.35291 -0.738935 -2.248 
-1.35189 -0.743537 -2.262 
-1.35016 -0.74781 -2.275 
-1.34891 -0.752412 -2.289 
-1.34696 -0.756685 -2.302 
-1.34548 -0.761287 -2.316 
-1.34446 -0.766218 -2.331 
-1.34274 -0.770819 -2.345 
-1.34091 -0.775421 -2.359 
-1.33953 -0.780352 -2.374 
-1.32961 -0.780352 -2.374 
-1.32804 -0.785283 -2.389 
-1.31806 -0.785283 -2.389 
-1.3163 -0.790213 -2.404 
-1.30626 -0.790213 -2.404 
-1.30432 -0.795144 -2.419 
-1.29422 -0.795144 -2.419 
-1.28411 -0.795144 -2.419 
-1.28191 -0.800074 -2.434 
-1.28011 -0.805334 -2.45 
-1.26988 -0.805334 -2.45 
-1.25965 -0.805334 -2.45 
-1.25758 -0.810593 -2.466 
-1.24729 -0.810593 -2.466 
-1.23699 -0.810593 -2.466 
-1.23465 -0.815852 -2.482 
-1.22429 -0.815852 -2.482 
-1.21393 -0.815852 -2.482 
-1.21132 -0.821112 -2.498 
-1.20906 -0.8267 -2.515 
-1.19856 -0.8267 -2.515 
-1.19562 -0.831959 -2.531 
-1.19301 -0.837547 -2.548 
-1.19815 -0.848723 -2.582 
-1.19565 -0.85464 -2.6 
-1.19299 -0.860557 -2.618 
-1.19019 -0.866473 -2.636 
-1.18724 -0.87239 -2.654 
-1.18457 -0.878636 -2.673 
-1.18175 -0.884881 -2.692 
-1.17878 -0.891127 -2.711 
-1.17564 -0.897372 -2.73 
-1.16424 -0.897372 -2.73 
-1.15284 -0.897372 -2.73 
-1.1498 -0.903946 -2.75 
-1.13832 -0.903946 -2.75 
-1.12684 -0.903946 -2.75 
-1.10725 -0.897372 -2.73 
-1.08822 -0.891127 -2.711 
-1.05426 -0.87239 -2.654 
-1.01488 -0.848723 -2.582 
-0.97143 -0.821112 -2.498 
-0.924838 -0.790213 -2.404 
-0.887021 -0.766218 -2.331 
-0.85132 -0.743537 -2.262 
-0.812845 -0.717898 -2.184 
-0.785694 -0.701791 -2.135 
-0.760043 -0.68667 -2.089 
-0.759593 -0.694231 -2.112 
-0.772103 -0.713953 -2.172 
-0.799219 -0.74781 -2.275 
-0.851213 -0.815852 -2.482 
-0.868968 -0.843135 -2.565 
-0.863946 -0.848723 -2.582 
-0.865061 -0.860557 -2.618 
-0.836838 -0.843135 -2.565 
-0.80455 -0.821112 -2.498 
-0.764237 -0.790213 -2.404 
-0.722199 -0.756685 -2.302 
-0.687823 -0.730388 -2.222 
-0.666941 -0.717898 -2.184 
-0.650292 -0.70968 -2.159 
-0.637713 -0.705735 -2.147 
-0.628749 -0.705735 -2.147 
-0.619784 -0.705735 -2.147 
-0.61082 -0.705735 -2.147 
-0.601855 -0.705735 -2.147 
-0.592891 -0.705735 -2.147 
-0.583926 -0.705735 -2.147 
-0.574962 -0.705735 -2.147 
-0.569161 -0.70968 -2.159 
-0.560146 -0.70968 -2.159 
-0.551132 -0.70968 -2.159 
-0.545381 -0.713953 -2.172 
-0.536313 -0.713953 -2.172 
-0.527244 -0.713953 -2.172 
-0.518175 -0.713953 -2.172 
-0.509106 -0.713953 -2.172 
-0.500037 -0.713953 -2.172 
-0.490968 -0.713953 -2.172 
-0.481899 -0.713953 -2.172 
-0.47 -0.70968 -2.159 
-0.460986 -0.70968 -2.159 
-0.451971 -0.70968 -2.159 
-0.445624 -0.713953 -2.172 
-0.438967 -0.717898 -2.184 
-0.429848 -0.717898 -2.184 
-0.423233 -0.722171 -2.197 
-0.41406 -0.722171 -2.197 
-0.404887 -0.722171 -2.197 
-0.395713 -0.722171 -2.197 
-0.38654 -0.722171 -2.197 
-0.377367 -0.722171 -2.197 
-0.368194 -0.722171 -2.197 
-0.356896 -0.717898 -2.184 
-0.345866 -0.713953 -2.172 
-0.336797 -0.713953 -2.172 
-0.327728 -0.713953 -2.172 
-0.316752 -0.70968 -2.159 
-0.306027 -0.705735 -2.147 
-0.295402 -0.701791 -2.135 
-0.284878 -0.697846 -2.123 
-0.274583 -0.694231 -2.112 
-0.262871 -0.68667 -2.089 
-0.252688 -0.682726 -2.077 
-0.241432 -0.675494 -2.055 
-0.231605 -0.671879 -2.044 
-0.220669 -0.664647 -2.022 
-0.211177 -0.66136 -2.012 
-0.201668 -0.657744 -2.001 
-0.192347 -0.654457 -1.991 
-0.184034 -0.654457 -1.991 
-0.175721 -0.654457 -1.991 
-0.169173 -0.66136 -2.012 
-0.164208 -0.675494 -2.055 
-0.159945 -0.694231 -2.112 
-0.157209 -0.722171 -2.197 
-0.15511 -0.756685 -2.302 
-0.151946 -0.790213 -2.404 
-0.149405 -0.831959 -2.531 
-0.146626 -0.878636 -2.673 
-0.142409 -0.923669 -2.81 
-0.132629 -0.937474 -2.852 
-0.120721 -0.937474 -2.852 
-0.110453 -0.951609 -2.895 
-0.0991472 -0.959169 -2.918 
-0.0883046 -0.973961 -2.963 
-0.0765224 -0.981521 -2.986 
-0.0645482 -0.989081 -3.009 
-0.0523992 -0.99697 -3.033 
-0.0400629 -1.00519 -3.058 
-0.0272946 -1.00519 -3.058 
-0.0146404 -1.01308 -3.082 
-0.00177193 -1.01308 -3.082 
0.0110965 -1.01308 -3.082 
0.0237784 -1.00519 -3.058 
0.0365466 -1.00519 -3.058 
0.0493149 -1.00519 -3.058 
0.0620831 -1.00519 -3.058 
0.0742394 -0.99697 -3.033 
0.0862156 -0.989081 -3.009 
0.0987793 -0.989081 -3.009 
0.111343 -0.989081 -3.009 
0.122959 -0.981521 -2.986 
0.135427 -0.981521 -2.986 
0.146756 -0.973961 -2.963 
0.157892 -0.966401 -2.94 
0.170167 -0.966401 -2.94 
0.18387 -0.973961 -2.963 
0.196242 -0.973961 -2.963 
0.208613 -0.973961 -2.963 
0.220985 -0.973961 -2.963 
0.233357 -0.973961 -2.963 
0.245728 -0.973961 -2.963 
0.2581 -0.973961 -2.963 
0.272571 -0.981521 -2.986 
0.285039 -0.981521 -2.986 
0.297506 -0.981521 -2.986 
0.309974 -0.981521 -2.986 
0.322441 -0.981521 -2.986 
0.334909 -0.981521 -2.986 
0.347377 -0.981521 -2.986 
0.357072 -0.973961 -2.963 
0.369444 -0.973961 -2.963 
0.381816 -0.973961 -2.963 
0.394187 -0.973961 -2.963 
0.406559 -0.973961 -2.963 
0.41893 -0.973961 -2.963 
0.431302 -0.973961 -2.963 
0.443674 -0.973961 -2.963 
0.459585 -0.981521 -2.986 
0.475689 -0.989081 -3.009 
0.488252 -0.989081 -3.009 
0.504811 -0.99697 -3.033 
0.525835 -1.01308 -3.082 
0.547617 -1.02984 -3.133 
0.570005 -1.04693 -3.185 
0.598321 -1.07389 -3.267 
0.628071 -1.10216 -3.353 
0.659305 -1.13174 -3.443 
0.692465 -1.1633 -3.539 
0.73442 -1.208 -3.675 
0.764454 -1.23167 -3.747 
0.803833 -1.26914 -3.861 
0.836731 -1.29511 -3.94 
0.86206 -1.30859 -3.981 
0.897444 -1.33653 -4.066 
0.914421 -1.33653 -4.066 
0.931398 -1.33653 -4.066 
0.948375 -1.33653 -4.066 
0.965352 -1.33653 -4.066 
0.97194 -1.32239 -4.023 
0.988737 -1.32239 -4.023 
1.00554 -1.32239 -4.023 
1.02233 -1.32239 -4.023 
1.03913 -1.32239 -4.023 
1.05593 -1.32239 -4.023 
1.06153 -1.30859 -3.981 
1.07815 -1.30859 -3.981 
1.09477 -1.30859 -3.981 
1.11139 -1.30859 -3.981 
1.12801 -1.30859 -3.981 
1.15671 -1.32239 -4.023 
1.17351 -1.32239 -4.023 
1.19031 -1.32239 -4.023 
1.2071 -1.32239 -4.023 
1.2239 -1.32239 -4.023 
1.2407 -1.32239 -4.023 
1.2575 -1.32239 -4.023 
1.28791 -1.33653 -4.066 
1.30489 -1.33653 -4.066 
1.32187 -1.33653 -4.066 
1.33885 -1.33653 -4.066 
1.35582 -1.33653 -4.066 
1.3728 -1.33653 -4.066 
1.38978 -1.33653 -4.066 
1.40675 -1.33653 -4.066 
1.42373 -1.33653 -4.066 
1.44071 -1.33653 -4.066 
1.45768 -1.33653 -4.066 
1.47466 -1.33653 -4.066 
1.49164 -1.33653 -4.066 
1.49266 -1.32239 -4.023 
1.50946 -1.32239 -4.023 
1.52626 -1.32239 -4.023 
1.54305 -1.32239 -4.023 
1.55985 -1.32239 -4.023 
1.57665 -1.32239 -4.023 
1.59345 -1.32239 -4.023 
1.61024 -1.32239 -4.023 
1.61005 -1.30859 -3.981 
1.62668 -1.30859 -3.981 
1.6433 -1.30859 -3.981 
1.65992 -1.30859 -3.981 
1.65928 -1.29511 -3.94 
1.67573 -1.29511 -3.94 
1.70979 -1.30859 -3.981 
1.72641 -1.30859 -3.981 
1.74303 -1.30859 -3.981 
1.77822 -1.32239 -4.023 
1.79502 -1.32239 -4.023 
1.81181 -1.32239 -4.023 
1.82861 -1.32239 -4.023 
1.86513 -1.33653 -4.066 
1.88211 -1.33653 -4.066 
1.89909 -1.33653 -4.066 
1.91606 -1.33653 -4.066 
1.9126 -1.32239 -4.023 
1.9294 -1.32239 -4.023 
1.94619 -1.32239 -4.023 
1.96299 -1.32239 -4.023 
1.97979 -1.32239 -4.023 
1.97574 -1.30859 -3.981 
1.99236 -1.30859 -3.981 
2.00899 -1.30859 -3.981 
2.02561 -1.30859 -3.981 
2.04223 -1.30859 -3.981 
2.05885 -1.30859 -3.981 
2.07547 -1.30859 -3.981 
2.0921 -1.30859 -3.981 
2.087 -1.29511 -3.94 
2.10345 -1.29511 -3.94 
2.14196 -1.30859 -3.981 
2.15858 -1.30859 -3.981 
2.17521 -1.30859 -3.981 
2.19183 -1.30859 -3.981 
2.20845 -1.30859 -3.981 
2.22507 -1.30859 -3.981 
2.24169 -1.30859 -3.981 
2.25832 -1.30859 -3.981 
2.29894 -1.32239 -4.023 
2.31574 -1.32239 -4.023 
2.33253 -1.32239 -4.023 
2.34933 -1.32239 -4.023 
2.36613 -1.32239 -4.023 
2.38293 -1.32239 -4.023 
2.42537 -1.33653 -4.066 
2.44235 -1.33653 -4.066 
2.45933 -1.33653 -4.066 
2.4763 -1.33653 -4.066 
2.49328 -1.33653 -4.066 
2.51026 -1.33653 -4.066 
2.55458 -1.35099 -4.11 
2.57175 -1.35099 -4.11 
2.58891 -1.35099 -4.11 
2.60607 -1.35099 -4.11 
2.59514 -1.33653 -4.066 
2.61212 -1.33653 -4.066 
2.6291 -1.33653 -4.066 
2.64608 -1.33653 -4.066 
2.66305 -1.33653 -4.066 
2.68003 -1.33653 -4.066 
2.69701 -1.33653 -4.066 
2.71398 -1.33653 -4.066 
2.73096 -1.33653 -4.066 
2.77767 -1.35099 -4.11 
2.79483 -1.35099 -4.11 
2.812 -1.35099 -4.11 
2.82916 -1.35099 -4.11 
2.87679 -1.36545 -4.154 
2.89413 -1.36545 -4.154 
2.91148 -1.36545 -4.154 
2.92882 -1.36545 -4.154 
2.94617 -1.36545 -4.154 
2.96351 -1.36545 -4.154 
2.98085 -1.36545 -4.154 
2.96644 -1.35099 -4.11 
2.95166 -1.33653 -4.066 
2.90658 -1.30859 -3.981 
2.8931 -1.29511 -3.94 
2.88001 -1.28196 -3.9 
2.86733 -1.26914 -3.861 
2.85432 -1.25632 -3.822 
2.87028 -1.25632 -3.822 
2.85754 -1.24383 -3.784 
2.87334 -1.24383 -3.784 
2.91816 -1.25632 -3.822 
2.99399 -1.28196 -3.9 
3.0728 -1.30859 -3.981 
3.15539 -1.33653 -4.066 
3.24102 -1.36545 -4.154 
3.29445 -1.38057 -4.2 
3.34905 -1.39602 -4.247 
3.40404 -1.41147 -4.294 
3.46102 -1.42758 -4.343 
3.51921 -1.44401 -4.393 
3.57862 -1.46078 -4.444 
3.64007 -1.4782 -4.497 
3.65885 -1.4782 -4.497 
3.72097 -1.49562 -4.55 
3.73997 -1.49562 -4.55 
3.8044 -1.5137 -4.605 
3.87013 -1.53211 -4.661 
3.88959 -1.53211 -4.661 
3.90905 -1.53211 -4.661 
3.92851 -1.53211 -4.661 
3.94797 -1.53211 -4.661 
3.96743 -1.53211 -4.661 
3.93899 -1.5137 -4.605 
3.95822 -1.5137 -4.605 
3.97745 -1.5137 -4.605 
3.94894 -1.49562 -4.55 
3.92172 -1.4782 -4.497 
3.89406 -1.46078 -4.444 
3.86771 -1.44401 -4.393 
3.77463 -1.39602 -4.247 
3.7504 -1.38057 -4.2 
3.72667 -1.36545 -4.154 
3.6647 -1.33653 -4.066 
3.60471 -1.30859 -3.981 
3.54765 -1.28196 -3.9 
3.52829 -1.26914 -3.861 
3.50861 -1.25632 -3.822 
3.48953 -1.24383 -3.784 
3.47105 -1.23167 -3.747 
3.4197 -1.208 -3.675 
3.46869 -1.21983 -3.711 
-1.48976 -0.53228 -1.599 
-1.48308 -0.53228 -1.599 
-1.48287 -0.53461 -1.606 
-1.47616 -0.53461 -1.606 
-1.47586 -0.53694 -1.613 
-1.46913 -0.53694 -1.613 
-1.46874 -0.539271 -1.62 
-1.46739 -0.541268 -1.626 
-1.46689 -0.543598 -1.633 
-1.46633 -0.545928 -1.64 
-1.46571 -0.548258 -1.647 
-1.46592 -0.550921 -1.655 
-1.45901 -0.550921 -1.655 
-1.45824 -0.553252 -1.662 
-1.45741 -0.555582 -1.669 
-1.45044 -0.555582 -1.669 
-1.44953 -0.557912 -1.676 
-1.44942 -0.560575 -1.684 
-1.44239 -0.560575 -1.684 
-1.44132 -0.562905 -1.691 
-1.44105 -0.565568 -1.699 
-1.43986 -0.567898 -1.706 
-1.43945 -0.570562 -1.714 
-1.43898 -0.573225 -1.722 
-1.43179 -0.573225 -1.722 
-1.43039 -0.575555 -1.729 
-1.42976 -0.578218 -1.737 
-1.42906 -0.580881 -1.745 
-1.42177 -0.580881 -1.745 
-1.41449 -0.580881 -1.745 
-1.41365 -0.583544 -1.753 
-1.40633 -0.583544 -1.753 
-1.4054 -0.586207 -1.761 
-1.39805 -0.586207 -1.761 
-1.39701 -0.58887 -1.769 
-1.39669 -0.591866 -1.778 
-1.38927 -0.591866 -1.778 
-1.38806 -0.594529 -1.786 
-1.38679 -0.597192 -1.794 
-1.39237 -0.602851 -1.811 
-1.39169 -0.605847 -1.82 
-1.38409 -0.605847 -1.82 
-1.3833 -0.608843 -1.829 
-1.38243 -0.611839 -1.838 
-1.38074 -0.614502 -1.846 
-1.37973 -0.617498 -1.855 
-1.37864 -0.620494 -1.864 
-1.38483 -0.626819 -1.883 
-1.38355 -0.629815 -1.892 
-1.38292 -0.633144 -1.902 
-1.38148 -0.63614 -1.911 
-1.38069 -0.639468 -1.921 
-1.3791 -0.642464 -1.93 
-1.37815 -0.645793 -1.94 
-1.37711 -0.649122 -1.95 
-1.36897 -0.649122 -1.95 
-1.3678 -0.652451 -1.96 
-1.35962 -0.652451 -1.96 
-1.35833 -0.65578 -1.97 
-1.35696 -0.659108 -1.98 
-1.35619 -0.66277 -1.991 
-1.35464 -0.666099 -2.001 
-1.35369 -0.669761 -2.012 
-1.35933 -0.676751 -2.033 
-1.35815 -0.680413 -2.044 
-1.35688 -0.684075 -2.055 
-1.36273 -0.691398 -2.077 
-1.36188 -0.695393 -2.089 
-1.36029 -0.699054 -2.1 
-1.35924 -0.703049 -2.112 
-1.36513 -0.710705 -2.135 
-1.36384 -0.7147 -2.147 
-1.36245 -0.718695 -2.159 
-1.35343 -0.718695 -2.159 
-1.35251 -0.723022 -2.172 
-1.35086 -0.727017 -2.184 
-1.34973 -0.731344 -2.197 
-1.34788 -0.735339 -2.209 
-1.34654 -0.739666 -2.222 
-1.34508 -0.743994 -2.235 
-1.35189 -0.752981 -2.262 
-1.35016 -0.757309 -2.275 
-1.34891 -0.761969 -2.289 
-1.34696 -0.766297 -2.302 
-1.34548 -0.770957 -2.316 
-1.34446 -0.77595 -2.331 
-1.34274 -0.780611 -2.345 
-1.34091 -0.785271 -2.359 
-1.33953 -0.790264 -2.374 
-1.32961 -0.790264 -2.374 
-1.32804 -0.795258 -2.389 
-1.32634 -0.800251 -2.404 
-1.3163 -0.800251 -2.404 
-1.31442 -0.805244 -2.419 
-1.30432 -0.805244 -2.419 
-1.29422 -0.805244 -2.419 
-1.29208 -0.810237 -2.434 
-1.28191 -0.810237 -2.434 
-1.28011 -0.815563 -2.45 
-1.26988 -0.815563 -2.45 
-1.26788 -0.82089 -2.466 
-1.25758 -0.82089 -2.466 
-1.24729 -0.82089 -2.466 
-1.23699 -0.82089 -2.466 
-1.23465 -0.826216 -2.482 
-1.22429 -0.826216 -2.482 
-1.22175 -0.831542 -2.498 
-1.21132 -0.831542 -2.498 
-1.20906 -0.837201 -2.515 
-1.20619 -0.842527 -2.531 
-1.20365 -0.848186 -2.548 
-1.20097 -0.853845 -2.565 
-1.19815 -0.859504 -2.582 
-1.19565 -0.865496 -2.6 
-1.2012 -0.87748 -2.636 
-1.19832 -0.883472 -2.654 
-1.19573 -0.889796 -2.673 
-1.19299 -0.896121 -2.692 
-1.1901 -0.902446 -2.711 
-1.18704 -0.908771 -2.73 
-1.17564 -0.908771 -2.73 
-1.17277 -0.915428 -2.75 
-1.16129 -0.915428 -2.75 
-1.1498 -0.915428 -2.75 
-1.1466 -0.922086 -2.77 
-1.13504 -0.922086 -2.77 
-1.11536 -0.915428 -2.75 
-1.10388 -0.915428 -2.75 
-1.06935 -0.896121 -2.692 
-1.0361 -0.87748 -2.636 
-0.997485 -0.853845 -2.565 
-0.94869 -0.82089 -2.466 
-0.903384 -0.790264 -2.374 
-0.866374 -0.766297 -2.302 
-0.826988 -0.739666 -2.222 
-0.794526 -0.718695 -2.159 
-0.768411 -0.703049 -2.112 
-0.759593 -0.703049 -2.112 
-0.776369 -0.727017 -2.184 
-0.794652 -0.752981 -2.262 
-0.840238 -0.815563 -2.45 
-0.857449 -0.842527 -2.531 
-0.858258 -0.853845 -2.565 
-0.859113 -0.865496 -2.6 
-0.831292 -0.848186 -2.548 
-0.799396 -0.826216 -2.482 
-0.759468 -0.795258 -2.389 
-0.718121 -0.761969 -2.289 
-0.683799 -0.735339 -2.209 
-0.663277 -0.723022 -2.172 
-0.646678 -0.7147 -2.147 
-0.637713 -0.7147 -2.147 
-0.625235 -0.710705 -2.135 
-0.61632 -0.710705 -2.135 
-0.607406 -0.710705 -2.135 
-0.598491 -0.710705 -2.135 
-0.592891 -0.7147 -2.147 
-0.583926 -0.7147 -2.147 
-0.574962 -0.7147 -2.147 
-0.565997 -0.7147 -2.147 
-0.557033 -0.7147 -2.147 
-0.548068 -0.7147 -2.147 
-0.542117 -0.718695 -2.159 
-0.533103 -0.718695 -2.159 
-0.524088 -0.718695 -2.159 
-0.515073 -0.718695 -2.159 
-0.506059 -0.718695 -2.159 
-0.497044 -0.718695 -2.159 
-0.485317 -0.7147 -2.147 
-0.476353 -0.7147 -2.147 
-0.467388 -0.7147 -2.147 
-0.458424 -0.7147 -2.147 
-0.449459 -0.7147 -2.147 
-0.445624 -0.723022 -2.172 
-0.438967 -0.727017 -2.184 
-0.429848 -0.727017 -2.184 
-0.420729 -0.727017 -2.184 
-0.41161 -0.727017 -2.184 
-0.402491 -0.727017 -2.184 
-0.395713 -0.731344 -2.197 
-0.38654 -0.731344 -2.197 
-0.377367 -0.731344 -2.197 
-0.368194 -0.731344 -2.197 
-0.35902 -0.731344 -2.197 
-0.349847 -0.731344 -2.197 
-0.338658 -0.727017 -2.184 
-0.329539 -0.727017 -2.184 
-0.318659 -0.723022 -2.172 
-0.307738 -0.718695 -2.159 
-0.297063 -0.7147 -2.147 
-0.286488 -0.710705 -2.135 
-0.274583 -0.703049 -2.112 
-0.264255 -0.699054 -2.1 
-0.252688 -0.691398 -2.077 
-0.241432 -0.684075 -2.055 
-0.231605 -0.680413 -2.044 
-0.22187 -0.676751 -2.033 
-0.211177 -0.669761 -2.012 
-0.202776 -0.669761 -2.012 
-0.193313 -0.666099 -2.001 
-0.184034 -0.66277 -1.991 
-0.175721 -0.66277 -1.991 
-0.169173 -0.669761 -2.012 
-0.164208 -0.684075 -2.055 
-0.159036 -0.699054 -2.1 
-0.156278 -0.727017 -2.184 
-0.154234 -0.761969 -2.289 
-0.150997 -0.795258 -2.389 
-0.14846 -0.837201 -2.515 
-0.145584 -0.883472 -2.654 
-0.141395 -0.928744 -2.79 
-0.131652 -0.942392 -2.831 
-0.120721 -0.949382 -2.852 
-0.110453 -0.963696 -2.895 
-0.0991472 -0.971353 -2.918 
-0.0883046 -0.986332 -2.963 
-0.0765224 -0.993989 -2.986 
-0.0645482 -1.00165 -3.009 
-0.0523992 -1.00963 -3.033 
-0.0400629 -1.01796 -3.058 
-0.0275088 -1.02595 -3.082 
-0.0146404 -1.02595 -3.082 
-0.00177193 -1.02595 -3.082 
0.0110965 -1.02595 -3.082 
0.023965 -1.02595 -3.082 
0.0365466 -1.01796 -3.058 
0.0493149 -1.01796 -3.058 
0.0620831 -1.01796 -3.058 
0.0748513 -1.01796 -3.058 
0.0869033 -1.00963 -3.033 
0.0987793 -1.00165 -3.009 
0.111343 -1.00165 -3.009 
0.123907 -1.00165 -3.009 
0.135427 -0.993989 -2.986 
0.147895 -0.993989 -2.986 
0.159127 -0.986332 -2.963 
0.171499 -0.986332 -2.963 
0.18387 -0.986332 -2.963 
0.194719 -0.978676 -2.94 
0.206994 -0.978676 -2.94 
0.21927 -0.978676 -2.94 
0.233357 -0.986332 -2.963 
0.245728 -0.986332 -2.963 
0.2581 -0.986332 -2.963 
0.272571 -0.993989 -2.986 
0.285039 -0.993989 -2.986 
0.297506 -0.993989 -2.986 
0.309974 -0.993989 -2.986 
0.322441 -0.993989 -2.986 
0.334909 -0.993989 -2.986 
0.347377 -0.993989 -2.986 
0.357072 -0.986332 -2.963 
0.369444 -0.986332 -2.963 
0.381816 -0.986332 -2.963 
0.391127 -0.978676 -2.94 
0.403403 -0.978676 -2.94 
0.41893 -0.986332 -2.963 
0.431302 -0.986332 -2.963 
0.443674 -0.986332 -2.963 
0.459585 -0.993989 -2.986 
0.475689 -1.00165 -3.009 
0.488252 -1.00165 -3.009 
0.504811 -1.00963 -3.033 
0.525835 -1.02595 -3.082 
0.547617 -1.04292 -3.133 
0.570005 -1.06023 -3.185 
0.598321 -1.08753 -3.267 
0.628071 -1.11616 -3.353 
0.659305 -1.14612 -3.443 
0.692465 -1.17807 -3.539 
0.727426 -1.21169 -3.64 
0.764454 -1.24731 -3.747 
0.795714 -1.27228 -3.822 
0.828236 -1.29824 -3.9 
0.86206 -1.32521 -3.981 
0.887953 -1.33919 -4.023 
0.90475 -1.33919 -4.023 
0.921548 -1.33919 -4.023 
0.938345 -1.33919 -4.023 
0.955143 -1.33919 -4.023 
0.97194 -1.33919 -4.023 
0.988737 -1.33919 -4.023 
0.995037 -1.32521 -3.981 
1.01166 -1.32521 -3.981 
1.02828 -1.32521 -3.981 
1.0449 -1.32521 -3.981 
1.06153 -1.32521 -3.981 
1.07815 -1.32521 -3.981 
1.09477 -1.32521 -3.981 
1.11139 -1.32521 -3.981 
1.12801 -1.32521 -3.981 
1.14464 -1.32521 -3.981 
1.16126 -1.32521 -3.981 
1.17788 -1.32521 -3.981 
1.1945 -1.32521 -3.981 
1.21112 -1.32521 -3.981 
1.22775 -1.32521 -3.981 
1.24437 -1.32521 -3.981 
1.26099 -1.32521 -3.981 
1.29109 -1.33919 -4.023 
1.30789 -1.33919 -4.023 
1.32469 -1.33919 -4.023 
1.34148 -1.33919 -4.023 
1.35828 -1.33919 -4.023 
1.37508 -1.33919 -4.023 
1.39188 -1.33919 -4.023 
1.40867 -1.33919 -4.023 
1.42547 -1.33919 -4.023 
1.42721 -1.32521 -3.981 
1.44383 -1.32521 -3.981 
1.46046 -1.32521 -3.981 
1.47708 -1.32521 -3.981 
1.4937 -1.32521 -3.981 
1.51032 -1.32521 -3.981 
1.52694 -1.32521 -3.981 
1.54357 -1.32521 -3.981 
1.56019 -1.32521 -3.981 
1.57681 -1.32521 -3.981 
1.59343 -1.32521 -3.981 
1.61005 -1.32521 -3.981 
1.62668 -1.32521 -3.981 
1.6433 -1.32521 -3.981 
1.64283 -1.31156 -3.94 
1.65928 -1.31156 -3.94 
1.67573 -1.31156 -3.94 
1.69218 -1.31156 -3.94 
1.72641 -1.32521 -3.981 
1.74303 -1.32521 -3.981 
1.75965 -1.32521 -3.981 
1.77628 -1.32521 -3.981 
1.7929 -1.32521 -3.981 
1.80952 -1.32521 -3.981 
1.84541 -1.33919 -4.023 
1.86221 -1.33919 -4.023 
1.879 -1.33919 -4.023 
1.8958 -1.33919 -4.023 
1.9126 -1.33919 -4.023 
1.90925 -1.32521 -3.981 
1.92587 -1.32521 -3.981 
1.9425 -1.32521 -3.981 
1.95912 -1.32521 -3.981 
1.97574 -1.32521 -3.981 
1.97184 -1.31156 -3.94 
1.98829 -1.31156 -3.94 
2.00475 -1.31156 -3.94 
2.0212 -1.31156 -3.94 
2.03765 -1.31156 -3.94 
2.0541 -1.31156 -3.94 
2.07055 -1.31156 -3.94 
2.087 -1.31156 -3.94 
2.10345 -1.31156 -3.94 
2.1199 -1.31156 -3.94 
2.13635 -1.31156 -3.94 
2.1528 -1.31156 -3.94 
2.16926 -1.31156 -3.94 
2.18571 -1.31156 -3.94 
2.22507 -1.32521 -3.981 
2.24169 -1.32521 -3.981 
2.25832 -1.32521 -3.981 
2.27494 -1.32521 -3.981 
2.29156 -1.32521 -3.981 
2.30818 -1.32521 -3.981 
2.32481 -1.32521 -3.981 
2.34143 -1.32521 -3.981 
2.35805 -1.32521 -3.981 
2.39972 -1.33919 -4.023 
2.41652 -1.33919 -4.023 
2.43332 -1.33919 -4.023 
2.45012 -1.33919 -4.023 
2.46691 -1.33919 -4.023 
2.48371 -1.33919 -4.023 
2.50051 -1.33919 -4.023 
2.51731 -1.33919 -4.023 
2.5341 -1.33919 -4.023 
2.5509 -1.33919 -4.023 
2.5677 -1.33919 -4.023 
2.5845 -1.33919 -4.023 
2.60129 -1.33919 -4.023 
2.61809 -1.33919 -4.023 
2.63489 -1.33919 -4.023 
2.65169 -1.33919 -4.023 
2.66848 -1.33919 -4.023 
2.68528 -1.33919 -4.023 
2.70208 -1.33919 -4.023 
2.71888 -1.33919 -4.023 
2.76491 -1.3535 -4.066 
2.78189 -1.3535 -4.066 
2.79887 -1.3535 -4.066 
2.81585 -1.3535 -4.066 
2.86348 -1.36815 -4.11 
2.88064 -1.36815 -4.11 
2.92882 -1.3828 -4.154 
2.94617 -1.3828 -4.154 
2.93212 -1.36815 -4.11 
2.94928 -1.36815 -4.11 
2.93468 -1.3535 -4.066 
2.95166 -1.3535 -4.066 
2.90658 -1.32521 -3.981 
2.8931 -1.31156 -3.94 
2.88001 -1.29824 -3.9 
2.86733 -1.28526 -3.861 
2.85432 -1.27228 -3.822 
2.87028 -1.27228 -3.822 
2.85754 -1.25963 -3.784 
2.84525 -1.24731 -3.747 
2.88914 -1.25963 -3.784 
2.96405 -1.28526 -3.861 
3.01028 -1.29824 -3.9 
3.08942 -1.32521 -3.981 
3.13881 -1.33919 -4.023 
3.22385 -1.36815 -4.11 
3.31198 -1.39811 -4.2 
3.36678 -1.41375 -4.247 
3.42197 -1.4294 -4.294 
3.47915 -1.44571 -4.343 
3.53755 -1.46236 -4.393 
3.59717 -1.47933 -4.444 
3.61573 -1.47933 -4.444 
3.67762 -1.49698 -4.497 
3.6964 -1.49698 -4.497 
3.75896 -1.51462 -4.55 
3.82363 -1.53293 -4.605 
3.88959 -1.55157 -4.661 
3.90905 -1.55157 -4.661 
3.92851 -1.55157 -4.661 
3.94797 -1.55157 -4.661 
3.91977 -1.53293 -4.605 
3.93899 -1.53293 -4.605 
3.95822 -1.53293 -4.605 
3.92994 -1.51462 -4.55 
3.94894 -1.51462 -4.55 
3.92172 -1.49698 -4.497 
3.84937 -1.46236 -4.393 
3.82369 -1.44571 -4.343 
3.79848 -1.4294 -4.294 
3.73286 -1.39811 -4.2 
3.70932 -1.3828 -4.154 
3.64772 -1.3535 -4.066 
3.58808 -1.32521 -3.981 
3.53136 -1.29824 -3.9 
3.47669 -1.27228 -3.822 
3.45793 -1.25963 -3.784 
3.42221 -1.23533 -3.711 
3.40435 -1.22335 -3.675 
3.38713 -1.21169 -3.64 
-1.49628 -0.541316 -1.606 
-1.48957 -0.541316 -1.606 
-1.48933 -0.543675 -1.613 
-1.48259 -0.543675 -1.613 
-1.47586 -0.543675 -1.613 
-1.46913 -0.543675 -1.613 
-1.46874 -0.546035 -1.62 
-1.46739 -0.548057 -1.626 
-1.46689 -0.550416 -1.633 
-1.46633 -0.552776 -1.64 
-1.46571 -0.555135 -1.647 
-1.45883 -0.555135 -1.647 
-1.45901 -0.557832 -1.655 
-1.45824 -0.560191 -1.662 
-1.4513 -0.560191 -1.662 
-1.45044 -0.56255 -1.669 
-1.44953 -0.56491 -1.676 
-1.44942 -0.567606 -1.684 
-1.44239 -0.567606 -1.684 
-1.44132 -0.569966 -1.691 
-1.44105 -0.572662 -1.699 
-1.43986 -0.575022 -1.706 
-1.43945 -0.577718 -1.714 
-1.43898 -0.580415 -1.722 
-1.43179 -0.580415 -1.722 
-1.43039 -0.582774 -1.729 
-1.42976 -0.58547 -1.737 
-1.42906 -0.588167 -1.745 
-1.42177 -0.588167 -1.745 
-1.41449 -0.588167 -1.745 
-1.41365 -0.590863 -1.753 
-1.40633 -0.590863 -1.753 
-1.4054 -0.59356 -1.761 
-1.39805 -0.59356 -1.761 
-1.39701 -0.596256 -1.769 
-1.39669 -0.59929 -1.778 
-1.39552 -0.601986 -1.786 
-1.38806 -0.601986 -1.786 
-1.38679 -0.604683 -1.794 
-1.38622 -0.607716 -1.803 
-1.38481 -0.610413 -1.811 
-1.38409 -0.613446 -1.82 
-1.3833 -0.61648 -1.829 
-1.38243 -0.619513 -1.838 
-1.38074 -0.62221 -1.846 
-1.37973 -0.625243 -1.855 
-1.37864 -0.628277 -1.864 
-1.38483 -0.634681 -1.883 
-1.38355 -0.637715 -1.892 
-1.38292 -0.641085 -1.902 
-1.38148 -0.644119 -1.911 
-1.38069 -0.647489 -1.921 
-1.3791 -0.650523 -1.93 
-1.37815 -0.653893 -1.94 
-1.37711 -0.657264 -1.95 
-1.36897 -0.657264 -1.95 
-1.3678 -0.660634 -1.96 
-1.35962 -0.660634 -1.96 
-1.35833 -0.664005 -1.97 
-1.35696 -0.667376 -1.98 
-1.35619 -0.671083 -1.991 
-1.35464 -0.674454 -2.001 
-1.36042 -0.681532 -2.022 
-1.35933 -0.68524 -2.033 
-1.35815 -0.688947 -2.044 
-1.35688 -0.692655 -2.055 
-1.36273 -0.70007 -2.077 
-1.36188 -0.704115 -2.089 
-1.36029 -0.707823 -2.1 
-1.35924 -0.711867 -2.112 
-1.36513 -0.71962 -2.135 
-1.35621 -0.71962 -2.135 
-1.35487 -0.723664 -2.147 
-1.35343 -0.727709 -2.159 
-1.35251 -0.732091 -2.172 
-1.35086 -0.736136 -2.184 
-1.34973 -0.740517 -2.197 
-1.34788 -0.744562 -2.209 
-1.34654 -0.748944 -2.222 
-1.34508 -0.753326 -2.235 
-1.34352 -0.757707 -2.248 
-1.34244 -0.762426 -2.262 
-1.34066 -0.766808 -2.275 
-1.33935 -0.771527 -2.289 
-1.34548 -0.780627 -2.316 
-1.34446 -0.785683 -2.331 
-1.33473 -0.785683 -2.331 
-1.33295 -0.790402 -2.345 
-1.33106 -0.795121 -2.359 
-1.32961 -0.800177 -2.374 
-1.32804 -0.805233 -2.389 
-1.32634 -0.810288 -2.404 
-1.3163 -0.810288 -2.404 
-1.31442 -0.815344 -2.419 
-1.30432 -0.815344 -2.419 
-1.29422 -0.815344 -2.419 
-1.29208 -0.8204 -2.434 
-1.29034 -0.825793 -2.45 
-1.28011 -0.825793 -2.45 
-1.26988 -0.825793 -2.45 
-1.26788 -0.831186 -2.466 
-1.25758 -0.831186 -2.466 
-1.24729 -0.831186 -2.466 
-1.24502 -0.836579 -2.482 
-1.23465 -0.836579 -2.482 
-1.23218 -0.841972 -2.498 
-1.22175 -0.841972 -2.498 
-1.21956 -0.847702 -2.515 
-1.21676 -0.853095 -2.531 
-1.20619 -0.853095 -2.531 
-1.20365 -0.858825 -2.548 
-1.20097 -0.864555 -2.565 
-1.2065 -0.876352 -2.6 
-1.20392 -0.882419 -2.618 
-1.2012 -0.888486 -2.636 
-1.19832 -0.894553 -2.654 
-1.19573 -0.900957 -2.673 
-1.19299 -0.907361 -2.692 
-1.1901 -0.913765 -2.711 
-1.18704 -0.920169 -2.73 
-1.18425 -0.926911 -2.75 
-1.17277 -0.926911 -2.75 
-1.16973 -0.933652 -2.77 
-1.15817 -0.933652 -2.77 
-1.1466 -0.933652 -2.77 
-1.14323 -0.940393 -2.79 
-1.12347 -0.933652 -2.77 
-1.10388 -0.926911 -2.75 
-1.08445 -0.920169 -2.73 
-1.05065 -0.900957 -2.673 
-1.0111 -0.876352 -2.6 
-0.96754 -0.847702 -2.515 
-0.920508 -0.815344 -2.419 
-0.882557 -0.790402 -2.345 
-0.841875 -0.762426 -2.262 
-0.80851 -0.740517 -2.197 
-0.781145 -0.723664 -2.147 
-0.772181 -0.723664 -2.147 
-0.776369 -0.736136 -2.184 
-0.794652 -0.762426 -2.262 
-0.829606 -0.815344 -2.419 
-0.835429 -0.831186 -2.466 
-0.841528 -0.847702 -2.515 
-0.836314 -0.853095 -2.531 
-0.820526 -0.847702 -2.515 
-0.78909 -0.825793 -2.45 
-0.74548 -0.790402 -2.345 
-0.705258 -0.757707 -2.248 
-0.680084 -0.740517 -2.197 
-0.659307 -0.727709 -2.159 
-0.646678 -0.723664 -2.147 
-0.634149 -0.71962 -2.135 
-0.625235 -0.71962 -2.135 
-0.61632 -0.71962 -2.135 
-0.607406 -0.71962 -2.135 
-0.598491 -0.71962 -2.135 
-0.589577 -0.71962 -2.135 
-0.580663 -0.71962 -2.135 
-0.571748 -0.71962 -2.135 
-0.562834 -0.71962 -2.135 
-0.55392 -0.71962 -2.135 
-0.545005 -0.71962 -2.135 
-0.539104 -0.723664 -2.147 
-0.530139 -0.723664 -2.147 
-0.521175 -0.723664 -2.147 
-0.51221 -0.723664 -2.147 
-0.500433 -0.71962 -2.135 
-0.491519 -0.71962 -2.135 
-0.482604 -0.71962 -2.135 
-0.476353 -0.723664 -2.147 
-0.464776 -0.71962 -2.135 
-0.458424 -0.723664 -2.147 
-0.449459 -0.723664 -2.147 
-0.440495 -0.723664 -2.147 
-0.433942 -0.727709 -2.159 
-0.427486 -0.732091 -2.172 
-0.418417 -0.732091 -2.172 
-0.41161 -0.736136 -2.184 
-0.402491 -0.736136 -2.184 
-0.393372 -0.736136 -2.184 
-0.384253 -0.736136 -2.184 
-0.377367 -0.740517 -2.197 
-0.368194 -0.740517 -2.197 
-0.35902 -0.740517 -2.197 
-0.347777 -0.736136 -2.184 
-0.338658 -0.736136 -2.184 
-0.327728 -0.732091 -2.172 
-0.318659 -0.732091 -2.172 
-0.307738 -0.727709 -2.159 
-0.297063 -0.723664 -2.147 
-0.286488 -0.71962 -2.135 
-0.274583 -0.711867 -2.112 
-0.264255 -0.707823 -2.1 
-0.252688 -0.70007 -2.077 
-0.242724 -0.696363 -2.066 
-0.231605 -0.688947 -2.044 
-0.22187 -0.68524 -2.033 
-0.211177 -0.678162 -2.012 
-0.202776 -0.678162 -2.012 
-0.193313 -0.674454 -2.001 
-0.184034 -0.671083 -1.991 
-0.175721 -0.671083 -1.991 
-0.169173 -0.678162 -2.012 
-0.163329 -0.688947 -2.044 
-0.159036 -0.707823 -2.1 
-0.15542 -0.732091 -2.172 
-0.153291 -0.766808 -2.275 
-0.150049 -0.800177 -2.374 
-0.147457 -0.841972 -2.498 
-0.143609 -0.882419 -2.618 
-0.140381 -0.933652 -2.77 
-0.131652 -0.954212 -2.831 
-0.120721 -0.961291 -2.852 
-0.110453 -0.975784 -2.895 
-0.0991472 -0.983536 -2.918 
-0.0883046 -0.998704 -2.963 
-0.0765224 -1.00646 -2.986 
-0.0645482 -1.01421 -3.009 
-0.0523992 -1.0223 -3.033 
-0.0400629 -1.03072 -3.058 
-0.0272946 -1.03072 -3.058 
-0.0146404 -1.03881 -3.082 
-0.00177193 -1.03881 -3.082 
0.0110965 -1.03881 -3.082 
0.023965 -1.03881 -3.082 
0.0368334 -1.03881 -3.082 
0.0497019 -1.03881 -3.082 
0.0620831 -1.03072 -3.058 
0.0748513 -1.03072 -3.058 
0.0869033 -1.0223 -3.033 
0.0995671 -1.0223 -3.033 
0.111343 -1.01421 -3.009 
0.123907 -1.01421 -3.009 
0.13647 -1.01421 -3.009 
0.147895 -1.00646 -2.986 
0.159127 -0.998704 -2.963 
0.171499 -0.998704 -2.963 
0.18387 -0.998704 -2.963 
0.196242 -0.998704 -2.963 
0.206994 -0.990952 -2.94 
0.21927 -0.990952 -2.94 
0.233357 -0.998704 -2.963 
0.245728 -0.998704 -2.963 
0.2581 -0.998704 -2.963 
0.270471 -0.998704 -2.963 
0.285039 -1.00646 -2.986 
0.297506 -1.00646 -2.986 
0.309974 -1.00646 -2.986 
0.322441 -1.00646 -2.986 
0.334909 -1.00646 -2.986 
0.347377 -1.00646 -2.986 
0.357072 -0.998704 -2.963 
0.369444 -0.998704 -2.963 
0.381816 -0.998704 -2.963 
0.391127 -0.990952 -2.94 
0.403403 -0.990952 -2.94 
0.41893 -0.998704 -2.963 
0.431302 -0.998704 -2.963 
0.443674 -0.998704 -2.963 
0.459585 -1.00646 -2.986 
0.475689 -1.01421 -3.009 
0.488252 -1.01421 -3.009 
0.504811 -1.0223 -3.033 
0.525835 -1.03881 -3.082 
0.543073 -1.04724 -3.107 
0.570005 -1.07353 -3.185 
0.598321 -1.10117 -3.267 
0.628071 -1.13016 -3.353 
0.659305 -1.16049 -3.443 
0.686008 -1.18173 -3.506 
0.727426 -1.22689 -3.64 
0.764454 -1.26296 -3.747 
0.795714 -1.28824 -3.822 
0.828236 -1.31453 -3.9 
0.853182 -1.32801 -3.94 
0.878682 -1.34183 -3.981 
0.895305 -1.34183 -3.981 
0.911927 -1.34183 -3.981 
0.928549 -1.34183 -3.981 
0.945171 -1.34183 -3.981 
0.961793 -1.34183 -3.981 
0.978415 -1.34183 -3.981 
0.984789 -1.32801 -3.94 
1.00124 -1.32801 -3.94 
1.01769 -1.32801 -3.94 
1.03414 -1.32801 -3.94 
1.05059 -1.32801 -3.94 
1.06704 -1.32801 -3.94 
1.08349 -1.32801 -3.94 
1.09995 -1.32801 -3.94 
1.1164 -1.32801 -3.94 
1.13285 -1.32801 -3.94 
1.1493 -1.32801 -3.94 
1.17788 -1.34183 -3.981 
1.1945 -1.34183 -3.981 
1.21112 -1.34183 -3.981 
1.22775 -1.34183 -3.981 
1.24437 -1.34183 -3.981 
1.26099 -1.34183 -3.981 
1.27761 -1.34183 -3.981 
1.29423 -1.34183 -3.981 
1.31086 -1.34183 -3.981 
1.32748 -1.34183 -3.981 
1.3441 -1.34183 -3.981 
1.36072 -1.34183 -3.981 
1.37735 -1.34183 -3.981 
1.39397 -1.34183 -3.981 
1.41059 -1.34183 -3.981 
1.42721 -1.34183 -3.981 
1.44383 -1.34183 -3.981 
1.46046 -1.34183 -3.981 
1.47708 -1.34183 -3.981 
1.47832 -1.32801 -3.94 
1.49477 -1.32801 -3.94 
1.51122 -1.32801 -3.94 
1.52767 -1.32801 -3.94 
1.54412 -1.32801 -3.94 
1.56057 -1.32801 -3.94 
1.57702 -1.32801 -3.94 
1.59347 -1.32801 -3.94 
1.60992 -1.32801 -3.94 
1.62637 -1.32801 -3.94 
1.64283 -1.32801 -3.94 
1.64243 -1.31453 -3.9 
1.65872 -1.31453 -3.9 
1.675 -1.31453 -3.9 
1.70863 -1.32801 -3.94 
1.72508 -1.32801 -3.94 
1.74153 -1.32801 -3.94 
1.75798 -1.32801 -3.94 
1.7929 -1.34183 -3.981 
1.80952 -1.34183 -3.981 
1.82614 -1.34183 -3.981 
1.84276 -1.34183 -3.981 
1.85939 -1.34183 -3.981 
1.87601 -1.34183 -3.981 
1.89263 -1.34183 -3.981 
1.90925 -1.34183 -3.981 
1.92587 -1.34183 -3.981 
1.9425 -1.34183 -3.981 
1.93894 -1.32801 -3.94 
1.95539 -1.32801 -3.94 
1.97184 -1.32801 -3.94 
1.98829 -1.32801 -3.94 
2.00475 -1.32801 -3.94 
2.0212 -1.32801 -3.94 
2.03765 -1.32801 -3.94 
2.0541 -1.32801 -3.94 
2.04953 -1.31453 -3.9 
2.06581 -1.31453 -3.9 
2.0821 -1.31453 -3.9 
2.09838 -1.31453 -3.9 
2.11466 -1.31453 -3.9 
2.13095 -1.31453 -3.9 
2.14723 -1.31453 -3.9 
2.16352 -1.31453 -3.9 
2.20216 -1.32801 -3.94 
2.21861 -1.32801 -3.94 
2.23506 -1.32801 -3.94 
2.25151 -1.32801 -3.94 
2.26796 -1.32801 -3.94 
2.30818 -1.34183 -3.981 
2.32481 -1.34183 -3.981 
2.34143 -1.34183 -3.981 
2.35805 -1.34183 -3.981 
2.37467 -1.34183 -3.981 
2.39129 -1.34183 -3.981 
2.40792 -1.34183 -3.981 
2.42454 -1.34183 -3.981 
2.44116 -1.34183 -3.981 
2.45778 -1.34183 -3.981 
2.4744 -1.34183 -3.981 
2.49103 -1.34183 -3.981 
2.50765 -1.34183 -3.981 
2.52427 -1.34183 -3.981 
2.54089 -1.34183 -3.981 
2.55751 -1.34183 -3.981 
2.57414 -1.34183 -3.981 
2.59076 -1.34183 -3.981 
2.60738 -1.34183 -3.981 
2.624 -1.34183 -3.981 
2.64062 -1.34183 -3.981 
2.65725 -1.34183 -3.981 
2.67387 -1.34183 -3.981 
2.69049 -1.34183 -3.981 
2.70711 -1.34183 -3.981 
2.75247 -1.35599 -4.023 
2.76927 -1.35599 -4.023 
2.81585 -1.37048 -4.066 
2.83282 -1.37048 -4.066 
2.8498 -1.37048 -4.066 
2.86678 -1.37048 -4.066 
2.88375 -1.37048 -4.066 
2.93212 -1.38531 -4.11 
2.91771 -1.37048 -4.066 
2.93468 -1.37048 -4.066 
2.92045 -1.35599 -4.023 
2.90658 -1.34183 -3.981 
2.8931 -1.32801 -3.94 
2.88001 -1.31453 -3.9 
2.86733 -1.30138 -3.861 
2.85432 -1.28824 -3.822 
2.87028 -1.28824 -3.822 
2.85754 -1.27543 -3.784 
2.87334 -1.27543 -3.784 
2.88914 -1.27543 -3.784 
2.93411 -1.28824 -3.822 
2.98018 -1.30138 -3.861 
3.02656 -1.31453 -3.9 
3.07405 -1.32801 -3.94 
3.15561 -1.35599 -4.023 
3.20632 -1.37048 -4.066 
3.25817 -1.38531 -4.11 
3.34706 -1.41565 -4.2 
3.40225 -1.43149 -4.247 
3.45783 -1.44733 -4.294 
3.55589 -1.4807 -4.393 
3.57423 -1.4807 -4.393 
3.63428 -1.49789 -4.444 
3.6964 -1.51575 -4.497 
3.71518 -1.51575 -4.497 
3.77796 -1.53362 -4.55 
3.84286 -1.55215 -4.605 
3.86208 -1.55215 -4.605 
3.88131 -1.55215 -4.605 
3.90054 -1.55215 -4.605 
3.87295 -1.53362 -4.55 
3.89195 -1.53362 -4.55 
3.86539 -1.51575 -4.497 
3.88417 -1.51575 -4.497 
3.85695 -1.49789 -4.444 
3.83102 -1.4807 -4.393 
3.76262 -1.44733 -4.294 
3.4988 -1.31453 -3.9 
3.44478 -1.28824 -3.822 
3.42633 -1.27543 -3.784 
3.40847 -1.26296 -3.747 
3.39122 -1.25082 -3.711 
3.38901 -1.23869 -3.675 
3.37193 -1.22689 -3.64 
-1.49628 -0.548021 -1.606 
-1.48957 -0.548021 -1.606 
-1.48933 -0.55041 -1.613 
-1.48259 -0.55041 -1.613 
-1.48226 -0.552799 -1.62 
-1.4755 -0.552799 -1.62 
-1.47418 -0.554846 -1.626 
-1.4737 -0.557235 -1.633 
-1.46689 -0.557235 -1.633 
-1.46633 -0.559623 -1.64 
-1.46571 -0.562012 -1.647 
-1.45883 -0.562012 -1.647 
-1.45901 -0.564742 -1.655 
-1.45824 -0.567131 -1.662 
-1.4513 -0.567131 -1.662 
-1.45044 -0.569519 -1.669 
-1.44953 -0.571908 -1.676 
-1.44942 -0.574638 -1.684 
-1.44239 -0.574638 -1.684 
-1.44132 -0.577026 -1.691 
-1.44105 -0.579756 -1.699 
-1.43986 -0.582145 -1.706 
-1.43945 -0.584875 -1.714 
-1.43898 -0.587605 -1.722 
-1.43179 -0.587605 -1.722 
-1.43039 -0.589993 -1.729 
-1.42976 -0.592723 -1.737 
-1.42906 -0.595453 -1.745 
-1.42177 -0.595453 -1.745 
-1.42097 -0.598183 -1.753 
-1.41365 -0.598183 -1.753 
-1.41275 -0.600913 -1.761 
-1.4054 -0.600913 -1.761 
-1.39805 -0.600913 -1.761 
-1.39701 -0.603642 -1.769 
-1.39669 -0.606714 -1.778 
-1.39552 -0.609443 -1.786 
-1.38806 -0.609443 -1.786 
-1.38679 -0.612173 -1.794 
-1.38622 -0.615244 -1.803 
-1.38481 -0.617974 -1.811 
-1.38409 -0.621045 -1.82 
-1.3833 -0.624117 -1.829 
-1.38243 -0.627188 -1.838 
-1.38074 -0.629918 -1.846 
-1.37973 -0.632989 -1.855 
-1.37864 -0.63606 -1.864 
-1.38483 -0.642543 -1.883 
-1.38355 -0.645614 -1.892 
-1.38292 -0.649027 -1.902 
-1.38148 -0.652098 -1.911 
-1.38069 -0.65551 -1.921 
-1.3791 -0.658581 -1.93 
-1.37815 -0.661993 -1.94 
-1.37711 -0.665406 -1.95 
-1.36897 -0.665406 -1.95 
-1.3678 -0.668818 -1.96 
-1.35962 -0.668818 -1.96 
-1.36523 -0.675643 -1.98 
-1.35696 -0.675643 -1.98 
-1.35619 -0.679396 -1.991 
-1.35464 -0.682809 -2.001 
-1.36042 -0.689975 -2.022 
-1.35933 -0.693728 -2.033 
-1.35815 -0.697482 -2.044 
-1.35688 -0.701235 -2.055 
-1.36273 -0.708742 -2.077 
-1.36188 -0.712837 -2.089 
-1.36029 -0.716591 -2.1 
-1.35924 -0.720686 -2.112 
-1.35746 -0.724439 -2.123 
-1.35621 -0.728534 -2.135 
-1.35487 -0.732629 -2.147 
-1.35343 -0.736724 -2.159 
-1.35251 -0.74116 -2.172 
-1.34344 -0.74116 -2.172 
-1.34175 -0.745254 -2.184 
-1.34056 -0.749691 -2.197 
-1.33866 -0.753785 -2.209 
-1.34508 -0.762657 -2.235 
-1.34352 -0.767093 -2.248 
-1.34244 -0.771871 -2.262 
-1.34066 -0.776307 -2.275 
-1.33935 -0.781084 -2.289 
-1.33735 -0.78552 -2.302 
-1.33581 -0.790297 -2.316 
-1.33473 -0.795416 -2.331 
-1.33295 -0.800193 -2.345 
-1.33106 -0.80497 -2.359 
-1.32961 -0.810089 -2.374 
-1.32804 -0.815207 -2.389 
-1.31806 -0.815207 -2.389 
-1.3163 -0.820326 -2.404 
-1.31442 -0.825444 -2.419 
-1.30432 -0.825444 -2.419 
-1.30224 -0.830563 -2.434 
-1.29208 -0.830563 -2.434 
-1.29034 -0.836023 -2.45 
-1.28011 -0.836023 -2.45 
-1.27818 -0.841482 -2.466 
-1.26788 -0.841482 -2.466 
-1.25758 -0.841482 -2.466 
-1.25538 -0.846942 -2.482 
-1.24502 -0.846942 -2.482 
-1.24261 -0.852402 -2.498 
-1.23218 -0.852402 -2.498 
-1.23007 -0.858203 -2.515 
-1.22732 -0.863663 -2.531 
-1.22493 -0.869464 -2.548 
-1.21429 -0.869464 -2.548 
-1.21168 -0.875265 -2.565 
-1.20893 -0.881065 -2.582 
-1.2065 -0.887208 -2.6 
-1.2122 -0.899492 -2.636 
-1.2094 -0.905634 -2.654 
-1.2069 -0.912118 -2.673 
-1.20423 -0.918601 -2.692 
-1.20141 -0.925085 -2.711 
-1.19844 -0.931568 -2.73 
-1.19573 -0.938393 -2.75 
-1.19286 -0.945217 -2.77 
-1.1813 -0.945217 -2.77 
-1.17818 -0.952042 -2.79 
-1.16653 -0.952042 -2.79 
-1.15488 -0.952042 -2.79 
-1.15143 -0.958867 -2.81 
-1.13158 -0.952042 -2.79 
-1.11993 -0.952042 -2.79 
-1.10034 -0.945217 -2.77 
-1.07305 -0.931568 -2.73 
-1.0321 -0.905634 -2.654 
-0.986776 -0.875265 -2.565 
-0.938393 -0.841482 -2.466 
-0.899117 -0.815207 -2.389 
-0.856762 -0.78552 -2.302 
-0.81771 -0.758221 -2.222 
-0.794607 -0.745254 -2.184 
-0.776497 -0.736724 -2.159 
-0.776369 -0.745254 -2.184 
-0.789734 -0.767093 -2.248 
-0.809029 -0.80497 -2.359 
-0.814424 -0.820326 -2.404 
-0.809406 -0.825444 -2.419 
-0.809549 -0.836023 -2.45 
-0.794099 -0.830563 -2.434 
-0.764612 -0.810089 -2.374 
-0.731811 -0.78552 -2.302 
-0.697101 -0.758221 -2.222 
-0.67606 -0.745254 -2.184 
-0.655642 -0.732629 -2.147 
-0.643063 -0.728534 -2.135 
-0.630585 -0.724439 -2.123 
-0.62172 -0.724439 -2.123 
-0.612856 -0.724439 -2.123 
-0.603992 -0.724439 -2.123 
-0.595128 -0.724439 -2.123 
-0.583226 -0.720686 -2.112 
-0.574407 -0.720686 -2.112 
-0.565589 -0.720686 -2.112 
-0.556771 -0.720686 -2.112 
-0.547952 -0.720686 -2.112 
-0.541942 -0.724439 -2.123 
-0.533078 -0.724439 -2.123 
-0.524213 -0.724439 -2.123 
-0.515349 -0.724439 -2.123 
-0.506485 -0.724439 -2.123 
-0.497621 -0.724439 -2.123 
-0.486224 -0.720686 -2.112 
-0.477405 -0.720686 -2.112 
-0.468587 -0.720686 -2.112 
-0.459769 -0.720686 -2.112 
-0.45095 -0.720686 -2.112 
-0.442132 -0.720686 -2.112 
-0.438033 -0.728534 -2.135 
-0.429118 -0.728534 -2.135 
-0.422566 -0.732629 -2.147 
-0.415913 -0.736724 -2.159 
-0.406898 -0.736724 -2.159 
-0.397884 -0.736724 -2.159 
-0.39121 -0.74116 -2.172 
-0.382142 -0.74116 -2.172 
-0.375134 -0.745254 -2.184 
-0.366015 -0.745254 -2.184 
-0.356896 -0.745254 -2.184 
-0.345866 -0.74116 -2.172 
-0.336797 -0.74116 -2.172 
-0.327728 -0.74116 -2.172 
-0.316752 -0.736724 -2.159 
-0.306027 -0.732629 -2.147 
-0.295402 -0.728534 -2.135 
-0.283402 -0.720686 -2.112 
-0.273023 -0.716591 -2.1 
-0.262871 -0.712837 -2.089 
-0.252688 -0.708742 -2.077 
-0.241432 -0.701235 -2.055 
-0.231605 -0.697482 -2.044 
-0.220669 -0.689975 -2.022 
-0.211177 -0.686562 -2.012 
-0.201668 -0.682809 -2.001 
-0.192347 -0.679396 -1.991 
-0.184034 -0.679396 -1.991 
-0.175721 -0.679396 -1.991 
-0.168248 -0.682809 -2.001 
-0.163329 -0.697482 -2.044 
-0.159036 -0.716591 -2.1 
-0.15542 -0.74116 -2.172 
-0.149101 -0.80497 -2.359 
-0.146512 -0.846942 -2.482 
-0.143609 -0.89335 -2.618 
-0.139368 -0.938393 -2.75 
-0.131652 -0.966033 -2.831 
-0.120721 -0.973199 -2.852 
-0.109652 -0.980706 -2.874 
-0.0983657 -0.987872 -2.895 
-0.0876191 -1.00323 -2.94 
-0.075933 -1.01108 -2.963 
-0.0640548 -1.01892 -2.986 
-0.0519846 -1.02677 -3.009 
-0.0397353 -1.03496 -3.033 
-0.0272946 -1.04349 -3.058 
-0.0146404 -1.05168 -3.082 
-0.00177193 -1.05168 -3.082 
0.0110965 -1.05168 -3.082 
0.023965 -1.05168 -3.082 
0.0368334 -1.05168 -3.082 
0.0497019 -1.05168 -3.082 
0.0620831 -1.04349 -3.058 
0.0748513 -1.04349 -3.058 
0.0876196 -1.04349 -3.058 
0.0995671 -1.03496 -3.033 
0.111343 -1.02677 -3.009 
0.123907 -1.02677 -3.009 
0.13647 -1.02677 -3.009 
0.147895 -1.01892 -2.986 
0.160362 -1.01892 -2.986 
0.171499 -1.01108 -2.963 
0.18387 -1.01108 -2.963 
0.196242 -1.01108 -2.963 
0.206994 -1.00323 -2.94 
0.21927 -1.00323 -2.94 
0.231545 -1.00323 -2.94 
0.245728 -1.01108 -2.963 
0.2581 -1.01108 -2.963 
0.270471 -1.01108 -2.963 
0.282843 -1.01108 -2.963 
0.295215 -1.01108 -2.963 
0.307586 -1.01108 -2.963 
0.322441 -1.01892 -2.986 
0.334909 -1.01892 -2.986 
0.347377 -1.01892 -2.986 
0.359844 -1.01892 -2.986 
0.369444 -1.01108 -2.963 
0.381816 -1.01108 -2.963 
0.391127 -1.00323 -2.94 
0.406559 -1.01108 -2.963 
0.41893 -1.01108 -2.963 
0.431302 -1.01108 -2.963 
0.443674 -1.01108 -2.963 
0.459585 -1.01892 -2.986 
0.475689 -1.02677 -3.009 
0.488252 -1.02677 -3.009 
0.504811 -1.03496 -3.033 
0.52174 -1.04349 -3.058 
0.543073 -1.06021 -3.107 
0.570005 -1.08683 -3.185 
0.593193 -1.10526 -3.239 
0.628071 -1.14416 -3.353 
0.653561 -1.16463 -3.413 
0.686008 -1.19637 -3.506 
0.720631 -1.23049 -3.606 
0.757109 -1.26632 -3.711 
0.787802 -1.29123 -3.784 
0.819954 -1.3175 -3.861 
0.84452 -1.33081 -3.9 
0.869633 -1.34446 -3.94 
0.886084 -1.34446 -3.94 
0.902535 -1.34446 -3.94 
0.918986 -1.34446 -3.94 
0.935437 -1.34446 -3.94 
0.951888 -1.34446 -3.94 
0.958508 -1.33081 -3.9 
0.974792 -1.33081 -3.9 
0.991075 -1.33081 -3.9 
1.00736 -1.33081 -3.9 
1.02364 -1.33081 -3.9 
1.03993 -1.33081 -3.9 
1.05621 -1.33081 -3.9 
1.07249 -1.33081 -3.9 
1.08878 -1.33081 -3.9 
1.10506 -1.33081 -3.9 
1.12135 -1.33081 -3.9 
1.13763 -1.33081 -3.9 
1.15391 -1.33081 -3.9 
1.1702 -1.33081 -3.9 
1.18648 -1.33081 -3.9 
1.2151 -1.34446 -3.94 
1.23155 -1.34446 -3.94 
1.248 -1.34446 -3.94 
1.26445 -1.34446 -3.94 
1.28091 -1.34446 -3.94 
1.29736 -1.34446 -3.94 
1.31381 -1.34446 -3.94 
1.33026 -1.34446 -3.94 
1.34671 -1.34446 -3.94 
1.36316 -1.34446 -3.94 
1.37961 -1.34446 -3.94 
1.39606 -1.34446 -3.94 
1.41251 -1.34446 -3.94 
1.42896 -1.34446 -3.94 
1.44541 -1.34446 -3.94 
1.46187 -1.34446 -3.94 
1.47832 -1.34446 -3.94 
1.47959 -1.33081 -3.9 
1.49588 -1.33081 -3.9 
1.51216 -1.33081 -3.9 
1.52844 -1.33081 -3.9 
1.54473 -1.33081 -3.9 
1.56101 -1.33081 -3.9 
1.5773 -1.33081 -3.9 
1.59358 -1.33081 -3.9 
1.60986 -1.33081 -3.9 
1.62615 -1.33081 -3.9 
1.64243 -1.33081 -3.9 
1.65872 -1.33081 -3.9 
1.675 -1.33081 -3.9 
1.69128 -1.33081 -3.9 
1.70757 -1.33081 -3.9 
1.72385 -1.33081 -3.9 
1.74013 -1.33081 -3.9 
1.75642 -1.33081 -3.9 
1.79088 -1.34446 -3.94 
1.80734 -1.34446 -3.94 
1.82379 -1.34446 -3.94 
1.84024 -1.34446 -3.94 
1.85669 -1.34446 -3.94 
1.87314 -1.34446 -3.94 
1.88959 -1.34446 -3.94 
