ply
format ascii 1.0
comment pointcloud saved from Realsense Viewer
element vertex 1815
property float32 x
property float32 y
property float32 z
end_header
0.463125 -0.39859 -3.009 
0.475689 -0.39859 -3.009 
0.488252 -0.39859 -3.009 
0.504811 -0.401769 -3.033 
0.52174 -0.405081 -3.058 
0.543073 -0.411571 -3.107 
0.565352 -0.41846 -3.159 
0.593193 -0.429057 -3.239 
0.633503 -0.448 -3.382 
0.677689 -0.468797 -3.539 
0.72612 -0.491581 -3.711 
0.787378 -0.521915 -3.94 
0.847489 -0.550263 -4.154 
0.92521 -0.588678 -4.444 
1.0147 -0.632922 -4.778 
1.11845 -0.684186 -5.165 
1.20513 -0.723264 -5.46 
1.28302 -0.755718 -5.705 
1.368 -0.791086 -5.972 
1.48577 -0.843808 -6.37 
1.62039 -0.904079 -6.825 
1.77573 -0.973624 -7.35 
1.91702 -1.03323 -7.8 
2.07681 -1.10066 -8.309 
2.2073 -1.1506 -8.686 
2.40785 -1.23485 -9.322 
2.57223 -1.29817 -9.8 
2.68195 -1.33234 -10.058 
2.79761 -1.36837 -10.33 
2.91966 -1.40639 -10.617 
2.96399 -1.40639 -10.617 
2.927 -1.36837 -10.33 
2.7473 -1.26571 -9.555 
2.65447 -1.20544 -9.1 
2.45843 -1.10066 -8.309 
2.3404 -1.03323 -7.8 
2.15331 -0.937593 -7.078 
1.99783 -0.858114 -6.478 
1.86671 -0.791086 -5.972 
1.78046 -0.744591 -5.621 
1.77762 -0.733728 -5.539 
1.85471 -0.755718 -5.705 
1.93616 -0.778899 -5.88 
2.05574 -0.816652 -6.165 
2.22498 -0.87295 -6.59 
2.41929 -0.937593 -7.078 
2.75504 -1.05483 -7.963 
3.11218 -1.17736 -8.888 
3.56386 -1.33234 -10.058 
3.60585 -1.33234 -10.058 
3.7465 -1.36837 -10.33 
3.78963 -1.36837 -10.33 
3.83276 -1.36837 -10.33 
3.98358 -1.40639 -10.617 
4.02791 -1.40639 -10.617 
4.07224 -1.40639 -10.617 
4.23405 -1.44653 -10.92 
4.27964 -1.44653 -10.92 
4.45238 -1.48905 -11.241 
4.6358 -1.53422 -11.582 
4.83057 -1.58217 -11.944 
5.03775 -1.63317 -12.329 
5.08923 -1.63317 -12.329 
5.14071 -1.63317 -12.329 
5.19219 -1.63317 -12.329 
5.24367 -1.63317 -12.329 
5.29514 -1.63317 -12.329 
5.34662 -1.63317 -12.329 
5.3981 -1.63317 -12.329 
5.44958 -1.63317 -12.329 
5.32927 -1.58217 -11.944 
5.37914 -1.58217 -11.944 
5.42901 -1.58217 -11.944 
5.47889 -1.58217 -11.944 
5.52876 -1.58217 -11.944 
5.40955 -1.53422 -11.582 
5.45791 -1.53422 -11.582 
5.50627 -1.53422 -11.582 
5.55463 -1.53422 -11.582 
5.60298 -1.53422 -11.582 
5.65134 -1.53422 -11.582 
5.53189 -1.48905 -11.241 
5.57883 -1.48905 -11.241 
5.62576 -1.48905 -11.241 
5.5107 -1.44653 -10.92 
5.5563 -1.44653 -10.92 
5.44646 -1.40639 -10.617 
5.34236 -1.36837 -10.33 
5.38549 -1.36837 -10.33 
5.28568 -1.33234 -10.058 
5.32768 -1.33234 -10.058 
5.36967 -1.33234 -10.058 
5.27285 -1.29817 -9.8 
5.18093 -1.26571 -9.555 
5.22082 -1.26571 -9.555 
5.13243 -1.23485 -9.322 
5.0482 -1.20544 -9.1 
4.96771 -1.17736 -8.888 
4.78239 -1.12503 -8.493 
4.61307 -1.07721 -8.132 
4.4573 -1.03323 -7.8 
4.31373 -0.992699 -7.494 
4.18094 -0.955211 -7.211 
4.05804 -0.920505 -6.949 
3.94355 -0.888184 -6.705 
3.90343 -0.87295 -6.59 
3.86414 -0.858114 -6.478 
3.89118 -0.858114 -6.478 
3.85291 -0.843808 -6.37 
3.81616 -0.830031 -6.266 
3.84233 -0.830031 -6.266 
3.80614 -0.816652 -6.165 
3.77096 -0.80367 -6.067 
3.73685 -0.791086 -5.972 
3.70384 -0.778899 -5.88 
3.61742 -0.755718 -5.705 
3.58763 -0.744591 -5.621 
3.50767 -0.723264 -5.46 
3.48068 -0.713064 -5.383 
3.45434 -0.703129 -5.308 
3.47651 -0.703129 -5.308 
3.40441 -0.684186 -5.165 
3.38021 -0.675046 -5.096 
3.31338 -0.657561 -4.964 
3.37777 -0.666171 -5.029 
3.35484 -0.657561 -4.964 
3.33204 -0.649083 -4.9 
3.31008 -0.64087 -4.838 
3.16989 -0.610005 -4.605 
3.11433 -0.595699 -4.497 
3.06065 -0.581923 -4.393 
2.97666 -0.562582 -4.247 
2.67846 -0.491581 -3.711 
2.74044 -0.491581 -3.711 
2.78267 -0.49635 -3.747 
2.79831 -0.49635 -3.747 
2.84174 -0.501251 -3.784 
2.88624 -0.506285 -3.822 
2.93181 -0.511451 -3.861 
2.97771 -0.516617 -3.9 
3.0247 -0.521915 -3.94 
3.0728 -0.527347 -3.981 
3.12202 -0.53291 -4.023 
3.17236 -0.538606 -4.066 
3.27571 -0.550263 -4.154 
3.27533 -0.544435 -4.11 
3.2925 -0.544435 -4.11 
3.20578 -0.527347 -3.981 
3.2224 -0.527347 -3.981 
3.17312 -0.516617 -3.9 
3.15751 -0.511451 -3.861 
3.11034 -0.501251 -3.784 
3.09557 -0.49635 -3.747 
3.08132 -0.491581 -3.711 
3.06678 -0.486812 -3.675 
3.08212 -0.486812 -3.675 
3.09746 -0.486812 -3.675 
3.08316 -0.482176 -3.64 
3.09836 -0.482176 -3.64 
3.08448 -0.477672 -3.606 
3.07031 -0.473168 -3.572 
3.05672 -0.468797 -3.539 
3.04286 -0.464425 -3.506 
3.00255 -0.45608 -3.443 
2.99064 -0.452106 -3.413 
2.95207 -0.444158 -3.353 
2.91476 -0.436475 -3.295 
2.90363 -0.432766 -3.267 
2.74223 -0.383489 -2.895 
2.7762 -0.386535 -2.918 
2.78839 -0.386535 -2.918 
2.7785 -0.383489 -2.895 
2.77034 -0.380707 -2.874 
2.78234 -0.380707 -2.874 
2.79434 -0.380707 -2.874 
2.82059 -0.377793 -2.852 
2.83249 -0.377793 -2.852 
-1.47772 -0.215757 -1.579 
-1.47112 -0.215757 -1.579 
-1.47102 -0.216713 -1.586 
-1.4644 -0.216713 -1.586 
-1.45778 -0.216713 -1.586 
-1.45116 -0.216713 -1.586 
-1.45091 -0.217669 -1.593 
-1.44426 -0.217669 -1.593 
-1.44302 -0.218489 -1.599 
-1.44263 -0.219446 -1.606 
-1.44219 -0.220402 -1.613 
-1.44168 -0.221359 -1.62 
-1.44023 -0.222179 -1.626 
-1.43961 -0.223135 -1.633 
-1.44508 -0.225048 -1.647 
-1.44519 -0.226141 -1.655 
-1.44436 -0.227098 -1.662 
-1.44347 -0.228054 -1.669 
-1.44253 -0.229011 -1.676 
-1.44838 -0.23106 -1.691 
-1.44814 -0.232153 -1.699 
-1.44105 -0.232153 -1.699 
-1.43986 -0.23311 -1.706 
-1.43274 -0.23311 -1.706 
-1.4323 -0.234203 -1.714 
-1.42514 -0.234203 -1.714 
-1.4246 -0.235296 -1.722 
-1.41741 -0.235296 -1.722 
-1.41022 -0.235296 -1.722 
-1.40874 -0.236253 -1.729 
-1.40152 -0.236253 -1.729 
-1.3943 -0.236253 -1.729 
-1.3935 -0.237346 -1.737 
-1.39263 -0.238439 -1.745 
-1.39169 -0.239532 -1.753 
-1.39069 -0.240625 -1.761 
-1.38334 -0.240625 -1.761 
-1.38224 -0.241718 -1.769 
-1.38185 -0.242948 -1.778 
-1.37442 -0.242948 -1.778 
-1.37315 -0.244041 -1.786 
-1.37181 -0.245134 -1.794 
-1.37116 -0.246364 -1.803 
-1.36364 -0.246364 -1.803 
-1.36212 -0.247457 -1.811 
-1.36129 -0.248687 -1.82 
-1.36039 -0.249917 -1.829 
-1.36533 -0.25224 -1.846 
-1.36424 -0.253469 -1.855 
-1.36307 -0.254699 -1.864 
-1.36256 -0.256066 -1.874 
-1.36124 -0.257295 -1.883 
-1.36704 -0.259892 -1.902 
-1.36553 -0.261121 -1.911 
-1.36465 -0.262488 -1.921 
-1.35663 -0.262488 -1.921 
-1.35493 -0.263718 -1.93 
-1.35385 -0.265084 -1.94 
-1.35268 -0.26645 -1.95 
-1.35144 -0.267817 -1.96 
-1.35011 -0.269183 -1.97 
-1.34869 -0.27055 -1.98 
-1.34787 -0.272053 -1.991 
-1.33956 -0.272053 -1.991 
-1.33793 -0.273419 -2.001 
-1.33689 -0.274922 -2.012 
-1.33509 -0.276289 -2.022 
-1.33386 -0.277792 -2.033 
-1.32538 -0.277792 -2.033 
-1.32401 -0.279295 -2.044 
-1.31548 -0.279295 -2.044 
-1.31398 -0.280798 -2.055 
-1.31238 -0.282301 -2.066 
-1.3107 -0.283804 -2.077 
-1.30955 -0.285444 -2.089 
-1.30768 -0.286947 -2.1 
-1.29891 -0.286947 -2.1 
-1.29751 -0.288586 -2.112 
-1.29541 -0.290089 -2.123 
-1.29381 -0.291729 -2.135 
-1.29212 -0.293369 -2.147 
-1.29033 -0.295008 -2.159 
-1.28903 -0.296785 -2.172 
-1.28703 -0.298424 -2.184 
-1.28552 -0.300201 -2.197 
-1.29087 -0.303617 -2.222 
-1.28909 -0.305393 -2.235 
-1.29522 -0.309082 -2.262 
-1.30112 -0.312772 -2.289 
-1.3068 -0.316461 -2.316 
-1.30553 -0.318511 -2.331 
-1.31136 -0.322337 -2.359 
-1.30979 -0.324386 -2.374 
-1.30809 -0.326436 -2.389 
-1.30626 -0.328485 -2.404 
-1.30432 -0.330535 -2.419 
-1.29422 -0.330535 -2.419 
-1.28411 -0.330535 -2.419 
-1.28191 -0.332585 -2.434 
-1.28011 -0.334771 -2.45 
-1.26988 -0.334771 -2.45 
-1.26788 -0.336957 -2.466 
-1.25758 -0.336957 -2.466 
-1.24729 -0.336957 -2.466 
-1.24502 -0.339144 -2.482 
-1.23465 -0.339144 -2.482 
-1.22429 -0.339144 -2.482 
-1.22175 -0.34133 -2.498 
-1.21956 -0.343653 -2.515 
-1.20906 -0.343653 -2.515 
-1.20619 -0.345839 -2.531 
-1.20365 -0.348162 -2.548 
-1.20097 -0.350485 -2.565 
-1.19815 -0.352808 -2.582 
-1.19565 -0.355267 -2.6 
-1.19299 -0.357727 -2.618 
-1.19019 -0.360186 -2.636 
-1.18724 -0.362646 -2.654 
-1.17615 -0.362646 -2.654 
-1.17341 -0.365242 -2.673 
-1.17051 -0.367838 -2.692 
-1.16746 -0.370434 -2.711 
-1.17277 -0.375763 -2.75 
-1.16973 -0.378496 -2.77 
-1.16653 -0.381229 -2.79 
-1.16316 -0.383962 -2.81 
-1.16003 -0.386831 -2.831 
-1.15673 -0.389701 -2.852 
-1.15365 -0.392707 -2.874 
-1.14999 -0.395576 -2.895 
-1.14694 -0.398719 -2.918 
-1.14332 -0.401725 -2.94 
-1.13989 -0.404868 -2.963 
-1.13627 -0.408011 -2.986 
-1.1238 -0.408011 -2.986 
-1.11989 -0.411153 -3.009 
-1.11616 -0.414433 -3.033 
-1.1035 -0.414433 -3.033 
-1.09084 -0.414433 -3.033 
-1.08706 -0.417849 -3.058 
-1.08272 -0.421128 -3.082 
-1.06985 -0.421128 -3.082 
-1.06556 -0.424544 -3.107 
-1.05259 -0.424544 -3.107 
-1.03961 -0.424544 -3.107 
-1.02664 -0.424544 -3.107 
-1.00551 -0.421128 -3.082 
-0.992643 -0.421128 -3.082 
-0.979774 -0.421128 -3.082 
-0.959376 -0.417849 -3.058 
-0.938869 -0.414433 -3.033 
-0.911853 -0.408011 -2.986 
-0.88553 -0.401725 -2.94 
-0.859888 -0.395576 -2.895 
-0.835208 -0.389701 -2.852 
-0.817238 -0.386831 -2.831 
-0.793753 -0.381229 -2.79 
-0.776497 -0.378496 -2.77 
-0.753886 -0.373031 -2.73 
-0.737319 -0.370434 -2.711 
-0.720912 -0.367838 -2.692 
-0.709672 -0.367838 -2.692 
-0.698432 -0.367838 -2.692 
-0.687192 -0.367838 -2.692 
-0.671181 -0.365242 -2.673 
-0.66002 -0.365242 -2.673 
-0.648859 -0.365242 -2.673 
-0.637698 -0.365242 -2.673 
-0.626538 -0.365242 -2.673 
-0.615377 -0.365242 -2.673 
-0.604216 -0.365242 -2.673 
-0.58884 -0.362646 -2.654 
-0.577759 -0.362646 -2.654 
-0.566677 -0.362646 -2.654 
-0.555596 -0.362646 -2.654 
-0.540821 -0.360186 -2.636 
-0.526197 -0.357727 -2.618 
-0.511724 -0.355267 -2.6 
-0.4974 -0.352808 -2.582 
-0.486619 -0.352808 -2.582 
-0.475838 -0.352808 -2.582 
-0.461996 -0.350485 -2.565 
-0.448295 -0.348162 -2.548 
-0.434736 -0.345839 -2.531 
-0.421487 -0.343653 -2.515 
-0.410986 -0.343653 -2.515 
-0.400485 -0.343653 -2.515 
-0.387348 -0.34133 -2.498 
-0.379483 -0.343653 -2.515 
-0.368982 -0.343653 -2.515 
-0.360761 -0.345839 -2.531 
-0.350194 -0.345839 -2.531 
-0.337479 -0.343653 -2.515 
-0.329058 -0.345839 -2.531 
-0.320629 -0.348162 -2.548 
-0.30999 -0.348162 -2.548 
-0.301349 -0.350485 -2.565 
-0.292565 -0.352808 -2.582 
-0.281785 -0.352808 -2.582 
-0.271004 -0.352808 -2.582 
-0.263851 -0.357727 -2.618 
-0.254659 -0.360186 -2.636 
-0.247073 -0.365242 -2.673 
-0.240943 -0.373031 -2.73 
-0.232907 -0.378496 -2.77 
-0.224538 -0.383962 -2.81 
-0.215986 -0.389701 -2.852 
-0.207155 -0.395576 -2.895 
-0.198099 -0.401725 -2.94 
-0.187277 -0.404868 -2.963 
-0.176263 -0.408011 -2.986 
-0.165057 -0.411153 -3.009 
-0.152494 -0.411153 -3.009 
-0.13993 -0.411153 -3.009 
-0.127366 -0.411153 -3.009 
-0.114803 -0.411153 -3.009 
-0.102239 -0.411153 -3.009 
-0.0889901 -0.408011 -2.986 
-0.0765224 -0.408011 -2.986 
-0.0635614 -0.404868 -2.963 
-0.0507925 -0.401725 -2.94 
-0.0385169 -0.401725 -2.94 
-0.026045 -0.398719 -2.918 
-0.0138613 -0.398719 -2.918 
-0.00167764 -0.398719 -2.918 
0.0105061 -0.398719 -2.918 
0.0226898 -0.398719 -2.918 
0.0348734 -0.398719 -2.918 
0.0470571 -0.398719 -2.918 
0.0592408 -0.398719 -2.918 
0.0714245 -0.398719 -2.918 
0.0836082 -0.398719 -2.918 
0.0957919 -0.398719 -2.918 
0.107976 -0.398719 -2.918 
0.121065 -0.401725 -2.94 
0.133341 -0.401725 -2.94 
0.145616 -0.401725 -2.94 
0.157892 -0.401725 -2.94 
0.170167 -0.401725 -2.94 
0.18387 -0.404868 -2.963 
0.196242 -0.404868 -2.963 
0.208613 -0.404868 -2.963 
0.220985 -0.404868 -2.963 
0.233357 -0.404868 -2.963 
0.245728 -0.404868 -2.963 
0.2581 -0.404868 -2.963 
0.268372 -0.401725 -2.94 
0.280647 -0.401725 -2.94 
0.295215 -0.404868 -2.963 
0.307586 -0.404868 -2.963 
0.319958 -0.404868 -2.963 
0.332329 -0.404868 -2.963 
0.344701 -0.404868 -2.963 
0.357072 -0.404868 -2.963 
0.369444 -0.404868 -2.963 
0.381816 -0.404868 -2.963 
0.394187 -0.404868 -2.963 
0.406559 -0.404868 -2.963 
0.41893 -0.404868 -2.963 
0.431302 -0.404868 -2.963 
0.447118 -0.408011 -2.986 
0.459585 -0.408011 -2.986 
0.475689 -0.411153 -3.009 
0.488252 -0.411153 -3.009 
0.504811 -0.414433 -3.033 
0.52174 -0.417849 -3.058 
0.538703 -0.421128 -3.082 
0.565352 -0.43165 -3.159 
0.598321 -0.446407 -3.267 
0.633503 -0.462121 -3.382 
0.677689 -0.483573 -3.539 
0.72612 -0.507076 -3.711 
0.779385 -0.532901 -3.9 
0.847489 -0.567608 -4.154 
0.92521 -0.607234 -4.444 
1.00217 -0.64481 -4.719 
1.10351 -0.696324 -5.096 
1.18813 -0.73554 -5.383 
1.28302 -0.779538 -5.705 
1.368 -0.816021 -5.972 
1.48577 -0.870405 -6.37 
1.5919 -0.916179 -6.705 
1.74215 -0.98532 -7.211 
1.87867 -1.04449 -7.644 
1.99032 -1.08807 -7.963 
2.15826 -1.16049 -8.493 
2.29575 -1.21447 -8.888 
2.44677 -1.27377 -9.322 
2.61315 -1.33908 -9.8 
2.72394 -1.37434 -10.058 
2.76594 -1.37434 -10.058 
2.88387 -1.4115 -10.33 
2.84993 -1.37434 -10.058 
2.68031 -1.27377 -9.322 
2.59263 -1.21447 -8.888 
2.40606 -1.11117 -8.132 
2.29359 -1.04449 -7.644 
2.11407 -0.94952 -6.949 
1.99783 -0.885162 -6.478 
1.86671 -0.816021 -5.972 
1.75449 -0.756856 -5.539 
1.75226 -0.746061 -5.46 
1.8274 -0.76806 -5.621 
1.90685 -0.791289 -5.791 
2.02306 -0.829002 -6.067 
2.1507 -0.870405 -6.37 
2.3752 -0.94952 -6.949 
2.64467 -1.04449 -7.644 
3.04145 -1.18687 -8.686 
3.38563 -1.30561 -9.555 
3.60585 -1.37434 -10.058 
3.64785 -1.37434 -10.058 
3.78963 -1.4115 -10.33 
3.83276 -1.4115 -10.33 
3.98358 -1.45072 -10.617 
4.02791 -1.45072 -10.617 
4.18845 -1.49212 -10.92 
4.23405 -1.49212 -10.92 
4.40545 -1.53598 -11.241 
4.45238 -1.53598 -11.241 
4.6358 -1.58258 -11.582 
4.68416 -1.58258 -11.582 
4.88044 -1.63204 -11.944 
5.08923 -1.68465 -12.329 
5.14071 -1.68465 -12.329 
5.19219 -1.68465 -12.329 
5.24367 -1.68465 -12.329 
5.29514 -1.68465 -12.329 
5.34662 -1.68465 -12.329 
5.3981 -1.68465 -12.329 
5.44958 -1.68465 -12.329 
5.32927 -1.63204 -11.944 
5.37914 -1.63204 -11.944 
5.42901 -1.63204 -11.944 
5.47889 -1.63204 -11.944 
5.36119 -1.58258 -11.582 
5.40955 -1.58258 -11.582 
5.45791 -1.58258 -11.582 
5.50627 -1.58258 -11.582 
5.55463 -1.58258 -11.582 
5.60298 -1.58258 -11.582 
5.65134 -1.58258 -11.582 
5.53189 -1.53598 -11.241 
5.57883 -1.53598 -11.241 
5.46511 -1.49212 -10.92 
5.5107 -1.49212 -10.92 
5.5563 -1.49212 -10.92 
5.44646 -1.45072 -10.617 
5.34236 -1.4115 -10.33 
5.38549 -1.4115 -10.33 
5.42862 -1.4115 -10.33 
5.47176 -1.4115 -10.33 
5.36967 -1.37434 -10.058 
5.27285 -1.33908 -9.8 
5.18093 -1.30561 -9.555 
5.22082 -1.30561 -9.555 
5.26072 -1.30561 -9.555 
5.0482 -1.24344 -9.1 
4.96771 -1.21447 -8.888 
4.78239 -1.16049 -8.493 
4.61307 -1.11117 -8.132 
4.4573 -1.0658 -7.8 
4.31373 -1.02399 -7.494 
4.18094 -0.98532 -7.211 
4.05804 -0.94952 -6.949 
3.94355 -0.916179 -6.705 
3.83709 -0.885162 -6.478 
3.86414 -0.885162 -6.478 
3.82631 -0.870405 -6.37 
3.79 -0.856194 -6.266 
3.81616 -0.856194 -6.266 
3.78039 -0.842393 -6.165 
3.74563 -0.829002 -6.067 
3.71192 -0.816021 -5.972 
3.67929 -0.80345 -5.88 
3.5936 -0.779538 -5.705 
3.56416 -0.76806 -5.621 
3.48487 -0.746061 -5.46 
3.4582 -0.73554 -5.383 
3.43218 -0.725292 -5.308 
3.40749 -0.715453 -5.236 
3.42935 -0.715453 -5.236 
3.35893 -0.696324 -5.096 
3.33577 -0.687169 -5.029 
3.31338 -0.678287 -4.964 
3.33411 -0.678287 -4.964 
3.31158 -0.669542 -4.9 
3.28988 -0.66107 -4.838 
3.22866 -0.64481 -4.719 
3.13203 -0.621718 -4.55 
2.99167 -0.586737 -4.294 
2.91148 -0.567608 -4.154 
2.83646 -0.549708 -4.023 
2.73836 -0.527572 -3.861 
2.67315 -0.511995 -3.747 
2.61202 -0.497374 -3.64 
2.60267 -0.492728 -3.606 
2.61773 -0.492728 -3.606 
2.63279 -0.492728 -3.606 
2.67281 -0.497374 -3.64 
2.6629 -0.492728 -3.606 
2.7032 -0.497374 -3.64 
2.74454 -0.502156 -3.675 
2.78692 -0.507076 -3.711 
2.80242 -0.507076 -3.711 
2.87334 -0.51705 -3.784 
2.91816 -0.522243 -3.822 
2.99399 -0.532901 -3.9 
3.04115 -0.538366 -3.94 
3.08942 -0.543969 -3.981 
3.13881 -0.549708 -4.023 
3.22385 -0.561595 -4.11 
3.24101 -0.561595 -4.11 
3.29305 -0.567608 -4.154 
3.3104 -0.567608 -4.154 
3.2925 -0.561595 -4.11 
3.27422 -0.555583 -4.066 
3.2564 -0.549708 -4.023 
3.23902 -0.543969 -3.981 
3.1894 -0.532901 -3.9 
3.14157 -0.522243 -3.822 
3.09557 -0.511995 -3.747 
3.11121 -0.511995 -3.747 
3.09682 -0.507076 -3.711 
3.11231 -0.507076 -3.711 
3.12781 -0.507076 -3.711 
3.11281 -0.502156 -3.675 
3.09836 -0.497374 -3.64 
3.11356 -0.497374 -3.64 
3.09953 -0.492728 -3.606 
3.08522 -0.488082 -3.572 
3.0715 -0.483573 -3.539 
3.05749 -0.479064 -3.506 
3.01693 -0.470456 -3.443 
2.9776 -0.462121 -3.382 
2.94041 -0.454195 -3.324 
2.90363 -0.446407 -3.267 
2.78839 -0.398719 -2.918 
2.80057 -0.398719 -2.918 
2.79059 -0.395576 -2.895 
2.80267 -0.395576 -2.895 
2.81476 -0.395576 -2.895 
2.80634 -0.392707 -2.874 
2.81834 -0.392707 -2.874 
2.85102 -0.395576 -2.895 
2.86311 -0.395576 -2.895 
-1.48431 -0.222349 -1.579 
-1.48427 -0.223335 -1.586 
-1.47764 -0.223335 -1.586 
-1.47102 -0.223335 -1.586 
-1.4644 -0.223335 -1.586 
-1.46421 -0.224321 -1.593 
-1.45756 -0.224321 -1.593 
-1.45091 -0.224321 -1.593 
-1.4497 -0.225166 -1.599 
-1.44934 -0.226151 -1.606 
-1.44892 -0.227137 -1.613 
-1.44219 -0.227137 -1.613 
-1.44168 -0.228123 -1.62 
-1.44023 -0.228968 -1.626 
-1.43961 -0.229953 -1.633 
-1.44508 -0.231925 -1.647 
-1.44519 -0.233051 -1.655 
-1.44436 -0.234037 -1.662 
-1.44347 -0.235023 -1.669 
-1.44253 -0.236009 -1.676 
-1.44239 -0.237135 -1.684 
-1.44132 -0.238121 -1.691 
-1.44105 -0.239247 -1.699 
-1.43986 -0.240233 -1.706 
-1.43274 -0.240233 -1.706 
-1.42561 -0.240233 -1.706 
-1.42514 -0.24136 -1.714 
-1.4246 -0.242486 -1.722 
-1.41741 -0.242486 -1.722 
-1.41022 -0.242486 -1.722 
-1.40874 -0.243472 -1.729 
-1.40152 -0.243472 -1.729 
-1.40075 -0.244598 -1.737 
-1.39992 -0.245725 -1.745 
-1.39263 -0.245725 -1.745 
-1.39169 -0.246851 -1.753 
-1.39069 -0.247978 -1.761 
-1.38334 -0.247978 -1.761 
-1.38224 -0.249105 -1.769 
-1.38185 -0.250372 -1.778 
-1.37442 -0.250372 -1.778 
-1.37315 -0.251498 -1.786 
-1.36569 -0.251498 -1.786 
-1.37116 -0.253892 -1.803 
-1.36364 -0.253892 -1.803 
-1.36212 -0.255019 -1.811 
-1.36129 -0.256286 -1.82 
-1.36039 -0.257554 -1.829 
-1.35941 -0.258821 -1.838 
-1.36424 -0.261215 -1.855 
-1.36307 -0.262482 -1.864 
-1.36256 -0.26389 -1.874 
-1.36124 -0.265158 -1.883 
-1.35985 -0.266425 -1.892 
-1.36553 -0.2691 -1.911 
-1.36465 -0.270509 -1.921 
-1.35663 -0.270509 -1.921 
-1.35493 -0.271776 -1.93 
-1.35385 -0.273184 -1.94 
-1.35268 -0.274592 -1.95 
-1.35144 -0.276 -1.96 
-1.34325 -0.276 -1.96 
-1.34869 -0.278817 -1.98 
-1.34787 -0.280366 -1.991 
-1.33956 -0.280366 -1.991 
-1.33793 -0.281774 -2.001 
-1.33689 -0.283323 -2.012 
-1.33509 -0.284731 -2.022 
-1.33386 -0.28628 -2.033 
-1.32538 -0.28628 -2.033 
-1.32401 -0.287829 -2.044 
-1.32256 -0.289378 -2.055 
-1.31398 -0.289378 -2.055 
-1.31238 -0.290927 -2.066 
-1.3107 -0.292476 -2.077 
-1.30955 -0.294166 -2.089 
-1.30768 -0.295715 -2.1 
-1.30633 -0.297405 -2.112 
-1.29751 -0.297405 -2.112 
-1.29541 -0.298954 -2.123 
-1.29381 -0.300643 -2.135 
-1.29212 -0.302333 -2.147 
-1.29033 -0.304023 -2.159 
-1.28903 -0.305854 -2.172 
-1.28703 -0.307543 -2.184 
-1.28552 -0.309374 -2.197 
-1.29087 -0.312894 -2.222 
-1.28909 -0.314725 -2.235 
-1.29522 -0.318527 -2.262 
-1.30112 -0.322329 -2.289 
-1.3068 -0.326131 -2.316 
-1.30553 -0.328243 -2.331 
-1.31136 -0.332186 -2.359 
-1.30979 -0.334299 -2.374 
-1.30809 -0.336411 -2.389 
-1.30626 -0.338523 -2.404 
-1.30432 -0.340635 -2.419 
-1.29422 -0.340635 -2.419 
-1.29208 -0.342748 -2.434 
-1.28191 -0.342748 -2.434 
-1.28011 -0.345001 -2.45 
-1.26988 -0.345001 -2.45 
-1.26788 -0.347254 -2.466 
-1.25758 -0.347254 -2.466 
-1.24729 -0.347254 -2.466 
-1.24502 -0.349507 -2.482 
-1.23465 -0.349507 -2.482 
-1.23218 -0.35176 -2.498 
-1.22175 -0.35176 -2.498 
-1.21956 -0.354154 -2.515 
-1.21676 -0.356407 -2.531 
-1.21429 -0.358801 -2.548 
-1.20365 -0.358801 -2.548 
-1.20097 -0.361195 -2.565 
-1.19815 -0.363588 -2.582 
-1.19565 -0.366123 -2.6 
-1.19299 -0.368658 -2.618 
-1.19019 -0.371192 -2.636 
-1.18724 -0.373727 -2.654 
-1.18457 -0.376403 -2.673 
-1.18175 -0.379078 -2.692 
-1.17051 -0.379078 -2.692 
-1.17564 -0.384429 -2.73 
-1.17277 -0.387246 -2.75 
-1.16973 -0.390062 -2.77 
-1.16653 -0.392878 -2.79 
-1.16316 -0.395695 -2.81 
-1.16003 -0.398652 -2.831 
-1.15673 -0.401609 -2.852 
-1.15365 -0.404707 -2.874 
-1.14999 -0.407664 -2.895 
-1.14694 -0.410903 -2.918 
-1.14332 -0.414001 -2.94 
-1.13989 -0.41724 -2.963 
-1.13627 -0.420478 -2.986 
-1.1238 -0.420478 -2.986 
-1.11989 -0.423717 -3.009 
-1.11616 -0.427097 -3.033 
-1.1035 -0.427097 -3.033 
-1.09084 -0.427097 -3.033 
-1.08706 -0.430617 -3.058 
-1.08272 -0.433997 -3.082 
-1.06985 -0.433997 -3.082 
-1.05699 -0.433997 -3.082 
-1.05259 -0.437517 -3.107 
-1.03961 -0.437517 -3.107 
-1.02664 -0.437517 -3.107 
-1.00551 -0.433997 -3.082 
-0.992643 -0.433997 -3.082 
-0.972145 -0.430617 -3.058 
-0.951533 -0.427097 -3.033 
-0.92432 -0.420478 -2.986 
-0.897806 -0.414001 -2.94 
-0.865651 -0.404707 -2.874 
-0.834641 -0.395695 -2.81 
-0.811194 -0.390062 -2.77 
-0.788082 -0.384429 -2.73 
-0.765872 -0.379078 -2.692 
-0.74398 -0.373727 -2.654 
-0.722957 -0.368658 -2.618 
-0.70713 -0.366123 -2.6 
-0.691454 -0.363588 -2.582 
-0.680673 -0.363588 -2.582 
-0.669892 -0.363588 -2.582 
-0.654772 -0.361195 -2.565 
-0.644062 -0.361195 -2.565 
-0.633352 -0.361195 -2.565 
-0.622643 -0.361195 -2.565 
-0.611933 -0.361195 -2.565 
-0.601223 -0.361195 -2.565 
-0.590513 -0.361195 -2.565 
-0.579803 -0.361195 -2.565 
-0.565322 -0.358801 -2.548 
-0.550982 -0.356407 -2.531 
-0.540415 -0.356407 -2.531 
-0.529847 -0.356407 -2.531 
-0.519279 -0.356407 -2.531 
-0.505495 -0.354154 -2.515 
-0.494994 -0.354154 -2.515 
-0.478136 -0.349507 -2.482 
-0.467773 -0.349507 -2.482 
-0.457409 -0.349507 -2.482 
-0.444164 -0.347254 -2.466 
-0.433868 -0.347254 -2.466 
-0.420823 -0.345001 -2.45 
-0.407912 -0.342748 -2.434 
-0.397749 -0.342748 -2.434 
-0.387587 -0.342748 -2.434 
-0.377424 -0.342748 -2.434 
-0.367261 -0.342748 -2.434 
-0.357098 -0.342748 -2.434 
-0.346935 -0.342748 -2.434 
-0.336772 -0.342748 -2.434 
-0.32661 -0.342748 -2.434 
-0.316447 -0.342748 -2.434 
-0.306284 -0.342748 -2.434 
-0.298068 -0.345001 -2.45 
-0.289718 -0.347254 -2.466 
-0.279421 -0.347254 -2.466 
-0.270871 -0.349507 -2.482 
-0.260508 -0.349507 -2.482 
-0.253471 -0.354154 -2.515 
-0.246158 -0.358801 -2.548 
-0.238661 -0.363588 -2.582 
-0.232647 -0.371192 -2.636 
-0.226349 -0.379078 -2.692 
-0.219744 -0.387246 -2.75 
-0.212805 -0.395695 -2.81 
-0.205652 -0.404707 -2.874 
-0.196617 -0.410903 -2.918 
-0.188731 -0.420478 -2.986 
-0.176263 -0.420478 -2.986 
-0.165057 -0.423717 -3.009 
-0.15371 -0.427097 -3.033 
-0.141046 -0.427097 -3.033 
-0.128382 -0.427097 -3.033 
-0.115718 -0.427097 -3.033 
-0.103055 -0.427097 -3.033 
-0.0896755 -0.423717 -3.009 
-0.0765224 -0.420478 -2.986 
-0.0635614 -0.41724 -2.963 
-0.0511899 -0.41724 -2.963 
-0.0385169 -0.414001 -2.94 
-0.026045 -0.410903 -2.918 
-0.0138613 -0.410903 -2.918 
-0.00167764 -0.410903 -2.918 
0.0104232 -0.407664 -2.895 
0.0225109 -0.407664 -2.895 
0.0345986 -0.407664 -2.895 
0.0470571 -0.410903 -2.918 
0.0592408 -0.410903 -2.918 
0.0714245 -0.410903 -2.918 
0.0836082 -0.410903 -2.918 
0.0957919 -0.410903 -2.918 
0.107976 -0.410903 -2.918 
0.120159 -0.410903 -2.918 
0.132343 -0.410903 -2.918 
0.145616 -0.414001 -2.94 
0.157892 -0.414001 -2.94 
0.171499 -0.41724 -2.963 
0.18387 -0.41724 -2.963 
0.196242 -0.41724 -2.963 
0.208613 -0.41724 -2.963 
0.220985 -0.41724 -2.963 
0.233357 -0.41724 -2.963 
0.245728 -0.41724 -2.963 
0.2581 -0.41724 -2.963 
0.270471 -0.41724 -2.963 
0.282843 -0.41724 -2.963 
0.297506 -0.420478 -2.986 
0.309974 -0.420478 -2.986 
0.322441 -0.420478 -2.986 
0.334909 -0.420478 -2.986 
0.344701 -0.41724 -2.963 
0.357072 -0.41724 -2.963 
0.369444 -0.41724 -2.963 
0.381816 -0.41724 -2.963 
0.394187 -0.41724 -2.963 
0.406559 -0.41724 -2.963 
0.41893 -0.41724 -2.963 
0.431302 -0.41724 -2.963 
0.443674 -0.41724 -2.963 
0.459585 -0.420478 -2.986 
0.475689 -0.423717 -3.009 
0.488252 -0.423717 -3.009 
0.500816 -0.423717 -3.009 
0.52174 -0.430617 -3.058 
0.543073 -0.437517 -3.107 
0.570005 -0.448501 -3.185 
0.598321 -0.460048 -3.267 
0.63931 -0.480607 -3.413 
0.677689 -0.49835 -3.539 
0.72612 -0.52257 -3.711 
0.779385 -0.549185 -3.9 
0.847489 -0.584952 -4.154 
0.92521 -0.625789 -4.444 
1.00217 -0.664513 -4.719 
1.089 -0.708167 -5.029 
1.17158 -0.747454 -5.308 
1.26413 -0.79153 -5.621 
1.368 -0.840957 -5.972 
1.48577 -0.897002 -6.37 
1.5919 -0.944175 -6.705 
1.71002 -0.9967 -7.078 
1.84181 -1.05528 -7.494 
1.94958 -1.09837 -7.8 
2.06652 -1.14512 -8.132 
2.19372 -1.19596 -8.493 
2.33286 -1.25158 -8.888 
2.48569 -1.31269 -9.322 
2.58772 -1.3455 -9.555 
2.69499 -1.38 -9.8 
2.80793 -1.41633 -10.058 
2.77682 -1.38 -9.8 
2.61648 -1.28143 -9.1 
2.53371 -1.22313 -8.686 
2.40606 -1.14512 -8.132 
2.24858 -1.05528 -7.494 
2.07634 -0.961073 -6.825 
1.96452 -0.897002 -6.37 
1.83795 -0.828001 -5.88 
1.75449 -0.779983 -5.539 
1.72755 -0.758016 -5.383 
1.80075 -0.779983 -5.539 
1.87853 -0.803359 -5.705 
1.96071 -0.828001 -5.88 
2.25249 -0.927981 -6.59 
2.54295 -1.035 -7.35 
2.90944 -1.17004 -8.309 
3.22441 -1.28143 -9.1 
3.42552 -1.3455 -9.555 
3.46542 -1.3455 -9.555 
3.68984 -1.41633 -10.058 
3.73184 -1.41633 -10.058 
3.87589 -1.45464 -10.33 
3.91902 -1.45464 -10.33 
3.96215 -1.45464 -10.33 
4.11657 -1.49505 -10.617 
4.16089 -1.49505 -10.617 
4.32524 -1.53772 -10.92 
4.49932 -1.58292 -11.241 
4.54625 -1.58292 -11.241 
4.73252 -1.63094 -11.582 
4.78088 -1.63094 -11.582 
4.98018 -1.68191 -11.944 
5.03005 -1.68191 -11.944 
5.07992 -1.68191 -11.944 
5.12979 -1.68191 -11.944 
5.17966 -1.68191 -11.944 
5.22953 -1.68191 -11.944 
5.2794 -1.68191 -11.944 
5.32927 -1.68191 -11.944 
5.21611 -1.63094 -11.582 
5.26447 -1.63094 -11.582 
5.31283 -1.63094 -11.582 
5.36119 -1.63094 -11.582 
5.40955 -1.63094 -11.582 
5.45791 -1.63094 -11.582 
5.50627 -1.63094 -11.582 
5.55463 -1.63094 -11.582 
5.43802 -1.58292 -11.241 
5.48496 -1.58292 -11.241 
5.53189 -1.58292 -11.241 
5.57883 -1.58292 -11.241 
5.46511 -1.53772 -10.92 
5.5107 -1.53772 -10.92 
5.5563 -1.53772 -10.92 
5.44646 -1.49505 -10.617 
5.49079 -1.49505 -10.617 
5.38549 -1.45464 -10.33 
5.42862 -1.45464 -10.33 
5.32768 -1.41633 -10.058 
5.36967 -1.41633 -10.058 
5.27285 -1.38 -9.8 
5.18093 -1.3455 -9.555 
5.22082 -1.3455 -9.555 
5.26072 -1.3455 -9.555 
5.0482 -1.28143 -9.1 
4.96771 -1.25158 -8.888 
4.78239 -1.19596 -8.493 
4.61307 -1.14512 -8.132 
4.4573 -1.09837 -7.8 
4.31373 -1.05528 -7.494 
4.18094 -1.01543 -7.211 
4.05804 -0.978534 -6.949 
3.94355 -0.944175 -6.705 
3.83709 -0.91221 -6.478 
3.79971 -0.897002 -6.37 
3.76384 -0.882357 -6.266 
3.72891 -0.868134 -6.165 
3.69497 -0.854334 -6.067 
3.66205 -0.840957 -5.972 
3.63018 -0.828001 -5.88 
3.59942 -0.815469 -5.791 
3.56978 -0.803359 -5.705 
3.54069 -0.79153 -5.621 
3.46207 -0.768858 -5.46 
3.43573 -0.758016 -5.383 
3.41002 -0.747454 -5.308 
3.38563 -0.737316 -5.236 
3.36128 -0.727318 -5.165 
3.33766 -0.717601 -5.096 
3.31477 -0.708167 -5.029 
3.29266 -0.699013 -4.964 
3.27066 -0.690001 -4.9 
3.29112 -0.690001 -4.9 
3.26968 -0.681271 -4.838 
3.24908 -0.672822 -4.778 
3.18898 -0.656346 -4.661 
3.09555 -0.633252 -4.497 
3.00768 -0.611566 -4.343 
2.8498 -0.57256 -4.066 
2.74974 -0.549185 -3.9 
2.68375 -0.53285 -3.784 
2.59682 -0.512572 -3.64 
2.56322 -0.502997 -3.572 
2.55432 -0.49835 -3.539 
2.56909 -0.49835 -3.539 
2.58387 -0.49835 -3.539 
2.62288 -0.502997 -3.572 
2.63779 -0.502997 -3.572 
2.65271 -0.502997 -3.572 
2.66762 -0.502997 -3.572 
2.7336 -0.512572 -3.64 
2.7488 -0.512572 -3.64 
2.79058 -0.517501 -3.675 
2.86089 -0.52764 -3.747 
2.93411 -0.538201 -3.822 
2.98018 -0.543693 -3.861 
3.02656 -0.549185 -3.9 
3.10604 -0.560591 -3.981 
3.15561 -0.566505 -4.023 
3.20632 -0.57256 -4.066 
3.22329 -0.57256 -4.066 
3.24027 -0.57256 -4.066 
3.18915 -0.560591 -3.981 
3.20578 -0.560591 -3.981 
3.18921 -0.554817 -3.94 
3.14139 -0.543693 -3.861 
3.12561 -0.538201 -3.822 
3.11034 -0.53285 -3.784 
3.09557 -0.52764 -3.747 
3.08132 -0.52257 -3.711 
3.09682 -0.52257 -3.711 
3.11231 -0.52257 -3.711 
3.12781 -0.52257 -3.711 
3.1433 -0.52257 -3.711 
3.12815 -0.517501 -3.675 
3.11356 -0.512572 -3.64 
3.12876 -0.512572 -3.64 
3.11459 -0.507785 -3.606 
3.10014 -0.502997 -3.572 
3.08627 -0.49835 -3.539 
3.07213 -0.493703 -3.506 
3.03131 -0.484831 -3.443 
2.7819 -0.41724 -2.963 
2.79427 -0.41724 -2.963 
2.78486 -0.414001 -2.94 
2.79714 -0.414001 -2.94 
2.78839 -0.410903 -2.918 
2.80057 -0.410903 -2.918 
2.81276 -0.410903 -2.918 
2.82494 -0.410903 -2.918 
2.81476 -0.407664 -2.895 
2.82685 -0.407664 -2.895 
2.83894 -0.407664 -2.895 
2.85102 -0.407664 -2.895 
-1.49089 -0.229957 -1.586 
-1.48427 -0.229957 -1.586 
-1.47764 -0.229957 -1.586 
-1.47102 -0.229957 -1.586 
-1.4644 -0.229957 -1.586 
-1.46421 -0.230972 -1.593 
-1.45756 -0.230972 -1.593 
-1.45637 -0.231842 -1.599 
-1.45604 -0.232857 -1.606 
-1.44934 -0.232857 -1.606 
-1.44892 -0.233872 -1.613 
-1.44844 -0.234887 -1.62 
-1.44168 -0.234887 -1.62 
-1.44023 -0.235757 -1.626 
-1.43961 -0.236772 -1.633 
-1.43894 -0.237787 -1.64 
-1.4382 -0.238802 -1.647 
-1.44436 -0.240977 -1.662 
-1.43742 -0.240977 -1.662 
-1.44253 -0.243006 -1.676 
-1.44239 -0.244166 -1.684 
-1.44132 -0.245181 -1.691 
-1.44105 -0.246341 -1.699 
-1.43986 -0.247356 -1.706 
-1.43274 -0.247356 -1.706 
-1.42561 -0.247356 -1.706 
-1.42514 -0.248516 -1.714 
-1.4246 -0.249676 -1.722 
-1.41741 -0.249676 -1.722 
-1.41596 -0.250691 -1.729 
-1.40874 -0.250691 -1.729 
-1.408 -0.251851 -1.737 
-1.40075 -0.251851 -1.737 
-1.39992 -0.253011 -1.745 
-1.39263 -0.253011 -1.745 
-1.39169 -0.254171 -1.753 
-1.39069 -0.255331 -1.761 
-1.38334 -0.255331 -1.761 
-1.38224 -0.256491 -1.769 
-1.38185 -0.257796 -1.778 
-1.38061 -0.258956 -1.786 
-1.37315 -0.258956 -1.786 
-1.36569 -0.258956 -1.786 
-1.36432 -0.260116 -1.794 
-1.36364 -0.26142 -1.803 
-1.36212 -0.26258 -1.811 
-1.36129 -0.263885 -1.82 
-1.36039 -0.26519 -1.829 
-1.35941 -0.266495 -1.838 
-1.35762 -0.267655 -1.846 
-1.36307 -0.270265 -1.864 
-1.36256 -0.271715 -1.874 
-1.36124 -0.27302 -1.883 
-1.35985 -0.274325 -1.892 
-1.3591 -0.275775 -1.902 
-1.35755 -0.27708 -1.911 
-1.35663 -0.27853 -1.921 
-1.35493 -0.279834 -1.93 
-1.35385 -0.281284 -1.94 
-1.35268 -0.282734 -1.95 
-1.35144 -0.284184 -1.96 
-1.34325 -0.284184 -1.96 
-1.34188 -0.285634 -1.97 
-1.34043 -0.287084 -1.98 
-1.33956 -0.288679 -1.991 
-1.33793 -0.290129 -2.001 
-1.33689 -0.291724 -2.012 
-1.33509 -0.293174 -2.022 
-1.33386 -0.294769 -2.033 
-1.32538 -0.294769 -2.033 
-1.32401 -0.296364 -2.044 
-1.32256 -0.297958 -2.055 
-1.32101 -0.299553 -2.066 
-1.31937 -0.301148 -2.077 
-1.31827 -0.302888 -2.089 
-1.30955 -0.302888 -2.089 
-1.30768 -0.304483 -2.1 
-1.30633 -0.306223 -2.112 
-1.30427 -0.307818 -2.123 
-1.29541 -0.307818 -2.123 
-1.29381 -0.309558 -2.135 
-1.29212 -0.311298 -2.147 
-1.29033 -0.313038 -2.159 
-1.28903 -0.314923 -2.172 
-1.28703 -0.316662 -2.184 
-1.28552 -0.318547 -2.197 
-1.29087 -0.322172 -2.222 
-1.29659 -0.325942 -2.248 
-1.29522 -0.327972 -2.262 
-1.30112 -0.331887 -2.289 
-1.3068 -0.335801 -2.316 
-1.30553 -0.337976 -2.331 
-1.31136 -0.342036 -2.359 
-1.30979 -0.344211 -2.374 
-1.30809 -0.346386 -2.389 
-1.30626 -0.348561 -2.404 
-1.30432 -0.350736 -2.419 
-1.29422 -0.350736 -2.419 
-1.29208 -0.35291 -2.434 
-1.28191 -0.35291 -2.434 
-1.28011 -0.35523 -2.45 
-1.27818 -0.35755 -2.466 
-1.26788 -0.35755 -2.466 
-1.25758 -0.35755 -2.466 
-1.25538 -0.35987 -2.482 
-1.24502 -0.35987 -2.482 
-1.24261 -0.36219 -2.498 
-1.23218 -0.36219 -2.498 
-1.23007 -0.364655 -2.515 
-1.21956 -0.364655 -2.515 
-1.21676 -0.366975 -2.531 
-1.21429 -0.369439 -2.548 
-1.21168 -0.371904 -2.565 
-1.20893 -0.374369 -2.582 
-1.2065 -0.376979 -2.6 
-1.20392 -0.379589 -2.618 
-1.2012 -0.382199 -2.636 
-1.19832 -0.384809 -2.654 
-1.18724 -0.384809 -2.654 
-1.18457 -0.387563 -2.673 
-1.18175 -0.390318 -2.692 
-1.17878 -0.393073 -2.711 
-1.17564 -0.395828 -2.73 
-1.17277 -0.398728 -2.75 
-1.16973 -0.401628 -2.77 
-1.16653 -0.404528 -2.79 
-1.16316 -0.407427 -2.81 
-1.16003 -0.410472 -2.831 
-1.15673 -0.413517 -2.852 
-1.15365 -0.416707 -2.874 
-1.14999 -0.419752 -2.895 
-1.14694 -0.423086 -2.918 
-1.14332 -0.426276 -2.94 
-1.13989 -0.429611 -2.963 
-1.13627 -0.432946 -2.986 
-1.1238 -0.432946 -2.986 
-1.11989 -0.436281 -3.009 
-1.11616 -0.439761 -3.033 
-1.1035 -0.439761 -3.033 
-1.09084 -0.439761 -3.033 
-1.08706 -0.443385 -3.058 
-1.08272 -0.446865 -3.082 
-1.06985 -0.446865 -3.082 
-1.05699 -0.446865 -3.082 
-1.05259 -0.45049 -3.107 
-1.03961 -0.45049 -3.107 
-1.01838 -0.446865 -3.082 
-1.00551 -0.446865 -3.082 
-0.984913 -0.443385 -3.058 
-0.964197 -0.439761 -3.033 
-0.936788 -0.432946 -2.986 
-0.910081 -0.426276 -2.94 
-0.877651 -0.416707 -2.874 
-0.852699 -0.410472 -2.831 
-0.81682 -0.398728 -2.75 
-0.788352 -0.390318 -2.692 
-0.766142 -0.384809 -2.654 
-0.739698 -0.376979 -2.6 
-0.719031 -0.371904 -2.565 
-0.694514 -0.364655 -2.515 
-0.679389 -0.36219 -2.498 
-0.664674 -0.35987 -2.482 
-0.650093 -0.35755 -2.466 
-0.639797 -0.35755 -2.466 
-0.6295 -0.35755 -2.466 
-0.619204 -0.35755 -2.466 
-0.608907 -0.35755 -2.466 
-0.598611 -0.35755 -2.466 
-0.588314 -0.35755 -2.466 
-0.578018 -0.35755 -2.466 
-0.567722 -0.35755 -2.466 
-0.553808 -0.35523 -2.45 
-0.540029 -0.35291 -2.434 
-0.529866 -0.35291 -2.434 
-0.5165 -0.350736 -2.419 
-0.5064 -0.350736 -2.419 
-0.4963 -0.350736 -2.419 
-0.483185 -0.348561 -2.404 
-0.473147 -0.348561 -2.404 
-0.46022 -0.346386 -2.389 
-0.450245 -0.346386 -2.389 
-0.437506 -0.344211 -2.374 
-0.427594 -0.344211 -2.374 
-0.415042 -0.342036 -2.359 
-0.405193 -0.342036 -2.359 
-0.395343 -0.342036 -2.359 
-0.385493 -0.342036 -2.359 
-0.375644 -0.342036 -2.359 
-0.365794 -0.342036 -2.359 
-0.355944 -0.342036 -2.359 
-0.344041 -0.340006 -2.345 
-0.334249 -0.340006 -2.345 
-0.324458 -0.340006 -2.345 
-0.314667 -0.340006 -2.345 
-0.304876 -0.340006 -2.345 
-0.295085 -0.340006 -2.345 
-0.286997 -0.342036 -2.359 
-0.277147 -0.342036 -2.359 
-0.267297 -0.342036 -2.359 
-0.260722 -0.346386 -2.389 
-0.250747 -0.346386 -2.389 
-0.242284 -0.348561 -2.404 
-0.23669 -0.35523 -2.45 
-0.230897 -0.36219 -2.498 
-0.22638 -0.371904 -2.565 
-0.220127 -0.379589 -2.618 
-0.215109 -0.390318 -2.692 
-0.209776 -0.401628 -2.77 
-0.202575 -0.410472 -2.831 
-0.196617 -0.423086 -2.918 
-0.188731 -0.432946 -2.986 
-0.177621 -0.436281 -3.009 
-0.166374 -0.439761 -3.033 
-0.15371 -0.439761 -3.033 
-0.141046 -0.439761 -3.033 
-0.129441 -0.443385 -3.058 
-0.116672 -0.443385 -3.058 
-0.103055 -0.439761 -3.033 
-0.0903908 -0.439761 -3.033 
-0.0771119 -0.436281 -3.009 
-0.0640548 -0.432946 -2.986 
-0.0511899 -0.429611 -2.963 
-0.0385169 -0.426276 -2.94 
-0.0262414 -0.426276 -2.94 
-0.0138613 -0.423086 -2.918 
-0.00167764 -0.423086 -2.918 
0.0103476 -0.416707 -2.874 
0.0223476 -0.416707 -2.874 
0.0343476 -0.416707 -2.874 
0.0466862 -0.419752 -2.895 
0.0587739 -0.419752 -2.895 
0.0708616 -0.419752 -2.895 
0.0829492 -0.419752 -2.895 
0.0950369 -0.419752 -2.895 
0.107976 -0.423086 -2.918 
0.120159 -0.423086 -2.918 
0.132343 -0.423086 -2.918 
0.144527 -0.423086 -2.918 
0.157892 -0.426276 -2.94 
0.171499 -0.429611 -2.963 
0.18387 -0.429611 -2.963 
0.196242 -0.429611 -2.963 
0.210233 -0.432946 -2.986 
0.2227 -0.432946 -2.986 
0.235168 -0.432946 -2.986 
0.247636 -0.432946 -2.986 
0.260103 -0.432946 -2.986 
0.272571 -0.432946 -2.986 
0.285039 -0.432946 -2.986 
0.297506 -0.432946 -2.986 
0.309974 -0.432946 -2.986 
0.322441 -0.432946 -2.986 
0.334909 -0.432946 -2.986 
0.347377 -0.432946 -2.986 
0.359844 -0.432946 -2.986 
0.372312 -0.432946 -2.986 
0.381816 -0.429611 -2.963 
0.394187 -0.429611 -2.963 
0.406559 -0.429611 -2.963 
0.41893 -0.429611 -2.963 
0.431302 -0.429611 -2.963 
0.443674 -0.429611 -2.963 
0.456045 -0.429611 -2.963 
0.472053 -0.432946 -2.986 
0.488252 -0.436281 -3.009 
0.500816 -0.436281 -3.009 
0.52174 -0.443385 -3.058 
0.543073 -0.45049 -3.107 
0.570005 -0.461799 -3.185 
0.598321 -0.473689 -3.267 
0.63931 -0.494857 -3.413 
0.677689 -0.513126 -3.539 
0.72612 -0.538065 -3.711 
0.779385 -0.565469 -3.9 
0.847489 -0.602297 -4.154 
0.92521 -0.644344 -4.444 
1.00217 -0.684217 -4.719 
1.089 -0.729164 -5.029 
1.17158 -0.769617 -5.308 
1.26413 -0.815 -5.621 
1.368 -0.865892 -5.972 
1.48577 -0.923599 -6.37 
1.5919 -0.972171 -6.705 
1.71002 -1.02625 -7.078 
1.80642 -1.06569 -7.35 
1.91059 -1.10832 -7.644 
2.02357 -1.15457 -7.963 
2.14619 -1.20474 -8.309 
2.22918 -1.23142 -8.493 
2.4265 -1.31943 -9.1 
2.52462 -1.35161 -9.322 
2.62761 -1.3854 -9.555 
2.73591 -1.42092 -9.8 
2.7074 -1.3854 -9.555 
2.55552 -1.28869 -8.888 
2.47741 -1.23142 -8.493 
2.35606 -1.15457 -7.963 
2.24858 -1.08657 -7.494 
2.07634 -0.98957 -6.825 
1.93244 -0.90852 -6.266 
1.81013 -0.839648 -5.791 
1.72947 -0.791656 -5.46 
1.70348 -0.769617 -5.308 
1.75003 -0.780492 -5.383 
1.82387 -0.80311 -5.539 
1.90235 -0.827179 -5.705 
2.21421 -0.939258 -6.478 
2.44884 -1.02625 -7.078 
2.78829 -1.15457 -7.963 
3.07771 -1.2594 -8.686 
3.2624 -1.31943 -9.1 
3.38091 -1.35161 -9.322 
3.59519 -1.42092 -9.8 
3.63611 -1.42092 -9.8 
3.77383 -1.45833 -10.058 
3.81583 -1.45833 -10.058 
3.85783 -1.45833 -10.058 
3.89982 -1.45833 -10.058 
4.04842 -1.49777 -10.33 
4.09155 -1.49777 -10.33 
4.24955 -1.53938 -10.617 
4.41643 -1.58331 -10.92 
4.46202 -1.58331 -10.92 
4.64012 -1.62985 -11.241 
4.68706 -1.62985 -11.241 
4.8776 -1.6793 -11.582 
4.92596 -1.6793 -11.582 
4.97432 -1.6793 -11.582 
5.02268 -1.6793 -11.582 
5.07104 -1.6793 -11.582 
5.11939 -1.6793 -11.582 
5.16775 -1.6793 -11.582 
5.21611 -1.6793 -11.582 
5.26447 -1.6793 -11.582 
5.31283 -1.6793 -11.582 
5.36119 -1.6793 -11.582 
5.40955 -1.6793 -11.582 
5.29721 -1.62985 -11.241 
5.34415 -1.62985 -11.241 
5.39108 -1.62985 -11.241 
5.43802 -1.62985 -11.241 
5.48496 -1.62985 -11.241 
5.53189 -1.62985 -11.241 
5.41952 -1.58331 -10.92 
5.46511 -1.58331 -10.92 
5.5107 -1.58331 -10.92 
5.5563 -1.58331 -10.92 
5.44646 -1.53938 -10.617 
5.49079 -1.53938 -10.617 
5.38549 -1.49777 -10.33 
5.42862 -1.49777 -10.33 
5.32768 -1.45833 -10.058 
5.36967 -1.45833 -10.058 
5.27285 -1.42092 -9.8 
5.18093 -1.3854 -9.555 
5.09351 -1.35161 -9.322 
5.13243 -1.35161 -9.322 
5.0482 -1.31943 -9.1 
4.96771 -1.28869 -8.888 
4.78239 -1.23142 -8.493 
4.61307 -1.17907 -8.132 
4.4573 -1.13094 -7.8 
4.31373 -1.08657 -7.494 
4.18094 -1.04554 -7.211 
3.98563 -0.98957 -6.825 
3.87591 -0.955497 -6.59 
3.77312 -0.923599 -6.37 
3.67743 -0.893875 -6.165 
3.70317 -0.893875 -6.165 
3.66964 -0.879666 -6.067 
3.63711 -0.865892 -5.972 
3.55106 -0.839648 -5.791 
3.52214 -0.827179 -5.705 
3.54596 -0.827179 -5.705 
3.46591 -0.80311 -5.539 
3.43928 -0.791656 -5.46 
3.41325 -0.780492 -5.383 
3.38786 -0.769617 -5.308 
3.36376 -0.759178 -5.236 
3.33972 -0.748883 -5.165 
3.36128 -0.748883 -5.165 
3.29378 -0.729164 -5.029 
3.27193 -0.71974 -4.964 
3.2502 -0.71046 -4.9 
3.22928 -0.701471 -4.838 
3.20918 -0.692771 -4.778 
3.26968 -0.701471 -4.838 
3.20896 -0.684217 -4.719 
3.18898 -0.675807 -4.661 
3.05907 -0.644344 -4.444 
2.97374 -0.622595 -4.294 
2.81966 -0.583303 -4.023 
2.69474 -0.554159 -3.822 
2.63197 -0.538065 -3.711 
2.54831 -0.517911 -3.572 
2.49361 -0.503847 -3.475 
2.50812 -0.503847 -3.475 
2.52263 -0.503847 -3.475 
2.51378 -0.499207 -3.443 
2.55165 -0.503847 -3.475 
2.56616 -0.503847 -3.475 
2.60369 -0.508342 -3.506 
2.61833 -0.508342 -3.506 
2.65775 -0.513126 -3.539 
2.72312 -0.522841 -3.606 
2.73818 -0.522841 -3.606 
2.7792 -0.527771 -3.64 
2.82126 -0.532845 -3.675 
2.89218 -0.543285 -3.747 
2.93654 -0.548649 -3.784 
2.98199 -0.554159 -3.822 
3.02854 -0.559814 -3.861 
3.07541 -0.565469 -3.9 
3.0917 -0.565469 -3.9 
3.0769 -0.559814 -3.861 
3.09302 -0.559814 -3.861 
3.10914 -0.559814 -3.861 
3.0937 -0.554159 -3.822 
3.07874 -0.548649 -3.784 
3.06428 -0.543285 -3.747 
3.05033 -0.538065 -3.711 
3.03609 -0.532845 -3.675 
3.05143 -0.532845 -3.675 
3.06678 -0.532845 -3.675 
3.08212 -0.532845 -3.675 
3.09746 -0.532845 -3.675 
3.08316 -0.527771 -3.64 
3.09836 -0.527771 -3.64 
3.11356 -0.527771 -3.64 
3.09953 -0.522841 -3.606 
3.08522 -0.517911 -3.572 
3.10014 -0.517911 -3.572 
3.08627 -0.513126 -3.539 
2.8035 -0.432946 -2.986 
2.79427 -0.429611 -2.963 
2.78486 -0.426276 -2.94 
2.81902 -0.429611 -2.963 
2.80941 -0.426276 -2.94 
2.82169 -0.426276 -2.94 
2.81276 -0.423086 -2.918 
2.82494 -0.423086 -2.918 
2.83712 -0.423086 -2.918 
2.84931 -0.423086 -2.918 
2.86149 -0.423086 -2.918 
2.87367 -0.423086 -2.918 
-1.49089 -0.236579 -1.586 
-1.48427 -0.236579 -1.586 
-1.47764 -0.236579 -1.586 
-1.47751 -0.237623 -1.593 
-1.47086 -0.237623 -1.593 
-1.46421 -0.237623 -1.593 
-1.46305 -0.238519 -1.599 
-1.45637 -0.238519 -1.599 
-1.45604 -0.239563 -1.606 
-1.45566 -0.240607 -1.613 
-1.44892 -0.240607 -1.613 
-1.44844 -0.241651 -1.62 
-1.44168 -0.241651 -1.62 
-1.44023 -0.242546 -1.626 
-1.43961 -0.24359 -1.633 
-1.44508 -0.245679 -1.647 
-1.44519 -0.246872 -1.655 
-1.44436 -0.247916 -1.662 
-1.43742 -0.247916 -1.662 
-1.43651 -0.24896 -1.669 
-1.43553 -0.250004 -1.676 
-1.43535 -0.251198 -1.684 
-1.43426 -0.252242 -1.691 
-1.43395 -0.253435 -1.699 
-1.43274 -0.254479 -1.706 
-1.42561 -0.254479 -1.706 
-1.42514 -0.255673 -1.714 
-1.4246 -0.256866 -1.722 
-1.41741 -0.256866 -1.722 
-1.41596 -0.25791 -1.729 
-1.40874 -0.25791 -1.729 
-1.408 -0.259104 -1.737 
-1.4072 -0.260297 -1.745 
-1.39992 -0.260297 -1.745 
-1.39901 -0.26149 -1.753 
-1.39169 -0.26149 -1.753 
-1.39069 -0.262684 -1.761 
-1.38962 -0.263877 -1.769 
-1.38224 -0.263877 -1.769 
-1.38185 -0.265219 -1.778 
-1.38061 -0.266413 -1.786 
-1.37315 -0.266413 -1.786 
-1.37181 -0.267606 -1.794 
-1.36432 -0.267606 -1.794 
-1.36364 -0.268949 -1.803 
-1.36212 -0.270142 -1.811 
-1.36129 -0.271484 -1.82 
-1.36039 -0.272827 -1.829 
-1.35941 -0.274169 -1.838 
-1.35762 -0.275363 -1.846 
-1.35649 -0.276705 -1.855 
-1.36256 -0.279539 -1.874 
-1.36124 -0.280882 -1.883 
-1.35985 -0.282225 -1.892 
-1.3591 -0.283716 -1.902 
-1.35755 -0.285059 -1.911 
-1.35663 -0.28655 -1.921 
-1.35493 -0.287893 -1.93 
-1.35385 -0.289385 -1.94 
-1.35268 -0.290876 -1.95 
-1.35144 -0.292368 -1.96 
-1.34325 -0.292368 -1.96 
-1.34188 -0.29386 -1.97 
-1.34043 -0.295351 -1.98 
-1.33956 -0.296992 -1.991 
-1.33793 -0.298484 -2.001 
-1.33689 -0.300125 -2.012 
-1.33509 -0.301616 -2.022 
-1.33386 -0.303257 -2.033 
-1.33255 -0.304898 -2.044 
-1.32401 -0.304898 -2.044 
-1.32256 -0.306539 -2.055 
-1.32101 -0.30818 -2.066 
-1.31937 -0.30982 -2.077 
-1.31827 -0.31161 -2.089 
-1.31645 -0.313251 -2.1 
-1.30768 -0.313251 -2.1 
-1.30633 -0.315041 -2.112 
-1.30427 -0.316682 -2.123 
-1.30273 -0.318472 -2.135 
-1.29381 -0.318472 -2.135 
-1.29212 -0.320262 -2.147 
-1.29033 -0.322052 -2.159 
-1.28903 -0.323991 -2.172 
-1.28703 -0.325781 -2.184 
-1.28552 -0.327721 -2.197 
-1.29087 -0.33145 -2.222 
-1.29659 -0.335328 -2.248 
-1.29522 -0.337416 -2.262 
-1.30112 -0.341444 -2.289 
-1.3068 -0.345471 -2.316 
-1.30553 -0.347709 -2.331 
-1.31136 -0.351886 -2.359 
-1.30979 -0.354123 -2.374 
-1.30809 -0.356361 -2.389 
-1.29811 -0.356361 -2.389 
-1.29623 -0.358598 -2.404 
-1.29422 -0.360836 -2.419 
-1.28411 -0.360836 -2.419 
-1.28191 -0.363073 -2.434 
-1.28011 -0.36546 -2.45 
-1.27818 -0.367847 -2.466 
-1.26788 -0.367847 -2.466 
-1.25758 -0.367847 -2.466 
-1.25538 -0.370233 -2.482 
-1.25304 -0.37262 -2.498 
-1.24261 -0.37262 -2.498 
-1.23218 -0.37262 -2.498 
-1.23007 -0.375156 -2.515 
-1.22732 -0.377542 -2.531 
-1.22493 -0.380078 -2.548 
-1.22239 -0.382614 -2.565 
-1.21168 -0.382614 -2.565 
-1.20893 -0.38515 -2.582 
-1.2065 -0.387835 -2.6 
-1.20392 -0.39052 -2.618 
-1.2012 -0.393205 -2.636 
-1.19832 -0.39589 -2.654 
-1.19573 -0.398724 -2.673 
-1.19299 -0.401558 -2.692 
-1.18175 -0.401558 -2.692 
-1.17878 -0.404393 -2.711 
-1.17564 -0.407227 -2.73 
-1.17277 -0.41021 -2.75 
-1.16973 -0.413193 -2.77 
-1.16653 -0.416177 -2.79 
-1.16316 -0.41916 -2.81 
-1.16003 -0.422293 -2.831 
-1.15673 -0.425425 -2.852 
-1.15365 -0.428707 -2.874 
-1.14999 -0.431839 -2.895 
-1.14694 -0.43527 -2.918 
-1.14332 -0.438552 -2.94 
-1.13989 -0.441983 -2.963 
-1.13627 -0.445414 -2.986 
-1.1238 -0.445414 -2.986 
-1.11989 -0.448844 -3.009 
-1.11616 -0.452424 -3.033 
-1.1035 -0.452424 -3.033 
-1.09084 -0.452424 -3.033 
-1.08706 -0.456154 -3.058 
-1.07429 -0.456154 -3.058 
-1.06985 -0.459734 -3.082 
-1.05699 -0.459734 -3.082 
-1.04412 -0.459734 -3.082 
-1.03125 -0.459734 -3.082 
-1.01838 -0.459734 -3.082 
-0.997681 -0.456154 -3.058 
-0.976861 -0.452424 -3.033 
-0.956567 -0.448844 -3.009 
-0.929572 -0.441983 -2.963 
-0.896151 -0.431839 -2.895 
-0.86452 -0.422293 -2.831 
-0.828302 -0.41021 -2.75 
-0.799592 -0.401558 -2.692 
-0.766681 -0.39052 -2.618 
-0.735543 -0.380078 -2.548 
-0.710679 -0.37262 -2.498 
-0.691279 -0.367847 -2.466 
-0.668003 -0.360836 -2.419 
-0.649744 -0.356361 -2.389 
-0.635752 -0.354123 -2.374 
-0.62584 -0.354123 -2.374 
-0.615927 -0.354123 -2.374 
-0.606015 -0.354123 -2.374 
-0.592336 -0.351886 -2.359 
-0.582487 -0.351886 -2.359 
-0.576278 -0.354123 -2.374 
-0.566366 -0.354123 -2.374 
-0.552938 -0.351886 -2.359 
-0.543088 -0.351886 -2.359 
-0.533238 -0.351886 -2.359 
-0.520283 -0.349797 -2.345 
-0.510491 -0.349797 -2.345 
-0.497711 -0.347709 -2.331 
-0.484838 -0.345471 -2.316 
-0.475168 -0.345471 -2.316 
-0.465498 -0.345471 -2.316 
-0.453072 -0.343383 -2.302 
-0.440956 -0.341444 -2.289 
-0.431399 -0.341444 -2.289 
-0.421841 -0.341444 -2.289 
-0.412284 -0.341444 -2.289 
-0.402727 -0.341444 -2.289 
-0.395402 -0.343383 -2.302 
-0.38579 -0.343383 -2.302 
-0.376179 -0.343383 -2.302 
-0.364497 -0.341444 -2.289 
-0.35494 -0.341444 -2.289 
-0.345382 -0.341444 -2.289 
-0.335825 -0.341444 -2.289 
-0.326267 -0.341444 -2.289 
-0.31671 -0.341444 -2.289 
-0.307153 -0.341444 -2.289 
-0.295775 -0.339356 -2.275 
-0.286276 -0.339356 -2.275 
-0.27848 -0.341444 -2.289 
-0.268923 -0.341444 -2.289 
-0.259366 -0.341444 -2.289 
-0.251227 -0.343383 -2.302 
-0.241615 -0.343383 -2.302 
-0.233415 -0.345471 -2.316 
-0.229348 -0.354123 -2.374 
-0.223595 -0.360836 -2.419 
-0.219055 -0.370233 -2.482 
-0.215671 -0.382614 -2.565 
-0.210634 -0.393205 -2.636 
-0.206747 -0.407227 -2.73 
-0.202575 -0.422293 -2.831 
-0.195067 -0.431839 -2.895 
-0.188731 -0.445414 -2.986 
-0.177621 -0.448844 -3.009 
-0.167745 -0.456154 -3.058 
-0.156193 -0.459734 -3.082 
-0.143325 -0.459734 -3.082 
-0.129441 -0.456154 -3.058 
-0.117588 -0.459734 -3.082 
-0.10472 -0.459734 -3.082 
-0.0911358 -0.456154 -3.058 
-0.0783676 -0.456154 -3.058 
-0.0645482 -0.448844 -3.009 
-0.0515872 -0.445414 -2.986 
-0.0388183 -0.441983 -2.963 
-0.0264467 -0.441983 -2.963 
-0.0139658 -0.438552 -2.94 
-0.00167764 -0.43527 -2.918 
0.0104232 -0.431839 -2.895 
0.0223476 -0.428707 -2.874 
0.0343476 -0.428707 -2.874 
0.0463476 -0.428707 -2.874 
0.0583476 -0.428707 -2.874 
0.0703475 -0.428707 -2.874 
0.0823475 -0.428707 -2.874 
0.0950369 -0.431839 -2.895 
0.107125 -0.431839 -2.895 
0.119212 -0.431839 -2.895 
0.132343 -0.43527 -2.918 
0.144527 -0.43527 -2.918 
0.157892 -0.438552 -2.94 
0.170167 -0.438552 -2.94 
0.18387 -0.441983 -2.963 
0.196242 -0.441983 -2.963 
0.210233 -0.445414 -2.986 
0.2227 -0.445414 -2.986 
0.235168 -0.445414 -2.986 
0.247636 -0.445414 -2.986 
0.260103 -0.445414 -2.986 
0.272571 -0.445414 -2.986 
0.287234 -0.448844 -3.009 
0.299798 -0.448844 -3.009 
0.312361 -0.448844 -3.009 
0.324925 -0.448844 -3.009 
0.337489 -0.448844 -3.009 
0.347377 -0.445414 -2.986 
0.359844 -0.445414 -2.986 
0.372312 -0.445414 -2.986 
0.381816 -0.441983 -2.963 
0.394187 -0.441983 -2.963 
0.406559 -0.441983 -2.963 
0.41893 -0.441983 -2.963 
0.431302 -0.441983 -2.963 
0.443674 -0.441983 -2.963 
0.459585 -0.445414 -2.986 
0.475689 -0.448844 -3.009 
0.488252 -0.448844 -3.009 
0.504811 -0.452424 -3.033 
0.52174 -0.456154 -3.058 
0.547617 -0.467341 -3.133 
0.574837 -0.479125 -3.212 
0.603449 -0.491506 -3.295 
0.63931 -0.509108 -3.413 
0.677689 -0.527903 -3.539 
0.719076 -0.54819 -3.675 
0.779385 -0.581752 -3.9 
0.847489 -0.619641 -4.154 
0.914592 -0.655292 -4.393 
1.00217 -0.70392 -4.719 
1.089 -0.750162 -5.029 
1.18813 -0.802968 -5.383 
1.28302 -0.850999 -5.705 
1.368 -0.890827 -5.972 
1.46151 -0.934682 -6.266 
1.5919 -1.00017 -6.705 
1.67885 -1.03656 -6.949 
1.77226 -1.07565 -7.211 
1.91059 -1.14023 -7.644 
1.98215 -1.1635 -7.8 
2.10047 -1.21303 -8.132 
2.18088 -1.23943 -8.309 
2.36997 -1.3258 -8.888 
2.46449 -1.35742 -9.1 
2.56354 -1.39054 -9.322 
2.66751 -1.42529 -9.555 
2.64138 -1.39054 -9.322 
2.49744 -1.29567 -8.686 
2.42374 -1.23943 -8.309 
2.30783 -1.1635 -7.8 
2.20537 -1.09638 -7.35 
2.03984 -1.00017 -6.705 
1.9013 -0.919616 -6.165 
