ply
format ascii 1.0
comment pointcloud saved from Realsense Viewer
element vertex 1877
property float32 x
property float32 y
property float32 z
end_header
-1.39221 2.73000 0.70557 
-1.05656 3.01200 0.77846 
-0.99688 2.99800 0.77484 
-0.55051 2.08000 0.53758 
-0.47993 2.15300 0.55645 
-0.56581 2.73000 0.70557 
-0.61478 3.25300 0.84074 
-0.57303 3.30600 0.85444 
-0.50590 3.43600 0.88804 
-0.48708 3.49400 0.90303 
-0.30207 3.68400 0.95214 
-0.07265 3.75200 0.96971 
-0.00414 3.77500 0.97566 
0.04568 3.82200 0.98780 
0.29236 3.92000 1.01313 
0.31481 3.94500 1.01959 
0.50159 4.21700 1.08989 
0.62214 4.36800 1.12892 
0.64951 4.39900 1.13693 
1.05219 4.13200 1.06792 
1.24135 3.94500 1.01959 
1.24946 3.45500 0.89295 
1.23476 3.34200 0.86375 
1.29525 3.25300 0.84074 
1.33493 3.28800 0.84979 
1.50012 3.21900 0.83196 
1.52562 3.20200 0.82756 
1.57643 3.07300 0.79422 
2.06775 3.25300 0.84074 
2.17360 3.32400 0.85909 
2.35444 3.43600 0.88804 
2.59968 3.57600 0.92422 
2.99894 3.79800 0.98160 
-1.83810 2.41700 0.61837 
-1.76733 2.39800 0.61351 
-1.75803 2.44600 0.62579 
-1.70696 2.44600 0.62579 
-1.51567 2.64700 0.67721 
-1.45916 2.67000 0.68310 
-1.44472 2.68200 0.68617 
-1.31962 2.74200 0.70152 
-1.30602 2.80500 0.71764 
-1.24425 2.83100 0.72429 
-0.51415 2.10900 0.53957 
-0.48217 2.13800 0.54699 
-0.47608 2.16100 0.55287 
-0.56183 3.34200 0.85502 
-0.49968 3.45500 0.88394 
-0.41453 3.57600 0.91489 
-0.38173 3.61900 0.92589 
-0.27323 3.68400 0.94252 
-0.05307 3.75200 0.95992 
0.07655 3.87000 0.99011 
0.09800 3.92000 1.00290 
0.16145 3.97100 1.01595 
0.22216 3.94500 1.00930 
0.24121 3.92000 1.00290 
0.35025 3.99700 1.02260 
0.38918 4.07700 1.04307 
0.79288 4.63300 1.18532 
0.91851 4.36800 1.11752 
1.05932 4.16000 1.06430 
1.25669 3.47500 0.88905 
1.25847 3.45500 0.88394 
1.25281 3.25300 0.83225 
1.40263 3.30600 0.84581 
1.43204 3.23600 0.82791 
1.46713 3.20200 0.81921 
1.57576 3.20200 0.81921 
1.57672 3.05800 0.78237 
1.67334 3.10400 0.79413 
1.76687 3.18500 0.81486 
1.82153 3.13600 0.80232 
2.06149 3.27000 0.83660 
2.33182 3.41600 0.87396 
2.54731 3.55500 0.90952 
2.83742 3.72900 0.95404 
3.19757 3.92000 1.00290 
3.31309 4.02300 1.02925 
-1.67176 2.54800 0.64524 
-1.63250 2.60200 0.65891 
-1.53639 2.64700 0.67031 
-1.38340 2.75500 0.69766 
-1.31615 2.78000 0.70399 
-1.29597 2.83100 0.71690 
-1.27380 2.83100 0.71690 
-1.24254 2.84400 0.72019 
-1.05165 2.99800 0.75919 
-0.63281 2.13800 0.54141 
-0.54328 2.09400 0.53027 
-0.63506 3.27000 0.82807 
-0.50590 3.43600 0.87011 
-0.40282 3.55500 0.90024 
-0.32893 3.66200 0.92734 
0.05635 3.87000 0.98001 
0.31689 3.97100 1.00559 
0.64951 4.39900 1.11397 
0.79888 4.59800 1.16436 
0.82871 4.56400 1.15575 
1.08742 4.02300 1.01876 
1.42073 3.28800 0.83263 
1.43108 3.25300 0.82377 
1.44049 3.23600 0.81946 
1.46765 3.18500 0.80655 
1.57612 3.12000 0.79009 
1.67334 3.10400 0.78603 
1.76424 3.13600 0.79414 
1.92854 3.21900 0.81516 
1.96214 3.21900 0.81516 
2.04443 3.27000 0.82807 
2.92168 3.77500 0.95595 
2.99795 3.82200 0.96786 
3.27081 3.99700 1.01217 
-1.87595 2.41700 0.60576 
-1.76872 2.41700 0.60576 
-1.56417 2.65900 0.66641 
-1.54336 2.65900 0.66641 
-1.52254 2.65900 0.66641 
-1.42941 2.70600 0.67819 
-1.41447 2.71800 0.68119 
-1.40496 2.75500 0.69047 
-1.40386 2.76700 0.69347 
-1.27380 2.83100 0.70951 
-1.12494 2.88500 0.72305 
-1.06729 2.99800 0.75137 
-1.05947 2.99800 0.75137 
-0.48615 2.13100 0.53408 
-0.55041 3.37900 0.84686 
-0.45973 3.49400 0.87568 
-0.18146 3.77500 0.94610 
-0.15283 3.79800 0.95187 
-0.05340 3.77500 0.94610 
0.15108 3.97100 0.99522 
0.16145 3.97100 0.99522 
0.20290 3.97100 0.99522 
0.27363 3.94500 0.98871 
0.63803 4.39900 1.10249 
0.69919 4.49700 1.12705 
0.81680 4.56400 1.14384 
0.85175 4.49700 1.12705 
0.90375 4.46400 1.11878 
0.93175 4.43100 1.11051 
0.96858 4.33700 1.08695 
1.20808 3.97100 0.99522 
1.25123 3.72900 0.93457 
1.55892 3.21900 0.80676 
1.56841 3.07300 0.77016 
1.94534 3.21900 0.80676 
1.97250 3.23600 0.81102 
2.53047 3.59700 0.90149 
-1.82783 2.37900 0.59002 
-1.67672 2.49600 0.61904 
-1.63258 2.61300 0.64806 
-1.37498 2.76700 0.68625 
-1.36776 2.76700 0.68625 
-1.06442 3.01200 0.74702 
-1.05392 3.02700 0.75074 
-0.60621 2.12300 0.52653 
-0.59869 2.11600 0.52480 
-0.57800 2.10100 0.52108 
-0.51757 2.12300 0.52653 
-0.51202 2.12300 0.52653 
-0.49171 2.13100 0.52852 
-0.60754 3.30600 0.81993 
-0.52078 3.41600 0.84721 
-0.38653 3.57600 0.88690 
-0.24438 3.68400 0.91368 
-0.16275 3.79800 0.94196 
-0.12310 3.79800 0.94196 
-0.08295 3.77500 0.93625 
0.01576 3.82200 0.94791 
0.02589 3.84600 0.95386 
0.57973 4.30700 1.06819 
0.62214 4.36800 1.08332 
0.73343 4.56400 1.13193 
0.78689 4.59800 1.14037 
0.91539 4.46400 1.10713 
1.11676 3.87000 0.95981 
1.29490 3.55500 0.88169 
1.29454 3.45500 0.85689 
1.35209 3.28800 0.81547 
1.41779 3.18500 0.78992 
1.47682 3.16900 0.78595 
1.56046 3.08900 0.76611 
1.59233 3.02700 0.75074 
1.77054 3.10400 0.76983 
1.82153 3.13600 0.77777 
1.95561 3.23600 0.80257 
1.98286 3.25300 0.80679 
2.22345 3.36000 0.83333 
2.48237 3.55500 0.88169 
2.50637 3.57600 0.88690 
2.57740 3.59700 0.89210 
3.39207 4.13200 1.02479 
-1.84025 2.37900 0.58382 
-1.76960 2.34300 0.57498 
-1.75185 2.35200 0.57719 
-1.76108 2.39800 0.58848 
-1.74023 2.46600 0.60517 
-1.67649 2.48600 0.61007 
-1.63912 2.59100 0.63584 
-1.58458 2.67000 0.65523 
-1.47310 2.67000 0.65523 
-1.47272 2.68200 0.65817 
-1.42156 2.71800 0.66701 
-1.29597 2.83100 0.69474 
-1.28858 2.83100 0.69474 
-1.22770 2.84400 0.69793 
-1.15348 2.84400 0.69793 
-1.11121 2.96900 0.72860 
-1.08014 3.01200 0.73916 
-1.05392 3.02700 0.74284 
-0.58348 2.10100 0.51559 
-0.50648 2.12300 0.52099 
-0.48059 2.13100 0.52296 
-0.47893 2.20000 0.53989 
-0.49066 3.45500 0.84787 
-0.26046 3.64000 0.89327 
-0.05372 3.79800 0.93204 
0.02605 3.87000 0.94971 
0.49058 4.21700 1.03487 
0.61074 4.36800 1.07192 
0.96644 4.43100 1.08739 
1.11586 4.05000 0.99389 
1.25589 3.57600 0.87756 
1.41126 3.30600 0.81131 
1.40864 3.20200 0.78578 
1.55871 3.23600 0.79413 
1.57560 3.23600 0.79413 
1.76198 3.08900 0.75805 
1.86550 3.16900 0.77768 
2.36341 3.43600 0.84321 
2.83926 3.70600 0.90947 
3.01677 3.84600 0.94382 
-1.76280 2.33400 0.56668 
-1.76971 2.42700 0.58926 
-1.77080 2.44600 0.59387 
-1.77240 2.46600 0.59873 
-1.61928 2.64700 0.64268 
-1.56371 2.68200 0.65117 
-1.52884 2.67000 0.64826 
-1.46572 2.68200 0.65117 
-1.41264 2.74200 0.66574 
-1.32066 2.80500 0.68104 
-1.24996 2.84400 0.69051 
-1.20543 2.84400 0.69051 
-1.11330 2.95400 0.71721 
-0.97796 3.01200 0.73130 
-0.96559 2.99800 0.72790 
-0.61175 2.12300 0.51545 
-0.57251 2.10100 0.51011 
-0.51757 2.12300 0.51545 
-0.47718 2.19200 0.53220 
-0.60754 3.30600 0.80268 
-0.52078 3.41600 0.82939 
-0.49968 3.45500 0.83885 
-0.36787 3.57600 0.86823 
-0.26996 3.64000 0.88377 
-0.25248 3.66200 0.88911 
-0.19994 3.75200 0.91096 
-0.17161 3.77500 0.91655 
-0.03390 3.79800 0.92213 
0.04625 3.87000 0.93961 
0.09800 3.92000 0.95175 
0.50516 4.24700 1.03115 
0.62214 4.36800 1.06053 
0.63803 4.39900 1.06805 
0.64951 4.39900 1.06805 
0.91539 4.46400 1.08383 
0.99830 4.36800 1.06053 
1.08175 4.33700 1.05300 
1.20808 3.97100 0.96414 
1.25394 3.92000 0.95175 
1.23937 3.75200 0.91096 
1.32924 3.47500 0.84371 
1.41132 3.15200 0.76529 
2.11007 3.30600 0.80268 
2.17360 3.32400 0.80705 
2.26248 3.37900 0.82040 
2.40837 3.47500 0.84371 
2.52108 3.59700 0.87333 
2.71594 3.61900 0.87867 
2.91367 3.75200 0.91096 
3.12531 3.94500 0.95782 
3.18737 3.99700 0.97045 
-1.73174 2.32500 0.55843 
-1.67769 2.51700 0.60454 
-1.67116 2.53700 0.60935 
-1.65940 2.59100 0.62232 
-1.57071 2.68200 0.64418 
-1.50771 2.68200 0.64418 
-1.27674 2.80500 0.67372 
-1.16443 2.87100 0.68957 
-1.13547 2.91200 0.69942 
-1.10641 2.99800 0.72007 
-1.05673 3.05800 0.73448 
-0.65212 2.18400 0.52456 
-0.62723 2.13800 0.51351 
-0.55334 3.39700 0.81591 
-0.45061 3.49400 0.83921 
-0.44149 3.49400 0.83921 
-0.18036 3.75200 0.90117 
0.10892 3.94500 0.94753 
0.25471 3.97100 0.95377 
0.29810 3.99700 0.96002 
0.40522 4.13200 0.99244 
0.73440 4.49700 1.08011 
0.79889 4.53000 1.08804 
0.95488 4.43100 1.06426 
1.00253 4.33700 1.04168 
1.11785 4.21700 1.01286 
1.10126 3.99700 0.96002 
1.13696 3.87000 0.92951 
1.41215 3.28800 0.78973 
1.54212 3.21900 0.77315 
1.58413 3.21900 0.77315 
1.64860 3.07300 0.73809 
1.75856 3.18500 0.76499 
1.76087 3.07300 0.73809 
1.82852 3.12000 0.74938 
2.64983 3.61900 0.86923 
2.66872 3.61900 0.86923 
3.03560 3.87000 0.92951 
3.31659 4.13200 0.99244 
3.53573 4.30700 1.03448 
-1.67036 2.50600 0.59536 
-1.65872 2.56900 0.61033 
-1.63929 2.60200 0.61817 
-1.61928 2.64700 0.62886 
-1.39833 2.74200 0.65143 
-1.27674 2.80500 0.66640 
-1.14513 2.89800 0.68849 
-0.60421 2.11600 0.50271 
-0.63355 3.21900 0.76475 
-0.41663 3.51500 0.83508 
-0.18036 3.75200 0.89138 
0.27544 3.97100 0.94341 
0.29810 3.99700 0.94959 
0.34203 4.02300 0.95576 
0.49058 4.21700 1.00185 
0.64951 4.39900 1.04509 
0.82254 4.53000 1.07622 
0.86982 4.53000 1.07622 
0.88045 4.46400 1.06054 
1.21545 3.89500 0.92535 
1.40671 3.23600 0.76879 
1.58434 3.04200 0.72270 
1.72389 3.15200 0.74884 
1.99574 3.21900 0.76475 
2.10171 3.25300 0.77283 
2.37238 3.43600 0.81631 
2.93153 3.77500 0.89685 
3.61441 4.30700 1.02324 
-1.79151 2.31600 0.54418 
-1.74785 2.48600 0.58412 
-1.56368 2.67000 0.62736 
-1.43073 2.68200 0.63018 
-1.39833 2.74200 0.64428 
-1.28540 2.79200 0.65602 
-1.10132 3.02700 0.71124 
-1.07269 3.05800 0.71852 
-0.99073 3.02700 0.71124 
-0.60985 3.05800 0.71852 
-0.63021 3.20200 0.75236 
-0.61157 3.23600 0.76035 
-0.51771 3.45500 0.81181 
-0.39828 3.51500 0.82590 
-0.08295 3.77500 0.88699 
0.01595 3.87000 0.90932 
0.10823 3.92000 0.92106 
0.12951 3.94500 0.92694 
0.54601 4.30700 1.01200 
0.72901 4.46400 1.04889 
0.73518 4.43100 1.04113 
0.87522 4.49700 1.05664 
0.93739 4.24700 0.99790 
0.95739 4.18900 0.98427 
1.03391 4.18900 0.98427 
1.34372 3.39700 0.79818 
1.39932 3.21900 0.75635 
1.40116 3.18500 0.74837 
1.64903 3.10400 0.72933 
1.76026 3.05800 0.71852 
2.05695 3.23600 0.76035 
2.33182 3.41600 0.80264 
2.82241 3.68400 0.86561 
-1.76732 2.48600 0.57764 
-1.68947 2.48600 0.57764 
-1.62662 2.65900 0.61783 
-1.61275 2.65900 0.61783 
-1.54974 2.67000 0.62039 
-1.17011 2.88500 0.67035 
-1.15270 2.89800 0.67337 
-1.13104 2.94000 0.68313 
-1.10922 3.02700 0.70334 
-1.09664 3.05800 0.71054 
-0.97796 3.01200 0.69986 
-0.63074 2.13100 0.49515 
-0.55780 2.08700 0.48493 
-0.53602 2.08700 0.48493 
-0.60835 3.21900 0.74795 
-0.56805 3.37900 0.78513 
-0.51164 3.47500 0.80744 
-0.50257 3.47500 0.80744 
-0.46885 3.49400 0.81185 
-0.34187 3.59700 0.83578 
-0.07310 3.77500 0.87714 
-0.05340 3.77500 0.87714 
0.24121 3.92000 0.91084 
0.64951 4.39900 1.02213 
0.70049 4.43100 1.02957 
0.80481 4.49700 1.04490 
0.83436 4.53000 1.05257 
0.84618 4.53000 1.05257 
0.91355 4.39900 1.02213 
0.93264 4.27600 0.99355 
1.08742 4.02300 0.93477 
1.09348 3.89500 0.90503 
1.34233 3.41600 0.79373 
1.33941 3.34200 0.77653 
1.37882 3.27000 0.75980 
1.39117 3.08900 0.71775 
1.70744 3.15200 0.73239 
2.13295 3.23600 0.75190 
2.33182 3.41600 0.79373 
2.61495 3.59700 0.83578 
2.71954 3.66200 0.85089 
3.31735 4.16000 0.96660 
-1.71542 2.48600 0.57115 
-1.67690 2.50600 0.57574 
-1.50172 2.65900 0.61090 
-1.42432 2.67000 0.61342 
-1.42373 2.68200 0.61618 
-1.40822 2.70600 0.62169 
-1.39058 2.75500 0.63295 
-1.24168 2.79200 0.64145 
-1.22028 2.84400 0.65340 
-1.12670 2.96900 0.68212 
-1.04875 3.05800 0.70256 
-0.54508 2.08000 0.47787 
-0.53422 2.08000 0.47787 
-0.47608 2.16100 0.49648 
-0.48708 3.49400 0.80273 
-0.38911 3.51500 0.80756 
-0.27323 3.68400 0.84639 
-0.15098 3.75200 0.86201 
0.06731 3.92000 0.90061 
0.12951 3.94500 0.90635 
0.60359 4.39900 1.01065 
0.61508 4.39900 1.01065 
0.76395 4.46400 1.02559 
1.07010 4.07700 0.93668 
1.08373 3.97100 0.91232 
1.11987 3.84600 0.88360 
1.12991 3.84600 0.88360 
1.33227 3.68400 0.84639 
1.33616 3.27000 0.75127 
1.39193 3.20200 0.73565 
1.38885 3.12000 0.71681 
1.39117 3.08900 0.70969 
1.40001 3.07300 0.70601 
1.40913 3.05800 0.70256 
1.48655 3.12000 0.71681 
1.86108 3.12000 0.71681 
2.28011 3.37900 0.77631 
2.34074 3.41600 0.78481 
2.67471 3.64000 0.83628 
2.76472 3.68400 0.84639 
2.79356 3.68400 0.84639 
-1.52414 2.02500 0.45995 
-1.67637 2.29900 0.52219 
-1.73700 2.40800 0.54694 
-1.74785 2.48600 0.56466 
-1.72839 2.48600 0.56466 
-1.64693 2.62500 0.59623 
-1.62619 2.64700 0.60123 
-1.51567 2.64700 0.60123 
-1.48091 2.65900 0.60396 
-1.38340 2.75500 0.62576 
-1.31454 2.79200 0.63417 
-1.18691 2.87100 0.65211 
-1.15270 2.89800 0.65824 
-1.11424 2.99800 0.68096 
-1.01151 3.04200 0.69095 
-0.59993 2.10100 0.47721 
-0.50708 2.08000 0.47244 
-0.50781 2.36100 0.53627 
-0.54607 2.60200 0.59101 
-0.61544 3.16900 0.71980 
-0.55923 3.37900 0.76749 
-0.50532 3.49400 0.79362 
-0.42326 3.49400 0.79362 
-0.18898 3.72900 0.84699 
0.25305 3.94500 0.89605 
0.28580 3.97100 0.90196 
0.37854 4.07700 0.92604 
0.67736 4.43100 1.00644 
0.83436 4.53000 1.02893 
0.91366 4.18900 0.95148 
1.04188 4.05000 0.91990 
1.05245 4.05000 0.91990 
1.20258 3.72900 0.84699 
1.26154 3.61900 0.82201 
1.29565 3.66200 0.83177 
1.30520 3.66200 0.83177 
1.34343 3.66200 0.83177 
1.34921 3.57600 0.81224 
1.35851 3.20200 0.72729 
1.40115 3.05800 0.69458 
1.44010 3.07300 0.69799 
1.61776 3.27000 0.74274 
1.65096 3.20200 0.72729 
1.90336 3.13600 0.71230 
2.08271 3.18500 0.72343 
2.25852 3.36000 0.76318 
2.30112 3.39700 0.77158 
2.64039 3.61900 0.82201 
2.79090 3.70600 0.84177 
-1.58115 2.15300 0.48341 
-1.75881 2.45600 0.55144 
-1.67292 2.59100 0.58175 
-1.58475 2.64700 0.59432 
-1.55752 2.63600 0.59185 
-1.41604 2.69400 0.60488 
-1.16258 2.88500 0.64776 
-1.07762 3.02700 0.67964 
-0.50538 2.07300 0.46544 
-0.58135 2.80500 0.62980 
-0.57849 3.28800 0.73824 
-0.57303 3.30600 0.74229 
-0.54753 3.41600 0.76698 
-0.35854 3.57600 0.80291 
-0.25551 3.70600 0.83210 
-0.18898 3.72900 0.83726 
-0.09224 3.75200 0.84243 
-0.03369 3.77500 0.84759 
0.53477 4.30700 0.96704 
0.89059 4.39900 0.98769 
0.90067 4.33700 0.97377 
0.94044 4.02300 0.90327 
1.05593 4.02300 0.90327 
1.13696 3.87000 0.86892 
1.18807 3.68400 0.82716 
1.32226 3.23600 0.72657 
1.75286 3.07300 0.68997 
1.76087 3.07300 0.68997 
2.06398 3.16900 0.71153 
2.18439 3.28800 0.73824 
2.20497 3.30600 0.74229 
2.23770 3.34200 0.75037 
2.41242 3.49400 0.78450 
2.56072 3.64000 0.81728 
2.77903 3.72900 0.83726 
3.11435 3.99700 0.89743 
3.46829 4.30700 0.96704 
-1.48810 2.01200 0.44650 
-1.76732 2.48600 0.55169 
-1.67969 2.59100 0.57499 
-1.50249 2.63600 0.58497 
-1.43826 2.67000 0.59252 
-1.41528 2.70600 0.60051 
-1.40737 2.71800 0.60317 
-1.31334 2.80500 0.62248 
-1.17011 2.88500 0.64023 
-1.09586 3.01200 0.66842 
-1.03812 3.02700 0.67174 
-0.53063 2.06600 0.45848 
-0.59503 2.87100 0.63712 
-0.59362 3.18500 0.70681 
-0.58623 3.23600 0.71812 
-0.57303 3.30600 0.73366 
-0.51444 3.49400 0.77538 
-0.33646 3.64000 0.80778 
-0.22650 3.70600 0.82243 
-0.05307 3.75200 0.83263 
0.35490 4.05000 0.89877 
0.58794 4.36800 0.96934 
0.59934 4.36800 0.96934 
0.91505 4.05000 0.89877 
0.99960 4.05000 0.89877 
1.14706 3.87000 0.85882 
1.16002 3.84600 0.85349 
1.23087 3.64000 0.80778 
1.25937 3.64000 0.80778 
1.32636 3.18500 0.70681 
1.65315 3.32400 0.73765 
1.68672 3.28800 0.72966 
1.72016 3.27000 0.72567 
1.87195 3.15200 0.69948 
1.90336 3.13600 0.69593 
1.93610 3.13600 0.69593 
2.08547 3.20200 0.71058 
2.15264 3.25300 0.72190 
2.30112 3.39700 0.75385 
2.39023 3.47500 0.77116 
2.76930 3.72900 0.82753 
2.90818 3.82200 0.84817 
2.97500 3.87000 0.85882 
-1.53782 2.09400 0.45923 
-1.76083 2.48600 0.54520 
-1.74186 2.49600 0.54739 
-1.71614 2.50600 0.54959 
-1.63310 2.64700 0.58051 
-1.57128 2.63600 0.57810 
-1.52362 2.62500 0.57568 
-1.44472 2.68200 0.58818 
-1.44416 2.69400 0.59082 
-1.37498 2.76700 0.60682 
-1.32798 2.80500 0.61516 
-1.12245 2.89800 0.63555 
-0.85552 2.79200 0.61231 
-0.58153 2.09400 0.45923 
-0.55406 2.07300 0.45463 
-0.48916 2.16900 0.47568 
-0.60933 2.94000 0.64477 
-0.62409 3.08900 0.67744 
-0.56748 3.32400 0.72898 
-0.54753 3.41600 0.74916 
-0.12979 3.70600 0.81275 
-0.05307 3.75200 0.82284 
-0.04355 3.77500 0.82789 
0.30004 4.02300 0.88228 
0.35726 4.07700 0.89412 
0.57654 4.36800 0.95794 
0.66580 4.43100 0.97175 
0.71205 4.43100 0.97175 
0.90711 4.36800 0.95794 
1.16275 3.82200 0.83819 
1.29565 3.66200 0.80311 
1.31476 3.66200 0.80311 
1.28848 3.23600 0.70968 
1.47218 3.07300 0.67393 
1.58405 3.23600 0.70968 
1.67870 3.30600 0.72503 
1.75429 3.27000 0.71714 
1.74484 3.07300 0.67393 
1.88017 3.15200 0.69126 
1.87881 3.13600 0.68775 
1.96065 3.13600 0.68775 
2.05778 3.18500 0.69850 
2.33182 3.41600 0.74916 
2.54595 3.61900 0.79368 
2.61771 3.64000 0.79828 
2.72321 3.70600 0.81275 
3.06301 3.97100 0.87087 
3.52641 4.33700 0.95114 
3.54904 4.33700 0.95114 
3.56089 4.21700 0.92482 
-1.39468 1.85300 0.40154 
-1.39435 1.85900 0.40284 
-1.70414 2.52700 0.54760 
-1.69836 2.54800 0.55215 
-1.63310 2.64700 0.57360 
-1.59856 2.64700 0.57360 
-1.46525 2.69400 0.58379 
-1.42156 2.71800 0.58899 
-1.33530 2.80500 0.60784 
-1.29268 2.79200 0.60502 
-1.26354 2.79200 0.60502 
-1.19440 2.87100 0.62214 
-1.19270 2.88500 0.62517 
-1.13247 2.88500 0.62517 
-1.12494 2.88500 0.62517 
-1.12245 2.89800 0.62799 
-1.11267 2.91200 0.63103 
-1.10275 2.92600 0.63406 
-1.05947 2.99800 0.64966 
-0.93740 2.98300 0.64641 
-0.56514 2.09400 0.45377 
-0.52337 2.08000 0.45073 
-0.34396 3.61900 0.78423 
-0.22650 3.70600 0.80308 
-0.01408 3.79800 0.82302 
0.46858 4.21700 0.91382 
0.58794 4.36800 0.94654 
0.61074 4.36800 0.94654 
0.90863 4.43100 0.96019 
1.10445 3.97100 0.86051 
1.18312 3.72900 0.80807 
1.25937 3.64000 0.78878 
1.26887 3.64000 0.78878 
1.77136 3.27000 0.70860 
1.75434 3.10400 0.67263 
1.90336 3.13600 0.67957 
1.92791 3.13600 0.67957 
1.96883 3.13600 0.67957 
2.06876 3.20200 0.69387 
2.70386 3.70600 0.80308 
3.56406 4.24700 0.92032 
-1.37679 1.84200 0.39435 
-1.38017 1.85300 0.39671 
-1.76732 2.48600 0.53222 
-1.69488 2.62500 0.56198 
-1.55712 2.64700 0.56669 
-1.34262 2.80500 0.60052 
-1.29268 2.79200 0.59774 
-1.24168 2.79200 0.59774 
-1.20939 2.87100 0.61465 
-1.00471 2.99800 0.64184 
-0.99688 2.99800 0.64184 
-0.60718 2.14600 0.45943 
-0.53965 2.08000 0.44530 
-0.52879 2.08000 0.44530 
-0.50503 2.09400 0.44830 
-0.49171 2.13100 0.45622 
-0.56748 3.32400 0.71163 
-0.56183 3.34200 0.71548 
-0.53280 3.43600 0.73561 
-0.48084 3.51500 0.75252 
-0.45590 3.53500 0.75680 
-0.17815 3.70600 0.79341 
-0.12902 3.68400 0.78870 
0.04655 3.89500 0.83388 
0.09862 3.94500 0.84458 
0.13036 3.97100 0.85015 
0.44657 4.21700 0.90281 
0.61508 4.39900 0.94178 
1.11892 4.02300 0.86128 
1.18470 3.99700 0.85571 
1.19513 3.99700 0.85571 
1.20016 3.84600 0.82339 
1.30915 3.49400 0.74803 
1.30142 3.18500 0.68187 
1.30973 3.18500 0.68187 
1.42645 3.02700 0.64805 
1.46499 3.05800 0.65468 
1.71916 3.23600 0.69279 
1.76215 3.25300 0.69643 
2.44995 3.53500 0.75680 
2.59531 3.66200 0.78399 
3.29675 4.18900 0.89682 
3.53772 4.33700 0.92850 
3.58069 4.30700 0.92208 
-1.38884 1.82000 0.38489 
-1.71441 2.61300 0.55259 
-1.70198 2.63600 0.55746 
-1.64001 2.64700 0.55978 
-1.58475 2.64700 0.55978 
-1.43496 2.73000 0.57734 
-1.36776 2.76700 0.58516 
-1.29997 2.79200 0.59045 
-1.29268 2.79200 0.59045 
-1.22028 2.84400 0.60145 
-1.14753 2.88500 0.61012 
-1.11741 2.88500 0.61012 
-1.08748 2.92600 0.61879 
-0.99968 2.98300 0.63084 
-0.58405 2.12300 0.44897 
-0.49679 2.15300 0.45531 
-0.47796 3.49400 0.73891 
-0.36064 3.59700 0.76069 
-0.29245 3.68400 0.77909 
-0.25551 3.70600 0.78374 
0.10892 3.94500 0.83429 
0.31471 4.07700 0.86220 
0.43556 4.21700 0.89181 
0.47191 4.24700 0.89815 
0.68241 4.46400 0.94404 
1.06643 4.02300 0.85078 
1.19513 3.99700 0.84528 
1.30606 3.53500 0.74758 
1.36686 3.20200 0.67716 
1.37758 3.16900 0.67018 
1.37363 3.10400 0.65643 
1.38173 3.10400 0.65643 
1.38311 3.08900 0.65326 
1.59247 3.20200 0.67716 
1.66767 3.20200 0.67716 
1.90179 3.12000 0.65981 
1.91634 3.10400 0.65643 
1.96065 3.13600 0.66320 
2.07134 3.21900 0.68075 
2.32291 3.41600 0.72241 
2.34548 3.43600 0.72664 
2.74435 3.77500 0.79833 
3.05177 3.99700 0.84528 
3.06220 3.99700 0.84528 
3.57168 4.33700 0.91718 
-1.50162 2.05200 0.42860 
-1.64555 2.27300 0.47476 
-1.76021 2.47600 0.51716 
-1.70565 2.56900 0.53659 
-1.59856 2.64700 0.55288 
-1.52313 2.63600 0.55058 
-1.44921 2.73000 0.57021 
-1.44127 2.74200 0.57272 
-1.36971 2.74200 0.57272 
-1.36183 2.75500 0.57544 
-1.34369 2.79200 0.58316 
-1.26354 2.79200 0.58316 
-1.25625 2.79200 0.58316 
-1.24589 2.81800 0.58859 
-1.20023 2.88500 0.60259 
-1.07734 2.94000 0.61408 
-0.98411 2.98300 0.62306 
-0.57108 2.11600 0.44197 
-0.52630 2.36100 0.49314 
-0.64024 3.25300 0.67945 
-0.43065 3.55500 0.74253 
-0.38880 3.59700 0.75130 
-0.37941 3.59700 0.75130 
-0.30026 3.66200 0.76488 
-0.26519 3.70600 0.77407 
-0.10203 3.75200 0.78368 
0.03639 3.89500 0.81355 
0.27904 4.02300 0.84028 
0.32750 4.10400 0.85720 
0.35130 4.13200 0.86305 
0.37539 4.16000 0.86890 
0.91711 4.53000 0.94618 
0.95488 4.43100 0.92550 
0.97312 4.30700 0.89960 
0.99418 4.16000 0.86890 
1.07692 4.02300 0.84028 
1.21492 3.79800 0.79329 
1.22652 3.68400 0.76948 
1.29322 3.57600 0.74692 
1.39412 3.16900 0.66191 
1.40970 3.04200 0.63538 
1.66713 3.18500 0.66525 
1.70110 3.20200 0.66880 
1.75294 3.23600 0.67590 
1.76687 3.18500 0.66525 
1.75679 3.15200 0.65836 
1.90179 3.12000 0.65167 
1.92622 3.12000 0.65167 
2.15006 3.28800 0.68676 
2.46382 3.55500 0.74253 
2.54595 3.61900 0.75590 
2.69826 3.75200 0.78368 
2.79847 3.82200 0.79830 
3.46829 4.30700 0.89960 
3.58299 4.33700 0.90587 
-1.36824 1.79300 0.36982 
-1.35042 1.78800 0.36879 
-1.44382 1.96600 0.40551 
-1.75240 2.45600 0.50657 
-1.68836 2.64700 0.54597 
-1.57093 2.64700 0.54597 
-1.36902 2.75500 0.56825 
-1.01823 2.96900 0.61239 
-0.67255 2.33400 0.48141 
-0.54147 2.08700 0.43046 
-0.52865 2.10100 0.43335 
-0.51006 2.13800 0.44098 
-0.37003 3.59700 0.74192 
-0.26683 3.72900 0.76914 
-0.03411 3.82200 0.78833 
0.69919 4.49700 0.92755 
1.05245 4.05000 0.83535 
1.07358 4.05000 0.83535 
1.09792 4.02300 0.82978 
1.11586 4.05000 0.83535 
1.16585 4.07700 0.84092 
1.26522 3.57600 0.73759 
1.28562 3.55500 0.73325 
1.29296 3.47500 0.71675 
1.28742 3.43600 0.70871 
1.43033 3.10400 0.64023 
1.50236 3.13600 0.64683 
1.63330 3.13600 0.64683 
1.64986 3.15200 0.65013 
1.76893 3.21900 0.66395 
1.79295 3.07300 0.63384 
1.92791 3.13600 0.64683 
2.17046 3.30600 0.68190 
2.50637 3.57600 0.73759 
2.87225 3.89500 0.80338 
3.54904 4.33700 0.89455 
3.56036 4.33700 0.89455 
3.58299 4.33700 0.89455 
-1.73024 2.51700 0.51259 
-1.71089 2.53700 0.51666 
-1.68134 2.63600 0.53682 
-1.66748 2.62500 0.53458 
-1.62576 2.61300 0.53214 
-1.59212 2.62500 0.53458 
-1.52948 2.65900 0.54151 
-1.52254 2.65900 0.54151 
-1.49249 2.71800 0.55352 
-1.46248 2.75500 0.56106 
-1.42696 2.74200 0.55841 
-1.27811 2.79200 0.56859 
-1.24746 2.80500 0.57124 
-1.23118 2.81800 0.57389 
-1.02080 2.95400 0.60158 
-0.53878 2.41700 0.49222 
-0.56133 2.54800 0.51890 
-0.51486 3.43600 0.69974 
-0.49066 3.45500 0.70361 
-0.46249 3.51500 0.71583 
-0.35125 3.59700 0.73253 
-0.23764 3.72900 0.75941 
-0.14119 3.75200 0.76410 
-0.07354 3.79800 0.77346 
0.05708 3.92000 0.79831 
0.23552 3.99700 0.81399 
0.34052 4.13200 0.84148 
0.48629 4.27600 0.87081 
1.17649 4.07700 0.83028 
1.24135 3.94500 0.80340 
1.24031 3.84600 0.78324 
1.25210 3.61900 0.73701 
1.27634 3.55500 0.72398 
1.28495 3.27000 0.66594 
1.35209 3.28800 0.66960 
1.42149 3.27000 0.66594 
1.72531 3.18500 0.64863 
1.78420 3.05800 0.62276 
2.11269 3.27000 0.66594 
3.08212 4.02300 0.81929 
3.39781 4.24700 0.86490 
3.57168 4.33700 0.88323 
3.67700 4.36800 0.88954 
-1.34751 1.77800 0.35745 
-1.57011 2.16100 0.43445 
-1.61894 2.61300 0.52532 
-1.57816 2.63600 0.52994 
-1.49958 2.71800 0.54643 
-1.49908 2.73000 0.54884 
-1.36971 2.74200 0.55125 
-1.35464 2.75500 0.55387 
-1.34745 2.75500 0.55387 
-1.33066 2.78000 0.55889 
-1.30164 2.78000 0.55889 
-1.28540 2.79200 0.56131 
-1.22948 2.83100 0.56915 
-1.17011 2.88500 0.58000 
-0.95776 2.99800 0.60272 
-0.73766 2.53700 0.51004 
-0.54510 2.10100 0.42239 
-0.50554 2.21600 0.44551 
-0.66066 3.27000 0.65740 
-0.52970 3.41600 0.68675 
-0.18036 3.75200 0.75430 
-0.02444 3.87000 0.77803 
0.06731 3.92000 0.78808 
0.23552 3.99700 0.80356 
0.30407 4.07700 0.81964 
0.47513 4.27600 0.85965 
0.73343 4.56400 0.91755 
0.91208 4.56400 0.91755 
1.23212 4.05000 0.81421 
1.27993 3.41600 0.68675 
1.30919 3.28800 0.66102 
1.36812 3.30600 0.66464 
1.45042 3.20200 0.64373 
1.50163 3.16900 0.63710 
1.54234 3.20200 0.64373 
1.75392 3.08900 0.62101 
1.80899 3.07300 0.61780 
2.12123 3.27000 0.65740 
2.25366 3.37900 0.67932 
2.28339 3.39700 0.68294 
2.81342 3.87000 0.77803 
3.00083 3.97100 0.79833 
3.51325 4.30700 0.86588 
3.62000 4.36800 0.87815 
3.66560 4.36800 0.87815 
-1.33081 1.79300 0.35579 
-1.70426 2.53700 0.50342 
-1.70565 2.56900 0.50977 
-1.58527 2.62500 0.52088 
-1.25478 2.80500 0.55660 
-1.24746 2.80500 0.55660 
-1.12245 2.89800 0.57505 
-0.99688 2.99800 0.59490 
-0.98906 2.99800 0.59490 
-0.57917 2.14600 0.42583 
-0.56956 2.13100 0.42286 
-0.54167 2.10900 0.41849 
-0.54524 2.44600 0.48536 
-0.61085 3.32400 0.65958 
-0.57927 3.34200 0.66316 
-0.34396 3.61900 0.71812 
-0.31938 3.66200 0.72665 
-0.09337 3.79800 0.75364 
0.17069 3.94500 0.78281 
0.22509 3.99700 0.79313 
0.23705 4.02300 0.79829 
0.30407 4.07700 0.80900 
0.32750 4.10400 0.81436 
0.41355 4.21700 0.83678 
0.43556 4.21700 0.83678 
0.65225 4.49700 0.89234 
0.79890 4.46400 0.88580 
0.91208 4.56400 0.90564 
1.05931 4.24700 0.84274 
1.06283 4.21700 0.83678 
1.06670 4.18900 0.83123 
1.16585 4.07700 0.80900 
1.21905 4.07700 0.80900 
1.24656 3.57600 0.70959 
1.25994 3.53500 0.70145 
1.32498 3.30600 0.65601 
1.44893 3.23600 0.64212 
1.76627 3.16900 0.62883 
1.85154 3.10400 0.61593 
1.92130 3.15200 0.62545 
2.91941 3.94500 0.78281 
3.00083 3.97100 0.78797 
3.17669 4.07700 0.80900 
3.35180 4.21700 0.83678 
3.36281 4.21700 0.83678 
3.69161 4.39900 0.87290 
-1.45771 1.99200 0.39008 
-1.72883 2.49600 0.48877 
-1.71053 2.51700 0.49288 
-1.68713 2.61300 0.51168 
-1.65287 2.60200 0.50953 
-1.46163 2.76700 0.54184 
-1.45441 2.76700 0.54184 
-1.36902 2.75500 0.53949 
-1.33888 2.76700 0.54184 
-1.30164 2.78000 0.54438 
-1.21470 2.83100 0.55437 
-1.14513 2.89800 0.56749 
-1.00746 2.98300 0.58414 
-1.00471 2.99800 0.58707 
-0.99688 2.99800 0.58707 
-0.93429 2.99800 0.58707 
-0.59104 2.16900 0.42474 
-0.53419 2.12300 0.41573 
-0.48165 3.45500 0.67656 
-0.37003 3.59700 0.70437 
-0.19248 3.79800 0.74373 
0.04685 3.92000 0.76762 
0.05708 3.92000 0.76762 
0.13892 3.92000 0.76762 
0.21466 3.99700 0.78270 
0.31679 4.10400 0.80365 
0.35130 4.13200 0.80913 
0.50106 4.30700 0.84340 
0.61251 4.46400 0.87415 
0.80456 4.43100 0.86769 
1.07017 4.16000 0.81462 
1.10529 4.05000 0.79308 
1.13700 4.05000 0.79308 
1.25990 3.97100 0.77761 
1.24149 3.53500 0.69223 
1.63301 3.08900 0.60489 
1.76627 3.16900 0.62056 
1.78420 3.05800 0.59882 
1.82647 3.08900 0.60489 
2.19095 3.32400 0.65091 
2.28339 3.39700 0.66521 
2.86208 3.89500 0.76272 
3.60860 4.36800 0.85535 
3.64280 4.36800 0.85535 
3.71457 4.39900 0.86142 
-1.33456 1.76700 0.34141 
-1.31612 1.76700 0.34141 
-1.71580 2.49600 0.48226 
-1.69275 2.58000 0.49849 
-1.65966 2.60200 0.50274 
-1.59167 2.61300 0.50486 
-1.55671 2.67000 0.51588 
-1.50620 2.73000 0.52747 
-1.48300 2.78000 0.53713 
-1.29138 2.80500 0.54196 
-1.24589 2.81800 0.54447 
-1.21286 2.84400 0.54949 
-1.14513 2.89800 0.55993 
-1.12245 2.89800 0.55993 
-1.12027 2.91200 0.56263 
-1.03897 2.94000 0.56804 
-1.02850 2.95400 0.57075 
-0.97493 3.02700 0.58485 
-0.86143 2.88500 0.55742 
-0.51180 2.16900 0.41908 
-0.65429 3.04200 0.58775 
-0.32893 3.66200 0.70754 
-0.28630 3.72900 0.72049 
-0.21230 3.79800 0.73382 
-0.14292 3.79800 0.73382 
0.12868 3.92000 0.75739 
0.14914 3.92000 0.75739 
0.23864 4.05000 0.78251 
0.28092 4.05000 0.78251 
0.73440 4.49700 0.86887 
1.03826 4.70400 0.90887 
1.06303 4.30700 0.83216 
1.07039 4.24700 0.82057 
1.16870 4.05000 0.78251 
1.25165 3.94500 0.76222 
1.24805 3.87000 0.74773 
1.23177 3.72900 0.72049 
1.31897 3.37900 0.65286 
1.40918 3.34200 0.64571 
1.41790 3.34200 0.64571 
1.54067 3.30600 0.63876 
1.56660 3.28800 0.63528 
1.89662 3.15200 0.60900 
1.91512 3.16900 0.61229 
2.15006 3.28800 0.63528 
2.46840 3.53500 0.68300 
2.93160 3.92000 0.75739 
3.38481 4.21700 0.81477 
3.66222 4.33700 0.83796 
-1.31873 1.78300 0.33984 
-1.74728 2.47600 0.47193 
-1.73488 2.48600 0.47384 
-1.69740 2.51700 0.47975 
-1.67292 2.59100 0.49385 
-1.50620 2.73000 0.52034 
-1.39833 2.74200 0.52263 
-1.37621 2.75500 0.52511 
-1.15270 2.89800 0.55237 
-1.13757 2.89800 0.55237 
-1.12027 2.91200 0.55503 
-0.86950 2.91200 0.55503 
-0.61085 3.32400 0.63356 
-0.57107 3.39700 0.64748 
-0.54176 3.43600 0.65491 
-0.45973 3.49400 0.66596 
-0.34595 3.64000 0.69379 
-0.27827 3.75200 0.71514 
-0.23212 3.79800 0.72391 
-0.09337 3.79800 0.72391 
0.08777 3.92000 0.74716 
0.14914 3.92000 0.74716 
0.55375 4.36800 0.83255 
0.59642 4.43100 0.84456 
0.77579 4.39900 0.83846 
0.92399 4.56400 0.86991 
1.18191 4.02300 0.76679 
1.21856 3.57600 0.68159 
1.37032 3.39700 0.64748 
1.56852 3.08900 0.58877 
1.75213 3.21900 0.61355 
1.76087 3.07300 0.58572 
1.96214 3.21900 0.61355 
2.05205 3.20200 0.61031 
2.20830 3.32400 0.63356 
2.49165 3.55500 0.67759 
2.62052 3.68400 0.70218 
2.76855 3.82200 0.72848 
-1.68506 2.54800 0.47901 
-1.65909 2.58000 0.48502 
-1.64588 2.59100 0.48709 
-1.51446 2.69400 0.50645 
-1.39833 2.74200 0.51548 
-1.28266 2.81800 0.52976 
-1.26795 2.81800 0.52976 
-1.25325 2.81800 0.52976 
-1.20189 2.87100 0.53973 
-1.18517 2.88500 0.54236 
-1.13757 2.89800 0.54480 
-1.03130 2.94000 0.55270 
-0.52877 2.14600 0.40343 
-0.65212 3.27000 0.61474 
-0.47537 3.47500 0.65327 
-0.41209 3.55500 0.66831 
-0.40520 3.57600 0.67226 
-0.38653 3.57600 0.67226 
-0.37003 3.59700 0.67621 
-0.07401 3.82200 0.71851 
0.74752 4.36800 0.82115 
0.86238 4.43100 0.83300 
1.07039 4.24700 0.79841 
1.11781 3.94500 0.74163 
1.29454 3.45500 0.64951 
1.39833 3.37900 0.63523 
1.60922 3.27000 0.61474 
1.69184 3.16900 0.59575 
1.83534 3.10400 0.58353 
2.03534 3.20200 0.60195 
2.25852 3.36000 0.63166 
3.24111 4.13200 0.77679 
3.39582 4.21700 0.79277 
3.56036 4.33700 0.81532 
-1.35314 1.83600 0.34036 
-1.75881 2.45600 0.45530 
-1.71614 2.50600 0.46457 
-1.51471 2.68200 0.49720 
-1.51446 2.69400 0.49942 
-1.41980 2.74200 0.50832 
-1.33791 2.78000 0.51536 
-1.21286 2.84400 0.52723 
-1.16782 2.89800 0.53724 
-1.16026 2.89800 0.53724 
-1.12027 2.91200 0.53984 
-1.05693 2.92600 0.54243 
-0.97493 3.02700 0.56115 
-0.62934 2.92600 0.54243 
-0.59671 3.34200 0.61955 
-0.59116 3.36000 0.62289 
-0.52673 3.45500 0.64050 
-0.34595 3.64000 0.67479 
-0.33646 3.64000 0.67479 
-0.26027 3.77500 0.69982 
0.13892 3.92000 0.72670 
0.15937 3.92000 0.72670 
0.17069 3.94500 0.73134 
0.30608 4.10400 0.76081 
0.31679 4.10400 0.76081 
0.36208 4.13200 0.76600 
0.53477 4.30700 0.79845 
0.76007 4.24700 0.78732 
1.07095 4.63300 0.85888 
1.07039 4.24700 0.78732 
1.23257 3.82200 0.70853 
1.36667 3.45500 0.64050 
1.36812 3.43600 0.63698 
1.74373 3.21900 0.59675 
1.77622 3.05800 0.56690 
1.94534 3.21900 0.59675 
2.44073 3.53500 0.65533 
2.77852 3.82200 0.70853 
2.81842 3.82200 0.70853 
2.89421 3.87000 0.71743 
-1.35314 1.83600 0.33557 
-1.50648 2.06600 0.37761 
-1.72883 2.49600 0.45620 
-1.55724 2.65900 0.48599 
-1.48420 2.74200 0.50116 
-1.44127 2.74200 0.50116 
-1.39777 2.75500 0.50354 
-1.02035 2.99800 0.54795 
-0.97493 3.02700 0.55326 
-0.56421 2.15300 0.39351 
-0.52488 2.15300 0.39351 
-0.62139 3.28800 0.60096 
-0.61085 3.32400 0.60754 
-0.45973 3.49400 0.63861 
-0.41900 3.53500 0.64610 
-0.35545 3.64000 0.66530 
-0.31938 3.66200 0.66932 
-0.19370 3.82200 0.69856 
0.14914 3.92000 0.71647 
0.35130 4.13200 0.75522 
0.71958 4.33700 0.79269 
0.76062 4.18900 0.76564 
0.94563 4.49700 0.82193 
1.05896 4.53000 0.82796 
1.05895 4.43100 0.80987 
1.06303 4.30700 0.78721 
1.08332 3.89500 0.71190 
1.10365 3.89500 0.71190 
1.20765 3.87000 0.70733 
1.21775 3.87000 0.70733 
1.22024 3.84600 0.70295 
1.20694 3.59700 0.65744 
1.24656 3.57600 0.65360 
1.36812 3.43600 0.62801 
1.60083 3.20200 0.58524 
2.30999 3.39700 0.62088 
2.90431 3.87000 0.70733 
3.10281 4.05000 0.74023 
3.31861 4.18900 0.76564 
3.36281 4.21700 0.77076 
-1.40309 1.82000 0.32790 
-1.71710 2.51700 0.45347 
-1.70397 2.51700 0.45347 
-1.67778 2.53700 0.45708 
-1.65264 2.59100 0.46680 
-1.50002 2.70600 0.48752 
-1.47058 2.73000 0.49185 
-1.41264 2.74200 0.49401 
-1.34610 2.76700 0.49851 
-1.22628 2.85800 0.51491 
-1.20939 2.87100 0.51725 
-1.20023 2.88500 0.51977 
-1.15067 2.91200 0.52464 
-0.95123 3.02700 0.54536 
-0.93866 3.01200 0.54265 
-0.56421 2.15300 0.38789 
-0.55117 2.14600 0.38663 
-0.46885 3.49400 0.62949 
-0.41209 3.55500 0.64048 
-0.28630 3.72900 0.67183 
-0.13301 3.79800 0.68426 
0.02639 3.92000 0.70624 
0.03662 3.92000 0.70624 
0.14914 3.92000 0.70624 
0.18217 3.97100 0.71543 
0.22655 4.02300 0.72480 
0.49058 4.21700 0.75975 
1.22789 3.57600 0.64427 
1.37458 3.47500 0.62607 
1.55648 3.39700 0.61202 
1.72869 3.27000 0.58914 
1.77136 3.27000 0.58914 
2.07440 3.18500 0.57382 
3.21954 4.13200 0.74444 
3.30768 4.18900 0.75471 
3.39582 4.21700 0.75975 
3.65090 4.33700 0.78137 
-1.41524 1.84200 0.32705 
-1.76021 2.47600 0.43962 
-1.65909 2.58000 0.45809 
-1.63940 2.61300 0.46395 
-1.61255 2.63600 0.46803 
-1.58499 2.65900 0.47212 
-1.42784 2.73000 0.48472 
-1.38340 2.75500 0.48916 
-1.30889 2.78000 0.49360 
-1.24425 2.83100 0.50266 
-1.06966 2.94000 0.52201 
-0.64319 2.31600 0.41122 
-0.55677 2.14600 0.38103 
-0.53796 2.13800 0.37961 
-0.59140 2.81800 0.50035 
-0.61799 3.27000 0.58060 
-0.51771 3.45500 0.61345 
-0.46885 3.49400 0.62037 
-0.40977 3.53500 0.62765 
-0.37003 3.59700 0.63866 
-0.16176 3.77500 0.67027 
-0.09337 3.79800 0.67435 
0.02639 3.92000 0.69601 
0.50516 4.24700 0.75407 
0.52732 4.24700 0.75407 
0.87196 4.30700 0.76473 
0.88935 4.33700 0.77005 
0.93650 4.39900 0.78106 
0.96644 4.43100 0.78674 
1.05577 4.18900 0.74378 
1.17527 3.79800 0.67435 
1.33536 3.51500 0.62410 
1.53941 3.37900 0.59996 
1.63641 3.37900 0.59996 
1.73910 3.30600 0.58699 
1.77459 3.32400 0.59019 
1.94141 3.18500 0.56551 
2.09102 3.18500 0.56551 
2.50817 3.61900 0.64257 
2.69873 3.82200 0.67861 
3.06112 4.02300 0.71430 
3.09224 4.05000 0.71909 
3.28478 4.16000 0.73863 
-1.78678 2.48600 0.43491 
-1.74837 2.49600 0.43666 
-1.57111 2.65900 0.46518 
-1.38402 2.74200 0.47970 
-1.34745 2.75500 0.48197 
-1.26795 2.81800 0.49299 
-1.24254 2.84400 0.49754 
-1.01253 2.99800 0.52448 
-1.00154 3.01200 0.52693 
-0.89746 2.95400 0.51679 
-0.55677 2.14600 0.37543 
-0.50697 2.24800 0.39328 
-0.56221 3.39700 0.59429 
-0.52970 3.41600 0.59761 
-0.35340 3.61900 0.63312 
-0.34396 3.61900 0.63312 
-0.20973 3.75200 0.65639 
-0.10265 3.77500 0.66042 
-0.05406 3.82200 0.66864 
-0.04436 3.84600 0.67284 
-0.02444 3.87000 0.67704 
0.12868 3.92000 0.68578 
0.15937 3.92000 0.68578 
0.72782 4.18900 0.73284 
1.00538 4.39900 0.76958 
1.04506 4.10400 0.71797 
1.09598 3.79800 0.66444 
1.19287 3.64000 0.63680 
1.28043 3.61900 0.63312 
1.30081 3.59700 0.62928 
1.38302 3.34200 0.58467 
1.53941 3.37900 0.59114 
1.59228 3.43600 0.60111 
1.78420 3.34200 0.58467 
1.99338 3.13600 0.54863 
2.19803 3.27000 0.57207 
2.21871 3.28800 0.57522 
2.57814 3.70600 0.64835 
2.77061 3.89500 0.68141 
3.36234 4.18900 0.73284 
3.62565 4.30700 0.75349 
-1.44652 1.87000 0.32227 
-1.43701 1.86400 0.32123 
-1.41021 1.84800 0.31848 
-1.33734 1.78300 0.30727 
-1.47972 2.68200 0.46220 
-1.45119 2.69400 0.46427 
-1.34026 2.75500 0.47478 
-1.29138 2.80500 0.48340 
-1.25325 2.81800 0.48564 
-0.97796 3.01200 0.51907 
-0.94212 2.99800 0.51666 
-0.69558 2.43600 0.41981 
-0.50449 2.29000 0.39465 
-0.35854 3.57600 0.61627 
-0.27486 3.70600 0.63867 
-0.05406 3.82200 0.65866 
-0.00427 3.89500 0.67125 
0.19254 3.97100 0.68434 
0.34052 4.13200 0.71209 
0.36208 4.13200 0.71209 
0.50159 4.21700 0.72674 
0.67431 4.33700 0.74742 
0.97550 4.36800 0.75276 
1.00970 4.36800 0.75276 
1.03306 4.27600 0.73690 
1.03250 3.89500 0.67125 
1.11581 3.79800 0.65453 
1.18807 3.68400 0.63488 
1.27099 3.61900 0.62368 
1.35219 3.53500 0.60920 
1.41515 3.23600 0.55768 
1.59193 3.41600 0.58870 
1.64466 3.34200 0.57594 
1.78631 3.37900 0.58232 
1.76889 3.07300 0.52959 
1.84259 3.08900 0.53234 
2.23948 3.30600 0.56974 
2.30657 3.37900 0.58232 
2.40330 3.49400 0.60214 
2.84834 3.82200 0.65866 
2.87626 3.84600 0.66280 
3.10281 4.05000 0.69796 
3.34992 4.16000 0.71691 
-1.32895 1.77800 0.30177 
-1.48007 2.67000 0.45317 
-1.44472 2.68200 0.45520 
-1.40116 2.70600 0.45928 
-1.34109 2.74200 0.46539 
-1.28540 2.79200 0.47387 
-1.22770 2.84400 0.48270 
-1.11267 2.91200 0.49424 
-1.02850 2.95400 0.50137 
-0.64699 2.30800 0.39173 
-0.57972 2.16900 0.36813 
-0.54912 2.13800 0.36287 
-0.52488 2.15300 0.36542 
-0.50991 2.16100 0.36678 
-0.54600 3.05800 0.51902 
-0.54972 3.27000 0.55500 
-0.38210 3.53500 0.59998 
0.38365 4.13200 0.70131 
0.70193 4.36800 0.74136 
0.77731 4.10400 0.69655 
0.93462 4.33700 0.73610 
1.03761 4.16000 0.70606 
1.06625 3.79800 0.64462 
1.08607 3.79800 0.64462 
1.22572 3.59700 0.61050 
1.35984 3.55500 0.60337 
1.37918 3.39700 0.57656 
1.38069 3.37900 0.57350 
1.60996 3.37900 0.57350 
1.79194 3.32400 0.56417 
1.77989 3.27000 0.55500 
1.75524 3.12000 0.52954 
1.80814 3.05800 0.51902 
1.82410 3.05800 0.51902 
1.90830 3.02700 0.51376 
1.97740 3.07300 0.52157 
1.99575 3.08900 0.52428 
2.15535 3.21900 0.54635 
2.17517 3.23600 0.54923 
2.90431 3.87000 0.65684 
3.07162 4.02300 0.68281 
3.13451 4.05000 0.68739 
3.14508 4.05000 0.68739 
3.49352 4.18900 0.71098 
-1.43215 1.86400 0.31150 
-1.34952 1.79300 0.29964 
-1.46211 1.99800 0.33390 
-1.78029 2.48600 0.41545 
-1.74371 2.52700 0.42230 
-1.65909 2.58000 0.43116 
-1.55724 2.65900 0.44436 
-1.34825 2.74200 0.45823 
-1.21137 2.85800 0.47762 
-1.13001 2.89800 0.48430 
-1.02363 2.94000 0.49132 
-0.83305 2.74200 0.45823 
-0.50427 2.16100 0.36114 
-0.52694 3.34200 0.55850 
-0.36571 3.55500 0.59410 
-0.35854 3.57600 0.59761 
-0.21818 3.72900 0.62318 
0.23705 4.02300 0.67231 
0.36208 4.13200 0.69052 
0.45757 4.21700 0.70473 
0.61772 4.33700 0.72478 
0.72062 4.27600 0.71459 
0.72168 4.21700 0.70473 
1.03062 4.13200 0.69052 
1.04307 3.82200 0.63872 
1.12286 3.82200 0.63872 
1.13283 3.82200 0.63872 
1.18009 3.84600 0.64273 
1.48080 3.28800 0.54948 
1.49753 3.30600 0.55249 
1.57469 3.37900 0.56468 
1.65338 3.34200 0.55850 
1.77548 3.34200 0.55850 
2.00381 3.08900 0.51622 
2.17517 3.23600 0.54079 
2.78376 3.77500 0.63086 
-1.41886 1.85300 0.30483 
-1.33734 1.78300 0.29331 
-1.77443 2.49600 0.41061 
-1.37084 2.73000 0.44910 
-1.32588 2.75500 0.45321 
-1.28111 2.76700 0.45519 
-1.24168 2.79200 0.45930 
-0.98632 2.89800 0.47674 
-0.60743 2.20800 0.36323 
-0.56421 2.15300 0.35418 
-0.47544 2.18400 0.35928 
-0.47146 2.19200 0.36060 
-0.46777 2.25700 0.37129 
-0.51023 3.23600 0.53234 
-0.51264 3.30600 0.54386 
-0.30982 3.66200 0.60242 
-0.04409 3.82200 0.62874 
-0.02444 3.87000 0.63664 
0.09800 3.92000 0.64486 
0.37539 4.16000 0.68435 
0.44360 4.18900 0.68912 
0.54208 4.27600 0.70343 
0.72782 4.18900 0.68912 
0.82656 4.24700 0.69866 
1.03597 3.87000 0.63664 
1.07299 3.82200 0.62874 
1.21633 3.59700 0.59173 
1.31476 3.66200 0.60242 
1.36543 3.61900 0.59535 
1.37206 3.51500 0.57824 
1.43204 3.23600 0.53234 
1.50616 3.30600 0.54386 
1.76026 3.05800 0.50306 
1.79074 3.04200 0.50043 
2.14695 3.21900 0.52955 
2.78593 3.84600 0.63269 
3.14591 3.97100 0.65325 
3.15627 3.97100 0.65325 
3.28248 4.05000 0.66625 
3.32564 4.07700 0.67069 
-1.43215 1.86400 0.30178 
-1.71074 2.52700 0.40911 
-1.48703 2.67000 0.43226 
-1.48007 2.67000 0.43226 
-1.45916 2.67000 0.43226 
-1.42432 2.67000 0.43226 
-1.33307 2.75500 0.44603 
-1.29555 2.76700 0.44797 
-1.18899 2.85800 0.46270 
-0.91075 2.80500 0.45412 
-0.59513 2.18400 0.35358 
-0.47218 2.16900 0.35115 
-0.44667 3.53500 0.57230 
-0.41900 3.53500 0.57230 
-0.19015 3.75200 0.60744 
0.23705 4.02300 0.65131 
0.29343 4.07700 0.66005 
0.37287 4.13200 0.66896 
1.16463 3.89500 0.63059 
1.29736 3.64000 0.58930 
1.36787 3.57600 0.57894 
1.46503 3.25300 0.52665 
1.77691 3.07300 0.49751 
1.78493 3.07300 0.49751 
1.78651 2.96900 0.48067 
1.82276 2.94000 0.47598 
1.90670 3.01200 0.48763 
2.18660 3.25300 0.52665 
2.41242 3.49400 0.56567 
2.81331 3.77500 0.61116 
2.88630 3.84600 0.62265 
2.96229 3.92000 0.63464 
2.99148 3.94500 0.63868 
3.06301 3.97100 0.64289 
3.21866 3.99700 0.64710 
3.31309 4.02300 0.65131 
3.32358 4.02300 0.65131 
3.35426 3.99700 0.64710 
-1.65207 2.28200 0.36349 
-1.76140 2.49600 0.39758 
-1.74884 2.50600 0.39917 
-1.72367 2.51700 0.40093 
-1.71074 2.52700 0.40252 
-1.62619 2.64700 0.42163 
-1.56417 2.65900 0.42354 
-1.52884 2.67000 0.42530 
-1.50771 2.68200 0.42721 
-1.50072 2.68200 0.42721 
-1.37900 2.71800 0.43294 
-1.30277 2.76700 0.44075 
-1.23635 2.78000 0.44282 
-0.91176 2.74200 0.43677 
-0.87860 2.70600 0.43103 
-0.76176 2.48600 0.39599 
-0.64546 2.24000 0.35680 
-0.58538 2.16900 0.34549 
-0.54557 2.14600 0.34183 
-0.53612 2.15300 0.34294 
-0.46157 2.14600 0.34183 
-0.45037 2.14600 0.34183 
-0.43437 2.50600 0.39917 
-0.41209 3.55500 0.56627 
-0.32893 3.66200 0.58331 
-0.17161 3.77500 0.60131 
-0.15283 3.79800 0.60497 
0.04685 3.92000 0.62441 
0.54982 4.33700 0.69083 
0.69543 4.39900 0.70070 
0.73269 4.21700 0.67171 
0.96188 4.30700 0.68605 
1.02754 4.07700 0.64941 
1.08976 3.84600 0.61262 
1.20016 3.84600 0.61262 
1.19768 3.68400 0.58681 
1.33387 3.66200 0.58331 
1.37590 3.59700 0.57296 
1.38123 3.51500 0.55989 
1.37918 3.39700 0.54110 
1.38252 3.21900 0.51275 
1.47352 3.25300 0.51816 
1.78420 3.05800 0.48710 
2.02164 3.10400 0.49443 
2.88630 3.84600 0.61262 
3.22909 3.99700 0.63667 
-1.44652 1.87000 0.29299 
-1.39246 1.83100 0.28688 
-1.69095 2.52700 0.39592 
-1.65264 2.59100 0.40595 
-1.58499 2.65900 0.41661 
-1.54974 2.67000 0.41833 
-1.45172 2.68200 0.42021 
-1.40116 2.70600 0.42397 
-1.28111 2.76700 0.43353 
-1.22383 2.81800 0.44152 
-1.21470 2.83100 0.44355 
-1.09204 2.85800 0.44778 
-0.97210 2.79200 0.43744 
-0.89110 2.65900 0.41661 
-0.88017 2.64700 0.41473 
-0.85523 2.61300 0.40940 
-0.62591 2.19200 0.34344 
-0.41880 2.21600 0.34720 
-0.32893 3.66200 0.57375 
-0.02429 3.84600 0.60258 
-0.01434 3.87000 0.60634 
0.23705 4.02300 0.63031 
0.37034 4.10400 0.64300 
0.54235 4.36800 0.68437 
0.61508 4.39900 0.68922 
0.73178 4.27600 0.66995 
0.91692 4.30700 0.67481 
0.92816 4.30700 0.67481 
1.01204 4.18900 0.65632 
1.18745 3.87000 0.60634 
1.28786 3.64000 0.57031 
1.32432 3.66200 0.57375 
1.36652 3.59700 0.56357 
1.38069 3.37900 0.52941 
1.36812 3.30600 0.51798 
1.40028 3.20200 0.50168 
1.59249 3.23600 0.50701 
1.61784 3.25300 0.50967 
1.62632 3.25300 0.50967 
1.65189 3.27000 0.51234 
1.65179 3.25300 0.50967 
1.66877 3.25300 0.50967 
1.68493 3.21900 0.50434 
1.71082 3.02700 0.47426 
1.76026 3.05800 0.47912 
1.77486 3.04200 0.47661 
1.83811 2.94000 0.46063 
1.96774 3.05800 0.47912 
3.03192 3.97100 0.62217 
3.27109 4.02300 0.63031 
3.27081 3.99700 0.62624 
3.27026 3.97100 0.62217 
3.28964 3.92000 0.61418 
-1.36251 1.80400 0.27794 
-1.76846 2.50600 0.38609 
-1.71053 2.51700 0.38779 
-1.70397 2.51700 0.38779 
-1.55724 2.65900 0.40967 
-1.43010 2.69400 0.41506 
-1.36372 2.73000 0.42061 
-1.33165 2.76700 0.42631 
-1.29438 2.78000 0.42831 
-1.27987 2.78000 0.42831 
-1.25223 2.76700 0.42631 
-1.23635 2.78000 0.42831 
-0.69056 2.27300 0.35020 
-0.39540 2.35200 0.36237 
-0.39853 2.40800 0.37100 
-0.46249 3.51500 0.54155 
-0.44667 3.53500 0.54463 
-0.37229 3.61900 0.55757 
-0.23617 3.70600 0.57098 
-0.19131 3.77500 0.58161 
-0.17161 3.77500 0.58161 
-0.16275 3.79800 0.58515 
-0.06363 3.79800 0.58515 
0.06688 3.89500 0.60009 
0.39443 4.13200 0.63661 
0.64267 4.43100 0.68268 
0.65424 4.43100 0.68268 
0.75470 4.21700 0.64970 
0.80440 4.24700 0.65433 
1.01293 4.10400 0.63229 
1.04266 3.89500 0.60009 
1.13414 3.89500 0.60009 
1.21020 3.84600 0.59255 
1.33227 3.68400 0.56759 
1.38123 3.51500 0.54155 
1.37918 3.39700 0.52337 
1.38357 3.20200 0.49333 
1.40028 3.20200 0.49333 
1.76824 3.05800 0.47114 
1.74536 2.92600 0.45080 
1.75891 2.89800 0.44649 
2.66858 3.68400 0.56759 
3.05325 3.94500 0.60780 
3.18736 3.97100 0.61180 
3.22909 3.99700 0.61581 
3.27081 3.99700 0.61581 
-1.42468 1.84800 0.27989 
-1.39266 1.82500 0.27641 
-1.68565 2.55900 0.38758 
-1.57805 2.65900 0.40273 
-1.53581 2.67000 0.40439 
-1.51446 2.69400 0.40803 
-1.50743 2.69400 0.40803 
-1.49337 2.69400 0.40803 
-1.46572 2.68200 0.40621 
-1.43713 2.69400 0.40803 
-1.41528 2.70600 0.40985 
-1.40028 2.71800 0.41166 
-1.35540 2.74200 0.41530 
-1.34745 2.75500 0.41727 
-1.33791 2.78000 0.42105 
-0.86345 2.53700 0.38425 
-0.54735 2.15300 0.32609 
-0.48615 2.13100 0.32276 
-0.46947 2.13100 0.32276 
-0.35760 3.66200 0.55464 
-0.33091 3.68400 0.55797 
-0.07401 3.82200 0.57887 
-0.01434 3.87000 0.58614 
-0.00424 3.87000 0.58614 
0.10754 3.89500 0.58993 
0.21326 3.97100 0.60144 
0.40522 4.13200 0.62583 
0.87196 4.30700 0.65233 
0.96379 4.21700 0.63870 
1.37064 3.53500 0.53541 
1.36907 3.41600 0.51738 
1.51003 3.15200 0.47740 
1.75105 3.04200 0.46074 
1.76611 3.02700 0.45846 
1.76608 2.88500 0.43696 
1.87278 2.98300 0.45180 
1.92410 3.02700 0.45846 
2.33182 3.41600 0.51738 
3.06354 3.94500 0.59750 
3.11574 3.92000 0.59372 
3.22909 3.99700 0.60538 
3.29209 4.02300 0.60932 
3.30259 4.02300 0.60932 
3.31254 3.99700 0.60538 
-1.37191 2.71800 0.40457 
-1.28540 2.79200 0.41559 
-1.20912 2.81800 0.41946 
-1.15029 2.81800 0.41946 
-1.14294 2.81800 0.41946 
-1.13558 2.81800 0.41946 
-1.12823 2.81800 0.41946 
-1.04958 2.84400 0.42333 
-0.98798 2.75500 0.41008 
-0.87670 2.53700 0.37763 
-0.83589 2.45600 0.36557 
-0.68234 2.20800 0.32866 
-0.60236 2.16900 0.32285 
-0.56066 2.16100 0.32166 
-0.50283 2.13100 0.31720 
-0.49727 2.13100 0.31720 
-0.36808 2.22400 0.33104 
-0.45973 3.49400 0.52008 
-0.39819 3.59700 0.53541 
-0.33091 3.68400 0.54836 
-0.30207 3.68400 0.54836 
-0.05406 3.82200 0.56890 
0.14914 3.92000 0.58349 
0.75470 4.21700 0.62770 
0.83765 4.24700 0.63216 
1.21000 3.75200 0.55848 
1.31304 3.68400 0.54836 
1.37210 3.66200 0.54508 
1.37335 3.64000 0.54181 
1.36907 3.41600 0.50847 
1.36572 3.21900 0.47914 
1.49960 3.23600 0.48167 
1.53563 3.10400 0.46203 
1.73773 2.92600 0.43553 
1.95178 3.05800 0.45518 
2.13014 3.21900 0.47914 
2.40837 3.47500 0.51725 
3.09410 3.97100 0.59108 
-1.33823 1.77800 0.26001 
-1.80249 2.51700 0.36808 
-1.73052 2.52700 0.36955 
-1.70414 2.52700 0.36955 
-1.67324 2.60200 0.38051 
-1.64622 2.61300 0.38212 
-1.56417 2.65900 0.38885 
-1.38609 2.71800 0.39748 
-1.35464 2.75500 0.40289 
-1.33066 2.78000 0.40654 
-1.28406 2.80500 0.41020 
-0.62270 2.16100 0.31602 
-0.61706 2.16100 0.31602 
-0.49540 2.12300 0.31047 
-0.44166 2.13100 0.31164 
-0.43357 2.14600 0.31383 
-0.37285 2.18400 0.31939 
-0.43641 3.07300 0.44939 
-0.45061 3.49400 0.51096 
-0.43745 3.53500 0.51696 
-0.27323 3.68400 0.53874 
-0.25400 3.68400 0.53874 
0.13892 3.92000 0.57326 
0.23552 3.99700 0.58452 
0.24595 3.99700 0.58452 
0.73090 4.33700 0.63424 
0.73709 4.30700 0.62985 
0.82073 4.21700 0.61669 
1.04910 3.99700 0.58452 
1.47352 3.25300 0.47572 
1.50921 3.18500 0.46577 
1.73837 2.94000 0.42994 
1.73701 2.91200 0.42585 
1.91776 3.04200 0.44486 
2.04249 3.13600 0.45861 
2.25852 3.36000 0.49136 
2.50530 3.53500 0.51696 
3.09262 4.02300 0.58832 
3.10392 3.99700 0.58452 
3.11435 3.99700 0.58452 
3.41192 4.10400 0.60017 
-1.33359 1.77800 0.25537 
-1.79695 2.53700 0.36439 
-1.63356 2.65900 0.38191 
-1.46572 2.68200 0.38521 
-1.43574 2.71800 0.39038 
-1.27531 2.81800 0.40475 
-1.16500 2.81800 0.40475 
-1.12088 2.81800 0.40475 
-0.72791 2.22400 0.31943 
-0.45512 2.11600 0.30392 
-0.39420 2.17600 0.31254 
-0.00422 3.84600 0.55240 
0.06688 3.89500 0.55944 
0.50455 4.33700 0.62292 
0.67076 4.46400 0.64116 
0.75410 4.27600 0.61416 
0.78771 4.21700 0.60569 
1.03761 4.16000 0.59750 
1.04506 4.10400 0.58946 
1.08039 3.99700 0.57409 
1.11482 3.97100 0.57035 
1.20017 3.94500 0.56662 
1.26698 3.66200 0.52597 
1.35150 3.68400 0.52913 
1.64643 2.95400 0.42428 
1.76741 2.91200 0.41825 
1.92784 3.05800 0.43922 
1.96351 3.08900 0.44367 
2.08271 3.18500 0.45746 
2.21698 3.32400 0.47742 
2.58679 3.59700 0.51664 
3.10312 4.02300 0.57782 
3.25116 4.07700 0.58558 
3.44405 4.10400 0.58946 
-1.35042 1.78800 0.25214 
-1.32521 1.77300 0.25003 
