ply
format ascii 1.0
comment pointcloud saved from Realsense Viewer
element vertex 1797
property float32 x
property float32 y
property float32 z
end_header
-0.989601 -0.168588 -1.633 
-0.986995 -0.169311 -1.64 
-0.984331 -0.170034 -1.647 
-0.977455 -0.170034 -1.647 
-0.975292 -0.170859 -1.655 
-0.972478 -0.171582 -1.662 
-0.969605 -0.172305 -1.669 
-0.962636 -0.172305 -1.669 
-0.959676 -0.173027 -1.676 
-0.952678 -0.173027 -1.676 
-0.950194 -0.173853 -1.684 
-0.943163 -0.173853 -1.684 
-0.940023 -0.174576 -1.691 
-0.937376 -0.175402 -1.699 
-0.930282 -0.175402 -1.699 
-0.926992 -0.176125 -1.706 
-0.919869 -0.176125 -1.706 
-0.917026 -0.176951 -1.714 
-0.909869 -0.176951 -1.714 
-0.906926 -0.177776 -1.722 
-0.899736 -0.177776 -1.722 
-0.892546 -0.177776 -1.722 
-0.885356 -0.177776 -1.722 
-0.878166 -0.177776 -1.722 
-0.870976 -0.177776 -1.722 
-0.863786 -0.177776 -1.722 
-0.856596 -0.177776 -1.722 
-0.849406 -0.177776 -1.722 
-0.842216 -0.177776 -1.722 
-0.835026 -0.177776 -1.722 
-0.831201 -0.178499 -1.729 
-0.823982 -0.178499 -1.729 
-0.816763 -0.178499 -1.729 
-0.813289 -0.179325 -1.737 
-0.809749 -0.180151 -1.745 
-0.806142 -0.180977 -1.753 
-0.802468 -0.181803 -1.761 
-0.798728 -0.182629 -1.769 
-0.791341 -0.182629 -1.769 
-0.787944 -0.183558 -1.778 
-0.784032 -0.184384 -1.786 
-0.780053 -0.18521 -1.794 
-0.779883 -0.186965 -1.811 
-0.772322 -0.186965 -1.811 
-0.768561 -0.187894 -1.82 
-0.764724 -0.188823 -1.829 
-0.760813 -0.189752 -1.838 
-0.756417 -0.190578 -1.846 
-0.75236 -0.191507 -1.855 
-0.748227 -0.192436 -1.864 
-0.744416 -0.193469 -1.874 
-0.740129 -0.194398 -1.883 
-0.735767 -0.195327 -1.892 
-0.731714 -0.196359 -1.902 
-0.727198 -0.197288 -1.911 
-0.722982 -0.198321 -1.921 
-0.718311 -0.19925 -1.93 
-0.713932 -0.200282 -1.94 
-0.705832 -0.200282 -1.94 
-0.701329 -0.201315 -1.95 
-0.696741 -0.202347 -1.96 
-0.692071 -0.20338 -1.97 
-0.683845 -0.20338 -1.97 
-0.679049 -0.204412 -1.98 
-0.670782 -0.204412 -1.98 
-0.662515 -0.204412 -1.98 
-0.654248 -0.204412 -1.98 
-0.649569 -0.205548 -1.991 
-0.644477 -0.20658 -2.001 
-0.636122 -0.20658 -2.001 
-0.631218 -0.207716 -2.012 
-0.622817 -0.207716 -2.012 
-0.614417 -0.207716 -2.012 
-0.609028 -0.208748 -2.022 
-0.600585 -0.208748 -2.022 
-0.595364 -0.209884 -2.033 
-0.590051 -0.211019 -2.044 
-0.581517 -0.211019 -2.044 
-0.572982 -0.211019 -2.044 
-0.564448 -0.211019 -2.044 
-0.558905 -0.212155 -2.055 
-0.550325 -0.212155 -2.055 
-0.544644 -0.21329 -2.066 
-0.536018 -0.21329 -2.066 
-0.530199 -0.214426 -2.077 
-0.52454 -0.215665 -2.089 
-0.518534 -0.216801 -2.1 
-0.509766 -0.216801 -2.1 
-0.503861 -0.218039 -2.112 
-0.497621 -0.219175 -2.123 
-0.491519 -0.220414 -2.135 
-0.485317 -0.221653 -2.147 
-0.476353 -0.221653 -2.147 
-0.47 -0.222892 -2.159 
-0.463762 -0.224234 -2.172 
-0.457205 -0.225473 -2.184 
-0.448086 -0.225473 -2.184 
-0.44158 -0.226815 -2.197 
-0.434768 -0.228054 -2.209 
-0.428049 -0.229396 -2.222 
-0.421222 -0.230738 -2.235 
-0.414285 -0.23208 -2.248 
-0.407421 -0.233525 -2.262 
-0.400263 -0.234867 -2.275 
-0.393169 -0.236313 -2.289 
-0.38579 -0.237655 -2.302 
-0.378467 -0.2391 -2.316 
-0.368796 -0.2391 -2.316 
-0.361452 -0.240649 -2.331 
-0.351719 -0.240649 -2.331 
-0.344041 -0.242094 -2.345 
-0.334249 -0.242094 -2.345 
-0.326395 -0.243539 -2.359 
-0.318558 -0.245088 -2.374 
-0.308646 -0.245088 -2.374 
-0.300621 -0.246636 -2.389 
-0.290646 -0.246636 -2.389 
-0.284196 -0.249734 -2.419 
-0.274096 -0.249734 -2.419 
-0.265633 -0.251282 -2.434 
-0.25547 -0.251282 -2.434 
-0.24692 -0.252934 -2.45 
-0.23669 -0.252934 -2.45 
-0.227939 -0.254586 -2.466 
-0.217643 -0.254586 -2.466 
-0.207346 -0.254586 -2.466 
-0.19705 -0.254586 -2.466 
-0.186754 -0.254586 -2.466 
-0.176457 -0.254586 -2.466 
-0.166161 -0.254586 -2.466 
-0.156876 -0.256238 -2.482 
-0.146512 -0.256238 -2.482 
-0.137027 -0.257889 -2.498 
-0.126597 -0.257889 -2.498 
-0.117701 -0.261296 -2.531 
-0.107853 -0.263051 -2.548 
-0.0978628 -0.264806 -2.565 
-0.0877306 -0.266561 -2.582 
-0.0780228 -0.270278 -2.618 
-0.067553 -0.272136 -2.636 
-0.0569329 -0.273995 -2.654 
-0.0461797 -0.275956 -2.673 
-0.0352679 -0.277918 -2.692 
-0.0240278 -0.277918 -2.692 
-0.012878 -0.279879 -2.711 
-0.00158105 -0.283906 -2.75 
0.00997319 -0.28597 -2.77 
0.0216944 -0.288035 -2.79 
0.0335827 -0.2901 -2.81 
0.0459928 -0.294436 -2.852 
0.0579009 -0.294436 -2.852 
0.0703475 -0.296707 -2.874 
0.0823475 -0.296707 -2.874 
0.0950369 -0.298875 -2.895 
0.107125 -0.298875 -2.895 
0.119212 -0.298875 -2.895 
0.1313 -0.298875 -2.895 
0.144527 -0.30125 -2.918 
0.15671 -0.30125 -2.918 
0.168894 -0.30125 -2.918 
0.181078 -0.30125 -2.918 
0.194719 -0.303521 -2.94 
0.208613 -0.305895 -2.963 
0.220985 -0.305895 -2.963 
0.233357 -0.305895 -2.963 
0.245728 -0.305895 -2.963 
0.2581 -0.305895 -2.963 
0.272571 -0.30827 -2.986 
0.285039 -0.30827 -2.986 
0.297506 -0.30827 -2.986 
0.312361 -0.310644 -3.009 
0.324925 -0.310644 -3.009 
0.337489 -0.310644 -3.009 
0.352844 -0.313122 -3.033 
0.365508 -0.313122 -3.033 
0.378172 -0.313122 -3.033 
0.394057 -0.315703 -3.058 
0.406826 -0.315703 -3.058 
0.419594 -0.315703 -3.058 
0.432362 -0.315703 -3.058 
0.448624 -0.318181 -3.082 
0.465236 -0.320762 -3.107 
0.478209 -0.320762 -3.107 
0.491182 -0.320762 -3.107 
0.508373 -0.323446 -3.133 
0.525782 -0.32613 -3.159 
0.538972 -0.32613 -3.159 
0.556706 -0.328814 -3.185 
0.579669 -0.334389 -3.239 
0.603449 -0.34017 -3.295 
0.622639 -0.343164 -3.324 
0.636518 -0.343164 -3.324 
0.656071 -0.346158 -3.353 
0.675866 -0.349152 -3.382 
0.696312 -0.352352 -3.413 
0.710563 -0.352352 -3.413 
0.731184 -0.35545 -3.443 
0.74556 -0.35545 -3.443 
0.759936 -0.35545 -3.443 
0.774311 -0.35545 -3.443 
0.796017 -0.358753 -3.475 
0.803063 -0.35545 -3.443 
0.817439 -0.35545 -3.443 
0.824567 -0.352352 -3.413 
0.831198 -0.349152 -3.382 
0.838071 -0.346158 -3.353 
0.844701 -0.343164 -3.324 
0.843857 -0.33728 -3.267 
0.850149 -0.334389 -3.239 
0.863673 -0.334389 -3.239 
0.877197 -0.334389 -3.239 
0.890721 -0.334389 -3.239 
0.912062 -0.33728 -3.267 
0.925703 -0.33728 -3.267 
0.939343 -0.33728 -3.267 
0.952984 -0.33728 -3.267 
0.966625 -0.33728 -3.267 
0.980266 -0.33728 -3.267 
0.993907 -0.33728 -3.267 
0.998913 -0.334389 -3.239 
1.01244 -0.334389 -3.239 
1.02596 -0.334389 -3.239 
1.03082 -0.331602 -3.212 
1.03545 -0.328814 -3.185 
1.04875 -0.328814 -3.185 
1.05338 -0.32613 -3.159 
1.06657 -0.32613 -3.159 
1.07976 -0.32613 -3.159 
1.08395 -0.323446 -3.133 
1.09704 -0.323446 -3.133 
1.11933 -0.32613 -3.159 
1.13252 -0.32613 -3.159 
1.14571 -0.32613 -3.159 
1.1589 -0.32613 -3.159 
1.17209 -0.32613 -3.159 
1.18528 -0.32613 -3.159 
1.19847 -0.32613 -3.159 
1.21166 -0.32613 -3.159 
1.21477 -0.323446 -3.133 
1.21766 -0.320762 -3.107 
1.22073 -0.318181 -3.082 
1.22399 -0.315703 -3.058 
1.22665 -0.313122 -3.033 
1.22011 -0.30827 -2.986 
1.20451 -0.30125 -2.918 
1.18042 -0.292268 -2.831 
1.16655 -0.28597 -2.77 
1.15302 -0.279879 -2.711 
1.13986 -0.273995 -2.654 
1.12752 -0.26842 -2.6 
1.12305 -0.264806 -2.565 
1.11873 -0.261296 -2.531 
1.11458 -0.257889 -2.498 
1.12501 -0.257889 -2.498 
1.13544 -0.257889 -2.498 
1.14587 -0.257889 -2.498 
1.1563 -0.257889 -2.498 
1.15926 -0.256238 -2.482 
1.16962 -0.256238 -2.482 
1.17238 -0.254586 -2.466 
1.18267 -0.254586 -2.466 
1.18523 -0.252934 -2.45 
1.18033 -0.249734 -2.419 
1.19043 -0.249734 -2.419 
1.19309 -0.248185 -2.404 
1.20313 -0.248185 -2.404 
1.20559 -0.246636 -2.389 
1.20794 -0.245088 -2.374 
1.21785 -0.245088 -2.374 
1.22 -0.243539 -2.359 
1.22985 -0.243539 -2.359 
1.23234 -0.242094 -2.345 
1.23472 -0.240649 -2.331 
1.24445 -0.240649 -2.331 
1.25419 -0.240649 -2.331 
1.26392 -0.240649 -2.331 
1.26546 -0.2391 -2.316 
1.27513 -0.2391 -2.316 
1.2848 -0.2391 -2.316 
1.30285 -0.240649 -2.331 
1.31258 -0.240649 -2.331 
1.32232 -0.240649 -2.331 
1.33205 -0.240649 -2.331 
1.34984 -0.242094 -2.345 
1.35963 -0.242094 -2.345 
1.36942 -0.242094 -2.345 
1.37921 -0.242094 -2.345 
1.389 -0.242094 -2.345 
1.39044 -0.240649 -2.331 
1.40018 -0.240649 -2.331 
1.41838 -0.242094 -2.345 
1.4367 -0.243539 -2.359 
1.44655 -0.243539 -2.359 
1.46566 -0.245088 -2.374 
1.47557 -0.245088 -2.374 
1.48548 -0.245088 -2.374 
1.49539 -0.245088 -2.374 
1.5053 -0.245088 -2.374 
1.52479 -0.246636 -2.389 
1.52513 -0.245088 -2.374 
1.53504 -0.245088 -2.374 
1.54495 -0.245088 -2.374 
1.55487 -0.245088 -2.374 
1.56478 -0.245088 -2.374 
1.57469 -0.245088 -2.374 
1.59462 -0.246636 -2.389 
1.61466 -0.248185 -2.404 
1.63484 -0.249734 -2.419 
1.64494 -0.249734 -2.419 
1.65504 -0.249734 -2.419 
1.66514 -0.249734 -2.419 
1.67524 -0.249734 -2.419 
1.68534 -0.249734 -2.419 
1.69544 -0.249734 -2.419 
1.70554 -0.249734 -2.419 
1.71564 -0.249734 -2.419 
1.72574 -0.249734 -2.419 
1.73584 -0.249734 -2.419 
1.74594 -0.249734 -2.419 
1.75604 -0.249734 -2.419 
1.76614 -0.249734 -2.419 
1.76523 -0.248185 -2.404 
1.76419 -0.246636 -2.389 
1.77416 -0.246636 -2.389 
1.78414 -0.246636 -2.389 
1.78285 -0.245088 -2.374 
1.78143 -0.243539 -2.359 
1.79128 -0.243539 -2.359 
1.79044 -0.242094 -2.345 
1.78949 -0.240649 -2.331 
1.79922 -0.240649 -2.331 
1.79731 -0.2391 -2.316 
1.80698 -0.2391 -2.316 
1.81665 -0.2391 -2.316 
1.81528 -0.237655 -2.302 
1.82489 -0.237655 -2.302 
1.83451 -0.237655 -2.302 
1.84412 -0.237655 -2.302 
1.85373 -0.237655 -2.302 
1.87467 -0.2391 -2.316 
1.88434 -0.2391 -2.316 
1.90628 -0.240649 -2.331 
1.92752 -0.242094 -2.345 
1.94888 -0.243539 -2.359 
1.98364 -0.246636 -2.389 
2.01865 -0.249734 -2.419 
2.06817 -0.254586 -2.466 
2.11976 -0.259644 -2.515 
2.18701 -0.266561 -2.582 
2.25908 -0.273995 -2.654 
2.33517 -0.281841 -2.73 
2.41533 -0.2901 -2.81 
2.50048 -0.298875 -2.895 
2.61151 -0.310644 -3.009 
2.68773 -0.318181 -3.082 
2.79086 -0.328814 -3.185 
2.901 -0.34017 -3.295 
2.99172 -0.349152 -3.382 
3.06006 -0.35545 -3.443 
3.16016 -0.365361 -3.539 
3.26554 -0.375788 -3.64 
3.37718 -0.386834 -3.747 
3.49605 -0.398603 -3.861 
3.65953 -0.415328 -4.023 
3.83808 -0.433601 -4.2 
4.03279 -0.453526 -4.393 
4.19592 -0.469735 -4.55 
4.42612 -0.493273 -4.778 
4.61915 -0.512475 -4.964 
4.82775 -0.533226 -5.165 
5.05399 -0.555732 -5.383 
5.22359 -0.571837 -5.539 
5.48542 -0.597853 -5.791 
5.6818 -0.616539 -5.972 
5.89116 -0.636464 -6.165 
6.11365 -0.657628 -6.37 
6.35232 -0.680341 -6.59 
6.49116 -0.692213 -6.705 
6.88182 -0.730721 -7.078 
7.04124 -0.744452 -7.211 
7.34887 -0.773668 -7.494 
7.68151 -0.805259 -7.8 
7.87529 -0.822087 -7.963 
8.43491 -0.876803 -8.493 
8.66286 -0.896728 -8.686 
8.90143 -0.917583 -8.888 
9.37501 -0.962388 -9.322 
9.89664 -1.01174 -9.8 
-1.27276 -0.146083 -1.36 
-1.26708 -0.146083 -1.36 
-1.26604 -0.14662 -1.365 
-1.26034 -0.14662 -1.365 
-1.25924 -0.147157 -1.37 
-1.2581 -0.147694 -1.375 
-1.25235 -0.147694 -1.375 
-1.25115 -0.148231 -1.38 
-1.2499 -0.148768 -1.385 
-1.2486 -0.149305 -1.39 
-1.2428 -0.149305 -1.39 
-1.24145 -0.149842 -1.395 
-1.24005 -0.150379 -1.4 
-1.23861 -0.150916 -1.405 
-1.23275 -0.150916 -1.405 
-1.23125 -0.151453 -1.41 
-1.22536 -0.151453 -1.41 
-1.22466 -0.152098 -1.416 
-1.22305 -0.152635 -1.421 
-1.2214 -0.153172 -1.426 
-1.21971 -0.153709 -1.431 
-1.21373 -0.153709 -1.431 
-1.21282 -0.154353 -1.437 
-1.21102 -0.154891 -1.442 
-1.205 -0.154891 -1.442 
-1.20397 -0.155535 -1.448 
-1.19792 -0.155535 -1.448 
-1.19599 -0.156072 -1.453 
-1.19484 -0.156717 -1.459 
-1.18875 -0.156717 -1.459 
-1.18671 -0.157254 -1.464 
-1.1806 -0.157254 -1.464 
-1.1793 -0.157898 -1.47 
-1.17316 -0.157898 -1.47 
-1.16702 -0.157898 -1.47 
-1.16562 -0.158543 -1.476 
-1.15946 -0.158543 -1.476 
-1.1572 -0.15908 -1.481 
-1.15568 -0.159724 -1.487 
-1.14947 -0.159724 -1.487 
-1.14788 -0.160369 -1.493 
-1.14165 -0.160369 -1.493 
-1.13997 -0.161013 -1.499 
-1.13825 -0.161658 -1.505 
-1.13648 -0.162302 -1.511 
-1.13017 -0.162302 -1.511 
-1.12833 -0.162947 -1.517 
-1.12199 -0.162947 -1.517 
-1.12007 -0.163591 -1.523 
-1.11371 -0.163591 -1.523 
-1.11172 -0.164236 -1.529 
-1.10533 -0.164236 -1.529 
-1.09895 -0.164236 -1.529 
-1.09685 -0.16488 -1.535 
-1.09044 -0.16488 -1.535 
-1.08403 -0.16488 -1.535 
-1.07762 -0.16488 -1.535 
-1.07121 -0.16488 -1.535 
-1.06897 -0.165525 -1.541 
-1.06253 -0.165525 -1.541 
-1.0561 -0.165525 -1.541 
-1.04966 -0.165525 -1.541 
-1.04729 -0.166169 -1.547 
-1.04554 -0.166921 -1.554 
-1.03905 -0.166921 -1.554 
-1.03655 -0.167565 -1.56 
-1.03004 -0.167565 -1.56 
-1.02746 -0.16821 -1.566 
-1.02549 -0.168962 -1.573 
-1.02281 -0.169606 -1.579 
-1.02072 -0.170358 -1.586 
-1.01857 -0.17111 -1.593 
-1.01573 -0.171755 -1.599 
-1.01347 -0.172506 -1.606 
-1.00677 -0.172506 -1.606 
-1.00442 -0.173258 -1.613 
-0.997685 -0.173258 -1.613 
-0.995251 -0.17401 -1.62 
-0.992148 -0.174655 -1.626 
-0.985359 -0.174655 -1.626 
-0.982783 -0.175407 -1.633 
-0.980148 -0.176158 -1.64 
-0.977455 -0.17691 -1.647 
-0.975292 -0.17777 -1.655 
-0.972478 -0.178522 -1.662 
-0.965538 -0.178522 -1.662 
-0.962636 -0.179273 -1.669 
-0.959676 -0.180025 -1.676 
-0.957225 -0.180885 -1.684 
-0.950194 -0.180885 -1.684 
-0.947083 -0.181637 -1.691 
-0.94447 -0.182496 -1.699 
-0.937376 -0.182496 -1.699 
-0.930282 -0.182496 -1.699 
-0.926992 -0.183248 -1.706 
-0.924182 -0.184107 -1.714 
-0.917026 -0.184107 -1.714 
-0.909869 -0.184107 -1.714 
-0.906926 -0.184966 -1.722 
-0.899736 -0.184966 -1.722 
-0.892546 -0.184966 -1.722 
-0.885356 -0.184966 -1.722 
-0.878166 -0.184966 -1.722 
-0.870976 -0.184966 -1.722 
-0.863786 -0.184966 -1.722 
-0.856596 -0.184966 -1.722 
-0.849406 -0.184966 -1.722 
-0.842216 -0.184966 -1.722 
-0.835026 -0.184966 -1.722 
-0.831201 -0.185718 -1.729 
-0.823982 -0.185718 -1.729 
-0.816763 -0.185718 -1.729 
-0.813289 -0.186578 -1.737 
-0.809749 -0.187437 -1.745 
-0.806142 -0.188296 -1.753 
-0.802468 -0.189156 -1.761 
-0.798728 -0.190015 -1.769 
-0.791341 -0.190015 -1.769 
-0.787944 -0.190982 -1.778 
-0.784032 -0.191841 -1.786 
-0.783966 -0.193667 -1.803 
-0.779883 -0.194526 -1.811 
-0.77616 -0.195493 -1.82 
-0.768561 -0.195493 -1.82 
-0.764724 -0.19646 -1.829 
-0.760813 -0.197426 -1.838 
-0.756417 -0.198286 -1.846 
-0.75236 -0.199252 -1.855 
-0.748227 -0.200219 -1.864 
-0.740444 -0.200219 -1.864 
-0.736592 -0.201293 -1.874 
-0.732267 -0.20226 -1.883 
-0.727867 -0.203227 -1.892 
-0.723773 -0.204301 -1.902 
-0.719218 -0.205268 -1.911 
-0.714961 -0.206342 -1.921 
-0.710252 -0.207308 -1.93 
-0.705832 -0.208383 -1.94 
-0.701329 -0.209457 -1.95 
-0.696741 -0.210531 -1.96 
-0.688558 -0.210531 -1.96 
-0.683845 -0.211605 -1.97 
-0.67562 -0.211605 -1.97 
-0.670782 -0.212679 -1.98 
-0.662515 -0.212679 -1.98 
-0.654248 -0.212679 -1.98 
-0.645981 -0.212679 -1.98 
-0.641256 -0.213861 -1.991 
-0.636122 -0.214935 -2.001 
-0.627767 -0.214935 -2.001 
-0.622817 -0.216116 -2.012 
-0.614417 -0.216116 -2.012 
-0.609028 -0.217191 -2.022 
-0.600585 -0.217191 -2.022 
-0.595364 -0.218372 -2.033 
-0.590051 -0.219554 -2.044 
-0.581517 -0.219554 -2.044 
-0.572982 -0.219554 -2.044 
-0.564448 -0.219554 -2.044 
-0.558905 -0.220735 -2.055 
-0.550325 -0.220735 -2.055 
-0.541744 -0.220735 -2.055 
-0.536018 -0.221917 -2.066 
-0.527391 -0.221917 -2.066 
-0.521527 -0.223098 -2.077 
-0.515818 -0.224387 -2.089 
-0.509766 -0.225569 -2.1 
-0.503861 -0.226858 -2.112 
-0.495042 -0.226858 -2.112 
-0.488756 -0.228039 -2.123 
-0.482604 -0.229328 -2.135 
-0.476353 -0.230617 -2.147 
-0.47 -0.231906 -2.159 
-0.463762 -0.233303 -2.172 
-0.454693 -0.233303 -2.172 
-0.448086 -0.234592 -2.184 
-0.44158 -0.235988 -2.197 
-0.434768 -0.237277 -2.209 
-0.428049 -0.238673 -2.222 
-0.421222 -0.24007 -2.235 
-0.414285 -0.241466 -2.248 
-0.407421 -0.24297 -2.262 
-0.400263 -0.244366 -2.275 
-0.393169 -0.24587 -2.289 
-0.38579 -0.247266 -2.302 
-0.378467 -0.24877 -2.316 
-0.368796 -0.24877 -2.316 
-0.361452 -0.250381 -2.331 
-0.351719 -0.250381 -2.331 
-0.341987 -0.250381 -2.331 
-0.334249 -0.251885 -2.345 
-0.326395 -0.253389 -2.359 
-0.318558 -0.255 -2.374 
-0.308646 -0.255 -2.374 
-0.300621 -0.256611 -2.389 
-0.290646 -0.256611 -2.389 
-0.284196 -0.259834 -2.419 
-0.274096 -0.259834 -2.419 
-0.265633 -0.261445 -2.434 
-0.25547 -0.261445 -2.434 
-0.24692 -0.263164 -2.45 
-0.23669 -0.263164 -2.45 
-0.227939 -0.264882 -2.466 
-0.217643 -0.264882 -2.466 
-0.207346 -0.264882 -2.466 
-0.19705 -0.264882 -2.466 
-0.186754 -0.264882 -2.466 
-0.177602 -0.266601 -2.482 
-0.167239 -0.266601 -2.482 
-0.156876 -0.266601 -2.482 
-0.146512 -0.266601 -2.482 
-0.137027 -0.268319 -2.498 
-0.127458 -0.270145 -2.515 
-0.116957 -0.270145 -2.515 
-0.107853 -0.27369 -2.548 
-0.0978628 -0.275516 -2.565 
-0.0877306 -0.277342 -2.582 
-0.0774863 -0.279276 -2.6 
-0.0670917 -0.281209 -2.618 
-0.0565467 -0.283143 -2.636 
-0.0458515 -0.285076 -2.654 
-0.035019 -0.287117 -2.673 
-0.0240278 -0.289158 -2.692 
-0.012878 -0.291199 -2.711 
-0.00158105 -0.295388 -2.75 
0.00997319 -0.297536 -2.77 
0.0216944 -0.299684 -2.79 
0.0335827 -0.301833 -2.81 
0.0456541 -0.304088 -2.831 
0.0579009 -0.306344 -2.852 
0.069809 -0.306344 -2.852 
0.0823475 -0.308707 -2.874 
0.0950369 -0.310963 -2.895 
0.107125 -0.310963 -2.895 
0.119212 -0.310963 -2.895 
0.1313 -0.310963 -2.895 
0.144527 -0.313433 -2.918 
0.15671 -0.313433 -2.918 
0.168894 -0.313433 -2.918 
0.182443 -0.315796 -2.94 
0.194719 -0.315796 -2.94 
0.208613 -0.318267 -2.963 
0.220985 -0.318267 -2.963 
0.233357 -0.318267 -2.963 
0.245728 -0.318267 -2.963 
0.2581 -0.318267 -2.963 
0.272571 -0.320737 -2.986 
0.285039 -0.320737 -2.986 
0.297506 -0.320737 -2.986 
0.312361 -0.323208 -3.009 
0.324925 -0.323208 -3.009 
0.337489 -0.323208 -3.009 
0.352844 -0.325786 -3.033 
0.365508 -0.325786 -3.033 
0.378172 -0.325786 -3.033 
0.394057 -0.328471 -3.058 
0.406826 -0.328471 -3.058 
0.419594 -0.328471 -3.058 
0.432362 -0.328471 -3.058 
0.44513 -0.328471 -3.058 
0.461492 -0.331049 -3.082 
0.478209 -0.333734 -3.107 
0.491182 -0.333734 -3.107 
0.508373 -0.336527 -3.133 
0.521455 -0.336527 -3.133 
0.538972 -0.33932 -3.159 
0.556706 -0.342113 -3.185 
0.574837 -0.345013 -3.212 
0.603449 -0.353928 -3.295 
0.622639 -0.357043 -3.324 
0.636518 -0.357043 -3.324 
0.656071 -0.360158 -3.353 
0.670071 -0.360158 -3.353 
0.696312 -0.366603 -3.413 
0.716808 -0.369825 -3.443 
0.731184 -0.369825 -3.443 
0.74556 -0.369825 -3.443 
0.759936 -0.369825 -3.443 
0.781508 -0.373263 -3.475 
0.796017 -0.373263 -3.475 
0.803063 -0.369825 -3.443 
0.810316 -0.366603 -3.413 
0.817077 -0.363273 -3.382 
0.831198 -0.363273 -3.382 
0.830822 -0.357043 -3.324 
0.837332 -0.353928 -3.295 
0.843857 -0.350921 -3.267 
0.850149 -0.347913 -3.239 
0.856473 -0.345013 -3.212 
0.877197 -0.347913 -3.239 
0.890721 -0.347913 -3.239 
0.904245 -0.347913 -3.239 
0.917769 -0.347913 -3.239 
0.931293 -0.347913 -3.239 
0.944817 -0.347913 -3.239 
0.958341 -0.347913 -3.239 
0.971865 -0.347913 -3.239 
0.985389 -0.347913 -3.239 
0.998913 -0.347913 -3.239 
1.004 -0.345013 -3.212 
1.01741 -0.345013 -3.212 
1.02215 -0.342113 -3.185 
1.03545 -0.342113 -3.185 
1.04019 -0.33932 -3.159 
1.05338 -0.33932 -3.159 
1.06657 -0.33932 -3.159 
1.07087 -0.336527 -3.133 
1.08395 -0.336527 -3.133 
1.08793 -0.333734 -3.107 
1.11012 -0.336527 -3.133 
1.1232 -0.336527 -3.133 
1.13628 -0.336527 -3.133 
1.14936 -0.336527 -3.133 
1.16244 -0.336527 -3.133 
1.17552 -0.336527 -3.133 
1.18861 -0.336527 -3.133 
1.20169 -0.336527 -3.133 
1.21477 -0.336527 -3.133 
1.21766 -0.333734 -3.107 
1.22073 -0.331049 -3.082 
1.22399 -0.328471 -3.058 
1.22665 -0.325786 -3.033 
1.22011 -0.320737 -2.986 
1.20451 -0.313433 -2.918 
1.18042 -0.304088 -2.831 
1.16655 -0.297536 -2.77 
1.15302 -0.291199 -2.711 
1.13213 -0.283143 -2.636 
1.12752 -0.279276 -2.6 
1.11561 -0.27369 -2.548 
1.11166 -0.270145 -2.515 
1.11458 -0.268319 -2.498 
1.12501 -0.268319 -2.498 
1.13544 -0.268319 -2.498 
1.14587 -0.268319 -2.498 
1.14889 -0.266601 -2.482 
1.15926 -0.266601 -2.482 
1.16962 -0.266601 -2.482 
1.17238 -0.264882 -2.466 
1.175 -0.263164 -2.45 
1.17749 -0.261445 -2.434 
1.18033 -0.259834 -2.419 
1.19043 -0.259834 -2.419 
1.19309 -0.258223 -2.404 
1.20313 -0.258223 -2.404 
1.20559 -0.256611 -2.389 
1.20794 -0.255 -2.374 
1.21785 -0.255 -2.374 
1.22776 -0.255 -2.374 
1.22985 -0.253389 -2.359 
1.23234 -0.251885 -2.345 
1.23472 -0.250381 -2.331 
1.24445 -0.250381 -2.331 
1.25419 -0.250381 -2.331 
1.26392 -0.250381 -2.331 
1.26546 -0.24877 -2.316 
1.27513 -0.24877 -2.316 
1.29312 -0.250381 -2.331 
1.30285 -0.250381 -2.331 
1.32047 -0.251885 -2.345 
1.33026 -0.251885 -2.345 
1.34005 -0.251885 -2.345 
1.34984 -0.251885 -2.345 
1.36775 -0.253389 -2.359 
1.36942 -0.251885 -2.345 
1.37921 -0.251885 -2.345 
1.389 -0.251885 -2.345 
1.3988 -0.251885 -2.345 
1.40018 -0.250381 -2.331 
1.41838 -0.251885 -2.345 
1.4367 -0.253389 -2.359 
1.44655 -0.253389 -2.359 
1.46566 -0.255 -2.374 
1.47557 -0.255 -2.374 
1.48548 -0.255 -2.374 
1.49539 -0.255 -2.374 
1.5053 -0.255 -2.374 
1.52479 -0.256611 -2.389 
1.52513 -0.255 -2.374 
1.53504 -0.255 -2.374 
1.54495 -0.255 -2.374 
1.55487 -0.255 -2.374 
1.56478 -0.255 -2.374 
1.58464 -0.256611 -2.389 
1.60463 -0.258223 -2.404 
1.62474 -0.259834 -2.419 
1.63484 -0.259834 -2.419 
1.65514 -0.261445 -2.434 
1.6653 -0.261445 -2.434 
1.67547 -0.261445 -2.434 
1.69671 -0.263164 -2.45 
1.70694 -0.263164 -2.45 
1.71717 -0.263164 -2.45 
1.7274 -0.263164 -2.45 
1.72628 -0.261445 -2.434 
1.73644 -0.261445 -2.434 
1.74661 -0.261445 -2.434 
1.75677 -0.261445 -2.434 
1.76693 -0.261445 -2.434 
1.76614 -0.259834 -2.419 
1.77624 -0.259834 -2.419 
1.78634 -0.259834 -2.419 
1.7853 -0.258223 -2.404 
1.78414 -0.256611 -2.389 
1.79411 -0.256611 -2.389 
1.79276 -0.255 -2.374 
1.79128 -0.253389 -2.359 
1.80113 -0.253389 -2.359 
1.80024 -0.251885 -2.345 
1.81003 -0.251885 -2.345 
1.80895 -0.250381 -2.331 
1.81869 -0.250381 -2.331 
1.81665 -0.24877 -2.316 
1.82632 -0.24877 -2.316 
1.83599 -0.24877 -2.316 
1.84566 -0.24877 -2.316 
1.85533 -0.24877 -2.316 
1.865 -0.24877 -2.316 
1.87467 -0.24877 -2.316 
1.89655 -0.250381 -2.331 
1.90628 -0.250381 -2.331 
1.92752 -0.251885 -2.345 
1.96127 -0.255 -2.374 
1.99609 -0.258223 -2.404 
2.03116 -0.261445 -2.434 
2.06817 -0.264882 -2.466 
2.11976 -0.270145 -2.515 
2.18701 -0.277342 -2.582 
2.24376 -0.283143 -2.636 
2.33517 -0.293239 -2.73 
2.43338 -0.304088 -2.831 
2.52035 -0.313433 -2.918 
2.61151 -0.323208 -3.009 
2.70954 -0.333734 -3.107 
2.81452 -0.345013 -3.212 
2.92653 -0.357043 -3.324 
3.01914 -0.366603 -3.413 
3.11605 -0.376592 -3.506 
3.18962 -0.383682 -3.572 
3.29694 -0.394745 -3.675 
3.41053 -0.406453 -3.784 
3.53136 -0.418913 -3.9 
3.69865 -0.436744 -4.066 
3.88103 -0.456186 -4.247 
4.03279 -0.471868 -4.393 
4.19592 -0.488732 -4.55 
4.42612 -0.513223 -4.778 
4.61915 -0.533202 -4.964 
4.82775 -0.554792 -5.165 
5.05399 -0.578208 -5.383 
5.30092 -0.603772 -5.621 
5.56972 -0.631593 -5.88 
5.77218 -0.651679 -6.067 
5.98768 -0.673054 -6.266 
6.3248 -0.707856 -6.59 
6.57884 -0.733099 -6.825 
6.85227 -0.760274 -7.078 
7.14628 -0.789491 -7.35 
7.31758 -0.804958 -7.494 
7.49597 -0.82107 -7.644 
7.68151 -0.837827 -7.8 
7.87529 -0.855335 -7.963 
8.25217 -0.892501 -8.309 
8.47037 -0.912265 -8.493 
8.90143 -0.954693 -8.888 
9.15175 -0.977465 -9.1 
9.41393 -1.00131 -9.322 
-1.27276 -0.151761 -1.36 
-1.26708 -0.151761 -1.36 
-1.26604 -0.152319 -1.365 
-1.26034 -0.152319 -1.365 
-1.25924 -0.152877 -1.37 
-1.2581 -0.153435 -1.375 
-1.25691 -0.153993 -1.38 
-1.25115 -0.153993 -1.38 
-1.2499 -0.154551 -1.385 
-1.2486 -0.155109 -1.39 
-1.24727 -0.155667 -1.395 
-1.24145 -0.155667 -1.395 
-1.24005 -0.156225 -1.4 
-1.23861 -0.156783 -1.405 
-1.23275 -0.156783 -1.405 
-1.23125 -0.157341 -1.41 
-1.22536 -0.157341 -1.41 
-1.22466 -0.15801 -1.416 
-1.22305 -0.158568 -1.421 
-1.2214 -0.159126 -1.426 
-1.21545 -0.159126 -1.426 
-1.21373 -0.159684 -1.431 
-1.20776 -0.159684 -1.431 
-1.20682 -0.160353 -1.437 
-1.205 -0.160911 -1.442 
-1.20397 -0.161581 -1.448 
-1.19792 -0.161581 -1.448 
-1.19599 -0.162139 -1.453 
-1.18993 -0.162139 -1.453 
-1.18875 -0.162808 -1.459 
-1.18671 -0.163366 -1.464 
-1.1806 -0.163366 -1.464 
-1.1793 -0.164036 -1.47 
-1.17316 -0.164036 -1.47 
-1.16702 -0.164036 -1.47 
-1.16562 -0.164705 -1.476 
-1.16339 -0.165263 -1.481 
-1.1572 -0.165263 -1.481 
-1.15568 -0.165933 -1.487 
-1.15411 -0.166602 -1.493 
-1.14788 -0.166602 -1.493 
-1.14623 -0.167272 -1.499 
-1.13997 -0.167272 -1.499 
-1.13825 -0.167942 -1.505 
-1.13648 -0.168611 -1.511 
-1.13017 -0.168611 -1.511 
-1.12386 -0.168611 -1.511 
-1.12199 -0.169281 -1.517 
-1.12007 -0.16995 -1.523 
-1.11371 -0.16995 -1.523 
-1.10735 -0.16995 -1.523 
-1.10533 -0.17062 -1.529 
-1.09895 -0.17062 -1.529 
-1.09685 -0.171289 -1.535 
-1.09044 -0.171289 -1.535 
-1.08403 -0.171289 -1.535 
-1.07762 -0.171289 -1.535 
-1.07121 -0.171289 -1.535 
-1.06897 -0.171959 -1.541 
-1.06253 -0.171959 -1.541 
-1.0561 -0.171959 -1.541 
-1.04966 -0.171959 -1.541 
-1.04729 -0.172628 -1.547 
-1.04554 -0.173409 -1.554 
-1.03905 -0.173409 -1.554 
-1.03655 -0.174079 -1.56 
-1.034 -0.174748 -1.566 
-1.03205 -0.17553 -1.573 
-1.0294 -0.176199 -1.579 
-1.02734 -0.17698 -1.586 
-1.02522 -0.177761 -1.593 
-1.02241 -0.178431 -1.599 
-1.01573 -0.178431 -1.599 
-1.01347 -0.179212 -1.606 
-1.01116 -0.179993 -1.613 
-1.00442 -0.179993 -1.613 
-1.00202 -0.180774 -1.62 
-0.995251 -0.180774 -1.62 
-0.988487 -0.180774 -1.62 
-0.985359 -0.181444 -1.626 
-0.982783 -0.182225 -1.633 
-0.980148 -0.183006 -1.64 
-0.977455 -0.183787 -1.647 
-0.975292 -0.18468 -1.655 
-0.972478 -0.185461 -1.662 
-0.965538 -0.185461 -1.662 
-0.962636 -0.186242 -1.669 
-0.959676 -0.187023 -1.676 
-0.957225 -0.187916 -1.684 
-0.954144 -0.188697 -1.691 
-0.947083 -0.188697 -1.691 
-0.94447 -0.18959 -1.699 
-0.937376 -0.18959 -1.699 
-0.934115 -0.190371 -1.706 
-0.931339 -0.191264 -1.714 
-0.924182 -0.191264 -1.714 
-0.917026 -0.191264 -1.714 
-0.914116 -0.192156 -1.722 
-0.906926 -0.192156 -1.722 
-0.899736 -0.192156 -1.722 
-0.892546 -0.192156 -1.722 
-0.885356 -0.192156 -1.722 
-0.878166 -0.192156 -1.722 
-0.870976 -0.192156 -1.722 
-0.863786 -0.192156 -1.722 
-0.856596 -0.192156 -1.722 
-0.849406 -0.192156 -1.722 
-0.842216 -0.192156 -1.722 
-0.835026 -0.192156 -1.722 
-0.831201 -0.192938 -1.729 
-0.823982 -0.192938 -1.729 
-0.816763 -0.192938 -1.729 
-0.813289 -0.19383 -1.737 
-0.809749 -0.194723 -1.745 
-0.806142 -0.195616 -1.753 
-0.802468 -0.196508 -1.761 
-0.798728 -0.197401 -1.769 
-0.795367 -0.198405 -1.778 
-0.791489 -0.199298 -1.786 
-0.787544 -0.200191 -1.794 
-0.783966 -0.201195 -1.803 
-0.779883 -0.202088 -1.811 
-0.77616 -0.203092 -1.82 
-0.772361 -0.204096 -1.829 
-0.764724 -0.204096 -1.829 
-0.760813 -0.205101 -1.838 
-0.756417 -0.205993 -1.846 
-0.75236 -0.206998 -1.855 
-0.748227 -0.208002 -1.864 
-0.740444 -0.208002 -1.864 
-0.736592 -0.209118 -1.874 
-0.732267 -0.210122 -1.883 
-0.727867 -0.211127 -1.892 
-0.723773 -0.212242 -1.902 
-0.719218 -0.213247 -1.911 
-0.714961 -0.214363 -1.921 
-0.710252 -0.215367 -1.93 
-0.705832 -0.216483 -1.94 
-0.701329 -0.217599 -1.95 
-0.693187 -0.217599 -1.95 
-0.688558 -0.218715 -1.96 
-0.680374 -0.218715 -1.96 
-0.67562 -0.21983 -1.97 
-0.667394 -0.21983 -1.97 
-0.662515 -0.220946 -1.98 
-0.654248 -0.220946 -1.98 
-0.645981 -0.220946 -1.98 
-0.641256 -0.222174 -1.991 
-0.632943 -0.222174 -1.991 
-0.627767 -0.22329 -2.001 
-0.622817 -0.224517 -2.012 
-0.614417 -0.224517 -2.012 
-0.606016 -0.224517 -2.012 
-0.600585 -0.225633 -2.022 
-0.595364 -0.226861 -2.033 
-0.590051 -0.228088 -2.044 
-0.581517 -0.228088 -2.044 
-0.572982 -0.228088 -2.044 
-0.564448 -0.228088 -2.044 
-0.558905 -0.229316 -2.055 
-0.550325 -0.229316 -2.055 
-0.541744 -0.229316 -2.055 
-0.536018 -0.230543 -2.066 
-0.527391 -0.230543 -2.066 
-0.521527 -0.231771 -2.077 
-0.512855 -0.231771 -2.077 
-0.507096 -0.23311 -2.089 
-0.500998 -0.234337 -2.1 
-0.495042 -0.235676 -2.112 
-0.488756 -0.236904 -2.123 
-0.482604 -0.238243 -2.135 
-0.476353 -0.239582 -2.147 
-0.47 -0.240921 -2.159 
-0.463762 -0.242371 -2.172 
-0.454693 -0.242371 -2.172 
-0.448086 -0.243711 -2.184 
-0.44158 -0.245161 -2.197 
-0.434768 -0.2465 -2.209 
-0.428049 -0.247951 -2.222 
-0.421222 -0.249402 -2.235 
-0.414285 -0.250852 -2.248 
-0.407421 -0.252414 -2.262 
-0.400263 -0.253865 -2.275 
-0.393169 -0.255427 -2.289 
-0.38579 -0.256878 -2.302 
-0.376179 -0.256878 -2.302 
-0.368796 -0.25844 -2.316 
-0.361452 -0.260114 -2.331 
-0.351719 -0.260114 -2.331 
-0.344041 -0.261676 -2.345 
-0.334249 -0.261676 -2.345 
-0.326395 -0.263239 -2.359 
-0.318558 -0.264912 -2.374 
-0.308646 -0.264912 -2.374 
-0.300621 -0.266586 -2.389 
-0.290646 -0.266586 -2.389 
-0.282434 -0.26826 -2.404 
-0.274096 -0.269934 -2.419 
-0.265633 -0.271608 -2.434 
-0.25547 -0.271608 -2.434 
-0.24692 -0.273393 -2.45 
-0.23669 -0.273393 -2.45 
-0.227939 -0.275179 -2.466 
-0.217643 -0.275179 -2.466 
-0.208692 -0.276964 -2.482 
-0.198328 -0.276964 -2.482 
-0.187965 -0.276964 -2.482 
-0.177602 -0.276964 -2.482 
-0.167239 -0.276964 -2.482 
-0.156876 -0.276964 -2.482 
-0.147457 -0.278749 -2.498 
-0.137027 -0.278749 -2.498 
-0.127458 -0.280647 -2.515 
-0.116957 -0.280647 -2.515 
-0.107133 -0.282432 -2.531 
-0.0978628 -0.286226 -2.565 
-0.0877306 -0.288123 -2.582 
-0.0774863 -0.290132 -2.6 
-0.0670917 -0.29214 -2.618 
-0.0565467 -0.294149 -2.636 
-0.0458515 -0.296157 -2.654 
-0.035019 -0.298278 -2.673 
-0.0240278 -0.300398 -2.692 
-0.012878 -0.302518 -2.711 
-0.00156955 -0.304638 -2.73 
0.00990118 -0.30687 -2.75 
0.0216944 -0.311334 -2.79 
0.0335827 -0.313565 -2.81 
0.0456541 -0.315909 -2.831 
0.0579009 -0.318252 -2.852 
0.069809 -0.318252 -2.852 
0.0823475 -0.320707 -2.874 
0.0943475 -0.320707 -2.874 
0.107125 -0.32305 -2.895 
0.119212 -0.32305 -2.895 
0.1313 -0.32305 -2.895 
0.144527 -0.325617 -2.918 
0.15671 -0.325617 -2.918 
0.168894 -0.325617 -2.918 
0.182443 -0.328072 -2.94 
0.194719 -0.328072 -2.94 
0.208613 -0.330638 -2.963 
0.220985 -0.330638 -2.963 
0.233357 -0.330638 -2.963 
0.245728 -0.330638 -2.963 
0.2581 -0.330638 -2.963 
0.272571 -0.333205 -2.986 
0.285039 -0.333205 -2.986 
0.297506 -0.333205 -2.986 
0.312361 -0.335772 -3.009 
0.324925 -0.335772 -3.009 
0.337489 -0.335772 -3.009 
0.350052 -0.335772 -3.009 
0.365508 -0.33845 -3.033 
0.378172 -0.33845 -3.033 
0.390836 -0.33845 -3.033 
0.4035 -0.33845 -3.033 
0.419594 -0.341239 -3.058 
0.432362 -0.341239 -3.058 
0.44513 -0.341239 -3.058 
0.461492 -0.343918 -3.082 
0.474361 -0.343918 -3.082 
0.491182 -0.346707 -3.107 
0.504154 -0.346707 -3.107 
0.521455 -0.349609 -3.133 
0.534536 -0.349609 -3.133 
0.556706 -0.355411 -3.185 
0.574837 -0.358424 -3.212 
0.598321 -0.364561 -3.267 
0.617207 -0.367686 -3.295 
0.636518 -0.370922 -3.324 
0.650397 -0.370922 -3.324 
0.670071 -0.374158 -3.353 
0.689988 -0.377394 -3.382 
0.710563 -0.380854 -3.413 
0.731184 -0.384201 -3.443 
0.74556 -0.384201 -3.443 
0.759936 -0.384201 -3.443 
0.781508 -0.387772 -3.475 
0.796017 -0.387772 -3.475 
0.803063 -0.384201 -3.443 
0.810316 -0.380854 -3.413 
0.817077 -0.377394 -3.382 
0.824071 -0.374158 -3.353 
0.830822 -0.370922 -3.324 
0.837332 -0.367686 -3.295 
0.836625 -0.361437 -3.239 
0.843062 -0.358424 -3.212 
0.856473 -0.358424 -3.212 
0.869885 -0.358424 -3.212 
0.883296 -0.358424 -3.212 
0.904245 -0.361437 -3.239 
0.917769 -0.361437 -3.239 
0.931293 -0.361437 -3.239 
0.944817 -0.361437 -3.239 
0.958341 -0.361437 -3.239 
0.971865 -0.361437 -3.239 
0.985389 -0.361437 -3.239 
0.990586 -0.358424 -3.212 
1.004 -0.358424 -3.212 
1.01741 -0.358424 -3.212 
1.02215 -0.355411 -3.185 
1.03545 -0.355411 -3.185 
1.04019 -0.35251 -3.159 
1.05338 -0.35251 -3.159 
1.05779 -0.349609 -3.133 
1.07087 -0.349609 -3.133 
1.07496 -0.346707 -3.107 
1.08793 -0.346707 -3.107 
1.1009 -0.346707 -3.107 
1.11388 -0.346707 -3.107 
1.12685 -0.346707 -3.107 
1.14936 -0.349609 -3.133 
1.16244 -0.349609 -3.133 
1.17552 -0.349609 -3.133 
1.18861 -0.349609 -3.133 
1.20169 -0.349609 -3.133 
1.20469 -0.346707 -3.107 
1.21766 -0.346707 -3.107 
1.23063 -0.346707 -3.107 
1.22399 -0.341239 -3.058 
1.22665 -0.33845 -3.033 
1.22011 -0.333205 -2.986 
1.20451 -0.325617 -2.918 
1.18917 -0.318252 -2.852 
1.16655 -0.309102 -2.77 
1.15302 -0.302518 -2.711 
1.13213 -0.294149 -2.636 
1.12752 -0.290132 -2.6 
1.11561 -0.284329 -2.548 
1.11166 -0.280647 -2.515 
1.11458 -0.278749 -2.498 
1.1178 -0.276964 -2.482 
1.12817 -0.276964 -2.482 
1.14587 -0.278749 -2.498 
1.14889 -0.276964 -2.482 
1.15926 -0.276964 -2.482 
1.16208 -0.275179 -2.466 
1.17238 -0.275179 -2.466 
1.175 -0.273393 -2.45 
1.17749 -0.271608 -2.434 
1.18033 -0.269934 -2.419 
1.19043 -0.269934 -2.419 
1.19309 -0.26826 -2.404 
1.20313 -0.26826 -2.404 
1.20559 -0.266586 -2.389 
1.20794 -0.264912 -2.374 
1.21785 -0.264912 -2.374 
1.22776 -0.264912 -2.374 
1.22985 -0.263239 -2.359 
1.23234 -0.261676 -2.345 
1.23472 -0.260114 -2.331 
1.25193 -0.261676 -2.345 
1.25419 -0.260114 -2.331 
1.26392 -0.260114 -2.331 
1.27365 -0.260114 -2.331 
1.28338 -0.260114 -2.331 
1.30088 -0.261676 -2.345 
1.31067 -0.261676 -2.345 
1.32047 -0.261676 -2.345 
1.3382 -0.263239 -2.359 
1.34805 -0.263239 -2.359 
1.3579 -0.263239 -2.359 
1.36775 -0.263239 -2.359 
1.3776 -0.263239 -2.359 
1.37921 -0.261676 -2.345 
1.389 -0.261676 -2.345 
1.3988 -0.261676 -2.345 
1.40018 -0.260114 -2.331 
1.40991 -0.260114 -2.331 
1.42817 -0.261676 -2.345 
1.43796 -0.261676 -2.345 
1.45639 -0.263239 -2.359 
1.47557 -0.264912 -2.374 
1.48548 -0.264912 -2.374 
1.49539 -0.264912 -2.374 
1.5053 -0.264912 -2.374 
1.51522 -0.264912 -2.374 
1.53477 -0.266586 -2.389 
1.53504 -0.264912 -2.374 
1.55472 -0.266586 -2.389 
1.55487 -0.264912 -2.374 
1.57467 -0.266586 -2.389 
1.59459 -0.26826 -2.404 
1.61464 -0.269934 -2.419 
1.63481 -0.271608 -2.434 
1.65579 -0.273393 -2.45 
1.66602 -0.273393 -2.45 
1.67625 -0.273393 -2.45 
1.68648 -0.273393 -2.45 
1.69671 -0.273393 -2.45 
1.70694 -0.273393 -2.45 
1.71717 -0.273393 -2.45 
1.7274 -0.273393 -2.45 
1.73763 -0.273393 -2.45 
1.74786 -0.273393 -2.45 
1.75809 -0.273393 -2.45 
1.76832 -0.273393 -2.45 
1.77855 -0.273393 -2.45 
1.77709 -0.271608 -2.434 
1.77624 -0.269934 -2.419 
1.78634 -0.269934 -2.419 
1.79644 -0.269934 -2.419 
1.79534 -0.26826 -2.404 
1.79411 -0.266586 -2.389 
1.80409 -0.266586 -2.389 
1.80267 -0.264912 -2.374 
1.81259 -0.264912 -2.374 
1.81098 -0.263239 -2.359 
1.82083 -0.263239 -2.359 
1.81982 -0.261676 -2.345 
1.81869 -0.260114 -2.331 
1.82842 -0.260114 -2.331 
1.83815 -0.260114 -2.331 
1.84788 -0.260114 -2.331 
1.85762 -0.260114 -2.331 
1.86735 -0.260114 -2.331 
1.87708 -0.260114 -2.331 
1.88682 -0.260114 -2.331 
1.89655 -0.260114 -2.331 
1.91773 -0.261676 -2.345 
1.93903 -0.263239 -2.359 
1.96127 -0.264912 -2.374 
1.99609 -0.26826 -2.404 
2.03116 -0.271608 -2.434 
2.06817 -0.275179 -2.466 
2.11976 -0.280647 -2.515 
2.18701 -0.288123 -2.582 
2.24376 -0.294149 -2.636 
2.33517 -0.304638 -2.73 
2.43338 -0.315909 -2.831 
2.52035 -0.325617 -2.918 
2.61151 -0.335772 -3.009 
2.70954 -0.346707 -3.107 
2.83817 -0.361437 -3.239 
2.95207 -0.374158 -3.353 
3.04568 -0.384201 -3.443 
3.14538 -0.394914 -3.539 
3.21998 -0.40239 -3.606 
3.29694 -0.41009 -3.675 
3.41053 -0.422253 -3.784 
3.53136 -0.435197 -3.9 
3.69865 -0.453721 -4.066 
3.88103 -0.473919 -4.247 
4.03279 -0.490211 -4.393 
4.19592 -0.50773 -4.55 
4.42612 -0.533173 -4.778 
4.61915 -0.553928 -4.964 
4.89412 -0.58428 -5.236 
5.12629 -0.609276 -5.46 
5.38013 -0.636616 -5.705 
5.65687 -0.66641 -5.972 
5.96151 -0.699217 -6.266 
6.29729 -0.735372 -6.59 
6.66935 -0.775432 -6.949 
6.95092 -0.804669 -7.211 
7.255 -0.836249 -7.494 
7.43214 -0.852987 -7.644 
7.61638 -0.870395 -7.8 
7.64895 -0.870395 -7.8 
7.84204 -0.888584 -7.963 
8.04242 -0.907442 -8.132 
8.25217 -0.927194 -8.309 
8.47037 -0.947726 -8.493 
8.50583 -0.947726 -8.493 
8.73539 -0.969263 -8.686 
8.97565 -0.991804 -8.888 
-1.27276 -0.15744 -1.36 
-1.26708 -0.15744 -1.36 
-1.26604 -0.158018 -1.365 
-1.26496 -0.158597 -1.37 
-1.25924 -0.158597 -1.37 
-1.2581 -0.159176 -1.375 
-1.25691 -0.159755 -1.38 
-1.25115 -0.159755 -1.38 
-1.2499 -0.160334 -1.385 
-1.2486 -0.160913 -1.39 
-1.24727 -0.161491 -1.395 
-1.24145 -0.161491 -1.395 
-1.24005 -0.16207 -1.4 
-1.23861 -0.162649 -1.405 
-1.23275 -0.162649 -1.405 
-1.23125 -0.163228 -1.41 
-1.22536 -0.163228 -1.41 
-1.22466 -0.163922 -1.416 
-1.21875 -0.163922 -1.416 
-1.21712 -0.164501 -1.421 
-1.21545 -0.16508 -1.426 
-1.21373 -0.165659 -1.431 
-1.20776 -0.165659 -1.431 
-1.20682 -0.166353 -1.437 
-1.205 -0.166932 -1.442 
-1.19898 -0.166932 -1.442 
-1.19792 -0.167627 -1.448 
-1.19188 -0.167627 -1.448 
-1.18993 -0.168206 -1.453 
-1.18875 -0.1689 -1.459 
-1.18266 -0.1689 -1.459 
-1.1806 -0.169479 -1.464 
-1.1793 -0.170174 -1.47 
-1.17316 -0.170174 -1.47 
-1.16702 -0.170174 -1.47 
-1.16562 -0.170868 -1.476 
-1.16339 -0.171447 -1.481 
-1.16189 -0.172142 -1.487 
-1.15568 -0.172142 -1.487 
-1.15411 -0.172836 -1.493 
-1.14788 -0.172836 -1.493 
-1.14623 -0.173531 -1.499 
-1.14454 -0.174225 -1.505 
-1.13825 -0.174225 -1.505 
-1.13197 -0.174225 -1.505 
-1.13017 -0.17492 -1.511 
-1.12386 -0.17492 -1.511 
-1.12199 -0.175615 -1.517 
-1.11566 -0.175615 -1.517 
-1.11371 -0.176309 -1.523 
-1.10735 -0.176309 -1.523 
-1.10533 -0.177004 -1.529 
-1.09895 -0.177004 -1.529 
-1.09256 -0.177004 -1.529 
-1.08618 -0.177004 -1.529 
-1.0798 -0.177004 -1.529 
-1.07762 -0.177698 -1.535 
-1.07121 -0.177698 -1.535 
-1.06481 -0.177698 -1.535 
-1.0584 -0.177698 -1.535 
-1.0561 -0.178393 -1.541 
-1.04966 -0.178393 -1.541 
-1.04729 -0.179088 -1.547 
-1.04554 -0.179898 -1.554 
-1.04307 -0.180593 -1.56 
-1.03655 -0.180593 -1.56 
-1.034 -0.181287 -1.566 
-1.03205 -0.182097 -1.573 
-1.0294 -0.182792 -1.579 
-1.02734 -0.183602 -1.586 
-1.02522 -0.184413 -1.593 
-1.02241 -0.185107 -1.599 
-1.02018 -0.185918 -1.606 
-1.01789 -0.186728 -1.613 
-1.01116 -0.186728 -1.613 
-1.00442 -0.186728 -1.613 
-1.00202 -0.187538 -1.62 
-0.995251 -0.187538 -1.62 
-0.988487 -0.187538 -1.62 
-0.985359 -0.188233 -1.626 
-0.982783 -0.189043 -1.633 
-0.980148 -0.189854 -1.64 
-0.9733 -0.189854 -1.64 
-0.970578 -0.190664 -1.647 
-0.968382 -0.19159 -1.655 
-0.965538 -0.1924 -1.662 
-0.962636 -0.193211 -1.669 
-0.959676 -0.194021 -1.676 
-0.957225 -0.194947 -1.684 
-0.954144 -0.195758 -1.691 
-0.951564 -0.196684 -1.699 
-0.94447 -0.196684 -1.699 
-0.941238 -0.197494 -1.706 
-0.934115 -0.197494 -1.706 
-0.931339 -0.19842 -1.714 
-0.924182 -0.19842 -1.714 
-0.917026 -0.19842 -1.714 
-0.914116 -0.199346 -1.722 
-0.906926 -0.199346 -1.722 
-0.899736 -0.199346 -1.722 
-0.892546 -0.199346 -1.722 
-0.885356 -0.199346 -1.722 
-0.878166 -0.199346 -1.722 
-0.870976 -0.199346 -1.722 
-0.863786 -0.199346 -1.722 
-0.856596 -0.199346 -1.722 
-0.849406 -0.199346 -1.722 
-0.842216 -0.199346 -1.722 
-0.835026 -0.199346 -1.722 
-0.831201 -0.200157 -1.729 
-0.823982 -0.200157 -1.729 
-0.816763 -0.200157 -1.729 
-0.813289 -0.201083 -1.737 
-0.809749 -0.202009 -1.745 
-0.806142 -0.202935 -1.753 
-0.802468 -0.203861 -1.761 
-0.798728 -0.204787 -1.769 
-0.795367 -0.205829 -1.778 
-0.791489 -0.206755 -1.786 
-0.787544 -0.207681 -1.794 
-0.783966 -0.208723 -1.803 
-0.779883 -0.209649 -1.811 
-0.77616 -0.210691 -1.82 
-0.772361 -0.211733 -1.829 
-0.768488 -0.212775 -1.838 
-0.764125 -0.213701 -1.846 
-0.756417 -0.213701 -1.846 
-0.75236 -0.214743 -1.855 
-0.748227 -0.215785 -1.864 
-0.744416 -0.216943 -1.874 
-0.736592 -0.216943 -1.874 
-0.732267 -0.217984 -1.883 
-0.727867 -0.219026 -1.892 
-0.723773 -0.220184 -1.902 
-0.719218 -0.221226 -1.911 
-0.714961 -0.222383 -1.921 
-0.710252 -0.223425 -1.93 
-0.705832 -0.224583 -1.94 
-0.701329 -0.225741 -1.95 
-0.693187 -0.225741 -1.95 
-0.688558 -0.226898 -1.96 
-0.680374 -0.226898 -1.96 
-0.67562 -0.228056 -1.97 
-0.667394 -0.228056 -1.97 
-0.659169 -0.228056 -1.97 
-0.654248 -0.229214 -1.98 
-0.645981 -0.229214 -1.98 
-0.641256 -0.230487 -1.991 
-0.632943 -0.230487 -1.991 
-0.627767 -0.231645 -2.001 
-0.619412 -0.231645 -2.001 
-0.614417 -0.232918 -2.012 
-0.606016 -0.232918 -2.012 
-0.600585 -0.234076 -2.022 
-0.595364 -0.235349 -2.033 
-0.590051 -0.236622 -2.044 
-0.581517 -0.236622 -2.044 
-0.572982 -0.236622 -2.044 
-0.564448 -0.236622 -2.044 
-0.558905 -0.237896 -2.055 
-0.550325 -0.237896 -2.055 
-0.541744 -0.237896 -2.055 
-0.536018 -0.239169 -2.066 
-0.527391 -0.239169 -2.066 
-0.518765 -0.239169 -2.066 
-0.512855 -0.240443 -2.077 
-0.507096 -0.241832 -2.089 
-0.500998 -0.243105 -2.1 
-0.495042 -0.244494 -2.112 
-0.488756 -0.245768 -2.123 
-0.482604 -0.247157 -2.135 
-0.476353 -0.248546 -2.147 
-0.467388 -0.248546 -2.147 
-0.460986 -0.249935 -2.159 
-0.454693 -0.25144 -2.172 
-0.448086 -0.252829 -2.184 
-0.44158 -0.254334 -2.197 
-0.434768 -0.255724 -2.209 
-0.428049 -0.257229 -2.222 
-0.421222 -0.258734 -2.235 
-0.414285 -0.260238 -2.248 
-0.407421 -0.261859 -2.262 
-0.400263 -0.263364 -2.275 
-0.393169 -0.264985 -2.289 
-0.38579 -0.26649 -2.302 
-0.378467 -0.26811 -2.316 
-0.368796 -0.26811 -2.316 
-0.361452 -0.269847 -2.331 
-0.351719 -0.269847 -2.331 
-0.344041 -0.271468 -2.345 
-0.334249 -0.271468 -2.345 
-0.326395 -0.273088 -2.359 
-0.318558 -0.274825 -2.374 
-0.308646 -0.274825 -2.374 
-0.300621 -0.276561 -2.389 
-0.290646 -0.276561 -2.389 
-0.282434 -0.278298 -2.404 
-0.274096 -0.280034 -2.419 
-0.263996 -0.280034 -2.419 
-0.25547 -0.281771 -2.434 
-0.24692 -0.283623 -2.45 
-0.23669 -0.283623 -2.45 
-0.227939 -0.285475 -2.466 
-0.219055 -0.287327 -2.482 
-0.208692 -0.287327 -2.482 
-0.198328 -0.287327 -2.482 
-0.187965 -0.287327 -2.482 
-0.177602 -0.287327 -2.482 
-0.167239 -0.287327 -2.482 
-0.157887 -0.28918 -2.498 
-0.147457 -0.28918 -2.498 
-0.137959 -0.291148 -2.515 
-0.127458 -0.291148 -2.515 
-0.117701 -0.293 -2.531 
-0.107853 -0.294968 -2.548 
-0.0972142 -0.294968 -2.548 
-0.087153 -0.296936 -2.565 
-0.0774863 -0.300988 -2.6 
-0.0670917 -0.303071 -2.618 
-0.0561606 -0.303071 -2.618 
-0.0455405 -0.305155 -2.636 
-0.0347701 -0.307239 -2.654 
-0.0238582 -0.309438 -2.673 
-0.0127878 -0.311638 -2.692 
-0.00156955 -0.316037 -2.73 
0.00990118 -0.318352 -2.75 
0.0215389 -0.320667 -2.77 
0.0333437 -0.322983 -2.79 
0.0453155 -0.325298 -2.81 
0.0574746 -0.327729 -2.831 
0.069295 -0.327729 -2.831 
0.0817172 -0.33016 -2.852 
0.0943475 -0.332707 -2.874 
0.106347 -0.332707 -2.874 
0.119212 -0.335138 -2.895 
0.1313 -0.335138 -2.895 
0.143388 -0.335138 -2.895 
0.15671 -0.337801 -2.918 
0.168894 -0.337801 -2.918 
0.182443 -0.340347 -2.94 
0.196242 -0.34301 -2.963 
0.208613 -0.34301 -2.963 
0.220985 -0.34301 -2.963 
0.233357 -0.34301 -2.963 
0.245728 -0.34301 -2.963 
0.2581 -0.34301 -2.963 
0.272571 -0.345673 -2.986 
0.285039 -0.345673 -2.986 
0.297506 -0.345673 -2.986 
0.309974 -0.345673 -2.986 
0.324925 -0.348335 -3.009 
0.337489 -0.348335 -3.009 
0.350052 -0.348335 -3.009 
0.365508 -0.351114 -3.033 
0.378172 -0.351114 -3.033 
0.390836 -0.351114 -3.033 
0.4035 -0.351114 -3.033 
0.416164 -0.351114 -3.033 
0.432362 -0.354008 -3.058 
0.44513 -0.354008 -3.058 
0.457899 -0.354008 -3.058 
0.474361 -0.356786 -3.082 
0.487229 -0.356786 -3.082 
0.504154 -0.35968 -3.107 
0.517127 -0.35968 -3.107 
0.534536 -0.36269 -3.133 
0.552162 -0.3657 -3.159 
0.574837 -0.371835 -3.212 
0.593193 -0.374961 -3.239 
0.611962 -0.378202 -3.267 
0.630965 -0.381444 -3.295 
0.650397 -0.384801 -3.324 
0.670071 -0.388158 -3.353 
0.689988 -0.391515 -3.382 
0.710563 -0.395104 -3.413 
0.731184 -0.398577 -3.443 
0.74556 -0.398577 -3.443 
0.759936 -0.398577 -3.443 
0.781508 -0.402281 -3.475 
0.788687 -0.398577 -3.443 
0.803063 -0.398577 -3.443 
0.810316 -0.395104 -3.413 
0.817077 -0.391515 -3.382 
0.824071 -0.388158 -3.353 
0.823574 -0.381444 -3.295 
0.830216 -0.378202 -3.267 
0.829651 -0.371835 -3.212 
0.835975 -0.36871 -3.185 
0.849274 -0.36871 -3.185 
0.869885 -0.371835 -3.212 
0.875871 -0.36871 -3.185 
0.896707 -0.371835 -3.212 
0.910118 -0.371835 -3.212 
0.931293 -0.374961 -3.239 
0.944817 -0.374961 -3.239 
0.958341 -0.374961 -3.239 
0.971865 -0.374961 -3.239 
0.985389 -0.374961 -3.239 
0.998913 -0.374961 -3.239 
1.004 -0.371835 -3.212 
1.01741 -0.371835 -3.212 
1.03082 -0.371835 -3.212 
1.03545 -0.36871 -3.185 
1.04019 -0.3657 -3.159 
1.04471 -0.36269 -3.133 
1.05779 -0.36269 -3.133 
1.06199 -0.35968 -3.107 
1.07496 -0.35968 -3.107 
1.08793 -0.35968 -3.107 
1.1009 -0.35968 -3.107 
1.10492 -0.356786 -3.082 
1.11778 -0.356786 -3.082 
1.13982 -0.35968 -3.107 
1.1528 -0.35968 -3.107 
1.16577 -0.35968 -3.107 
1.17874 -0.35968 -3.107 
1.19171 -0.35968 -3.107 
1.20469 -0.35968 -3.107 
1.20786 -0.356786 -3.082 
1.22073 -0.356786 -3.082 
1.22399 -0.354008 -3.058 
1.22665 -0.351114 -3.033 
1.22011 -0.345673 -2.986 
1.20451 -0.337801 -2.918 
1.18917 -0.33016 -2.852 
1.16655 -0.320667 -2.77 
1.14494 -0.311638 -2.692 
1.13213 -0.305155 -2.636 
1.11972 -0.298904 -2.582 
1.10817 -0.293 -2.531 
1.10415 -0.28918 -2.498 
1.10744 -0.287327 -2.482 
1.1178 -0.287327 -2.482 
1.12817 -0.287327 -2.482 
1.13853 -0.287327 -2.482 
1.14889 -0.287327 -2.482 
1.15178 -0.285475 -2.466 
1.15454 -0.283623 -2.45 
1.16477 -0.283623 -2.45 
1.16733 -0.281771 -2.434 
1.17023 -0.280034 -2.419 
1.18033 -0.280034 -2.419 
1.18305 -0.278298 -2.404 
1.19309 -0.278298 -2.404 
1.19562 -0.276561 -2.389 
1.20559 -0.276561 -2.389 
1.20794 -0.274825 -2.374 
1.21785 -0.274825 -2.374 
1.22 -0.273088 -2.359 
1.22255 -0.271468 -2.345 
1.23234 -0.271468 -2.345 
1.24214 -0.271468 -2.345 
1.24445 -0.269847 -2.331 
1.25419 -0.269847 -2.331 
1.26392 -0.269847 -2.331 
1.27365 -0.269847 -2.331 
1.28338 -0.269847 -2.331 
1.30088 -0.271468 -2.345 
1.31067 -0.271468 -2.345 
1.32835 -0.273088 -2.359 
1.3382 -0.273088 -2.359 
1.35662 -0.274825 -2.374 
1.36653 -0.274825 -2.374 
1.36775 -0.273088 -2.359 
1.3776 -0.273088 -2.359 
1.38745 -0.273088 -2.359 
1.389 -0.271468 -2.345 
1.39044 -0.269847 -2.331 
1.40018 -0.269847 -2.331 
1.40991 -0.269847 -2.331 
1.42817 -0.271468 -2.345 
1.43796 -0.271468 -2.345 
1.45639 -0.273088 -2.359 
1.46624 -0.273088 -2.359 
1.48548 -0.274825 -2.374 
1.49539 -0.274825 -2.374 
1.5053 -0.274825 -2.374 
1.51522 -0.274825 -2.374 
1.52513 -0.274825 -2.374 
1.53504 -0.274825 -2.374 
1.55472 -0.276561 -2.389 
1.56469 -0.276561 -2.389 
1.57467 -0.276561 -2.389 
1.59459 -0.278298 -2.404 
1.61464 -0.280034 -2.419 
1.63481 -0.281771 -2.434 
1.65579 -0.283623 -2.45 
1.6769 -0.285475 -2.466 
1.6872 -0.285475 -2.466 
1.69749 -0.285475 -2.466 
1.70779 -0.285475 -2.466 
1.71809 -0.285475 -2.466 
1.72838 -0.285475 -2.466 
1.73868 -0.285475 -2.466 
1.73763 -0.283623 -2.45 
1.74786 -0.283623 -2.45 
1.75809 -0.283623 -2.45 
1.76832 -0.283623 -2.45 
1.77855 -0.283623 -2.45 
1.78878 -0.283623 -2.45 
1.78726 -0.281771 -2.434 
1.78634 -0.280034 -2.419 
1.79644 -0.280034 -2.419 
1.80654 -0.280034 -2.419 
1.80538 -0.278298 -2.404 
1.81542 -0.278298 -2.404 
1.81406 -0.276561 -2.389 
1.82404 -0.276561 -2.389 
1.8225 -0.274825 -2.374 
1.83241 -0.274825 -2.374 
1.83068 -0.273088 -2.359 
1.84053 -0.273088 -2.359 
1.8394 -0.271468 -2.345 
1.84919 -0.271468 -2.345 
1.84788 -0.269847 -2.331 
1.85762 -0.269847 -2.331 
1.86735 -0.269847 -2.331 
1.87708 -0.269847 -2.331 
1.89815 -0.271468 -2.345 
1.90794 -0.271468 -2.345 
1.92918 -0.273088 -2.359 
1.95136 -0.274825 -2.374 
1.97366 -0.276561 -2.389 
1.99609 -0.278298 -2.404 
2.03116 -0.281771 -2.434 
2.08158 -0.287327 -2.482 
2.11976 -0.291148 -2.515 
2.18701 -0.298904 -2.582 
2.25908 -0.307239 -2.654 
2.35228 -0.318352 -2.75 
2.45143 -0.33016 -2.852 
2.53935 -0.340347 -2.94 
2.63234 -0.351114 -3.033 
2.73221 -0.36269 -3.133 
2.86271 -0.378202 -3.267 
2.9776 -0.391515 -3.382 
3.07399 -0.402281 -3.475 
3.20493 -0.417447 -3.606 
3.25034 -0.421383 -3.64 
3.36154 -0.433769 -3.747 
3.47993 -0.446966 -3.861 
3.60471 -0.460858 -3.981 
3.73867 -0.475792 -4.11 
3.92398 -0.497092 -4.294 
4.07961 -0.514457 -4.444 
4.24663 -0.533095 -4.605 
4.37147 -0.546292 -4.719 
4.61915 -0.574655 -4.964 
4.89412 -0.606143 -5.236 
5.20046 -0.641219 -5.539 
5.46124 -0.670392 -5.791 
5.83968 -0.713688 -6.165 
6.16321 -0.749922 -6.478 
6.52185 -0.790092 -6.825 
7.05422 -0.850869 -7.35 
7.22371 -0.867539 -7.494 
7.70904 -0.921832 -7.963 
7.90661 -0.941396 -8.132 
7.94056 -0.941396 -8.132 
7.97452 -0.941396 -8.132 
8.00847 -0.941396 -8.132 
8.04242 -0.941396 -8.132 
8.43491 -0.983187 -8.493 
8.47037 -0.983187 -8.493 
8.69912 -1.00553 -8.686 
8.73539 -1.00553 -8.686 
8.77166 -1.00553 -8.686 
-1.26708 -0.163118 -1.36 
-1.26604 -0.163718 -1.365 
-1.26496 -0.164318 -1.37 
-1.25924 -0.164318 -1.37 
-1.2581 -0.164917 -1.375 
-1.25691 -0.165517 -1.38 
-1.25115 -0.165517 -1.38 
-1.2499 -0.166117 -1.385 
