ply
format ascii 1.0
comment pointcloud saved from Realsense Viewer
element vertex 1858
property float32 x
property float32 y
property float32 z
end_header
1.10872 -1.28062 -2.77 
1.13646 -1.29912 -2.81 
1.15678 -1.30883 -2.831 
1.1686 -1.30883 -2.831 
1.18042 -1.30883 -2.831 
1.20108 -1.31853 -2.852 
1.21299 -1.31853 -2.852 
1.2249 -1.31853 -2.852 
1.24635 -1.32871 -2.874 
1.25835 -1.32871 -2.874 
1.27035 -1.32871 -2.874 
1.28235 -1.32871 -2.874 
1.29435 -1.32871 -2.874 
1.30635 -1.32871 -2.874 
1.31835 -1.32871 -2.874 
1.33035 -1.32871 -2.874 
1.34235 -1.32871 -2.874 
1.35435 -1.32871 -2.874 
1.36635 -1.32871 -2.874 
1.37835 -1.32871 -2.874 
1.39035 -1.32871 -2.874 
1.40235 -1.32871 -2.874 
1.41435 -1.32871 -2.874 
1.42634 -1.32871 -2.874 
1.43835 -1.32871 -2.874 
1.46094 -1.33841 -2.895 
1.47303 -1.33841 -2.895 
1.48512 -1.33841 -2.895 
1.48634 -1.32871 -2.874 
1.48688 -1.31853 -2.852 
1.49878 -1.31853 -2.852 
1.51069 -1.31853 -2.852 
1.5226 -1.31853 -2.852 
1.53451 -1.31853 -2.852 
1.53503 -1.30883 -2.831 
1.54685 -1.30883 -2.831 
1.57023 -1.31853 -2.852 
1.58214 -1.31853 -2.852 
1.59405 -1.31853 -2.852 
1.60596 -1.31853 -2.852 
1.61786 -1.31853 -2.852 
1.62977 -1.31853 -2.852 
1.65434 -1.32871 -2.874 
1.66634 -1.32871 -2.874 
1.6655 -1.31853 -2.852 
1.67741 -1.31853 -2.852 
1.70234 -1.32871 -2.874 
1.71434 -1.32871 -2.874 
1.73896 -1.33841 -2.895 
1.75105 -1.33841 -2.895 
1.76313 -1.33841 -2.895 
1.77522 -1.33841 -2.895 
1.77434 -1.32871 -2.874 
1.78634 -1.32871 -2.874 
1.81148 -1.33841 -2.895 
1.82357 -1.33841 -2.895 
1.83566 -1.33841 -2.895 
1.84775 -1.33841 -2.895 
1.85984 -1.33841 -2.895 
1.87192 -1.33841 -2.895 
1.88401 -1.33841 -2.895 
1.8961 -1.33841 -2.895 
1.90819 -1.33841 -2.895 
1.92027 -1.33841 -2.895 
1.93236 -1.33841 -2.895 
1.94445 -1.33841 -2.895 
1.95654 -1.33841 -2.895 
1.96862 -1.33841 -2.895 
1.96634 -1.32871 -2.874 
1.9928 -1.33841 -2.895 
2.00489 -1.33841 -2.895 
2.01698 -1.33841 -2.895 
2.04518 -1.34905 -2.918 
2.05737 -1.34905 -2.918 
2.06955 -1.34905 -2.918 
2.08173 -1.34905 -2.918 
2.09392 -1.34905 -2.918 
2.1061 -1.34905 -2.918 
2.11829 -1.34905 -2.918 
2.13047 -1.34905 -2.918 
2.14265 -1.34905 -2.918 
2.15484 -1.34905 -2.918 
2.16702 -1.34905 -2.918 
2.1792 -1.34905 -2.918 
2.19139 -1.34905 -2.918 
2.20357 -1.34905 -2.918 
2.21575 -1.34905 -2.918 
2.22794 -1.34905 -2.918 
2.24012 -1.34905 -2.918 
2.25231 -1.34905 -2.918 
2.26449 -1.34905 -2.918 
2.27667 -1.34905 -2.918 
2.28886 -1.34905 -2.918 
2.31839 -1.35922 -2.94 
2.33066 -1.35922 -2.94 
2.34294 -1.35922 -2.94 
2.37364 -1.36985 -2.963 
2.38601 -1.36985 -2.963 
2.39838 -1.36985 -2.963 
2.41076 -1.36985 -2.963 
2.42313 -1.36985 -2.963 
2.4355 -1.36985 -2.963 
2.44787 -1.36985 -2.963 
2.46024 -1.36985 -2.963 
2.47261 -1.36985 -2.963 
2.48499 -1.36985 -2.963 
2.49736 -1.36985 -2.963 
2.52921 -1.38048 -2.986 
2.54168 -1.38048 -2.986 
2.55414 -1.38048 -2.986 
2.56661 -1.38048 -2.986 
2.57908 -1.38048 -2.986 
2.59155 -1.38048 -2.986 
2.62407 -1.39112 -3.009 
2.63664 -1.39112 -3.009 
2.6492 -1.39112 -3.009 
2.66176 -1.39112 -3.009 
2.67433 -1.39112 -3.009 
2.68689 -1.39112 -3.009 
2.69946 -1.39112 -3.009 
2.69129 -1.38048 -2.986 
2.68293 -1.36985 -2.963 
2.6953 -1.36985 -2.963 
2.70767 -1.36985 -2.963 
2.69893 -1.35922 -2.94 
2.69092 -1.34905 -2.918 
2.6818 -1.33841 -2.895 
2.67434 -1.32871 -2.874 
2.64615 -1.30883 -2.831 
2.65797 -1.30883 -2.831 
2.64999 -1.29912 -2.81 
2.66172 -1.29912 -2.81 
2.6354 -1.28062 -2.77 
2.64696 -1.28062 -2.77 
2.65853 -1.28062 -2.77 
2.65082 -1.27138 -2.75 
2.6623 -1.27138 -2.75 
2.67378 -1.27138 -2.75 
2.68526 -1.27138 -2.75 
2.69674 -1.27138 -2.75 
2.72792 -1.28062 -2.77 
2.75927 -1.28987 -2.79 
2.79078 -1.29912 -2.81 
2.82346 -1.30883 -2.831 
2.83528 -1.30883 -2.831 
-1.52795 -0.765051 -1.64 
-1.52111 -0.765051 -1.64 
-1.5078 -0.761786 -1.633 
-1.50741 -0.765051 -1.64 
-1.49416 -0.761786 -1.633 
-1.48734 -0.761786 -1.633 
-1.48052 -0.761786 -1.633 
-1.4737 -0.761786 -1.633 
-1.47317 -0.765051 -1.64 
-1.46633 -0.765051 -1.64 
-1.46571 -0.768316 -1.647 
-1.45883 -0.768316 -1.647 
-1.45901 -0.772048 -1.655 
-1.45824 -0.775314 -1.662 
-1.45741 -0.778579 -1.669 
-1.45044 -0.778579 -1.669 
-1.44953 -0.781845 -1.676 
-1.44942 -0.785577 -1.684 
-1.44838 -0.788842 -1.691 
-1.44814 -0.792574 -1.699 
-1.44698 -0.79584 -1.706 
-1.43986 -0.79584 -1.706 
-1.43945 -0.799572 -1.714 
-1.43898 -0.803304 -1.722 
-1.43761 -0.806569 -1.729 
-1.43701 -0.810301 -1.737 
-1.43635 -0.814033 -1.745 
-1.42906 -0.814033 -1.745 
-1.42829 -0.817765 -1.753 
-1.42746 -0.821497 -1.761 
-1.42656 -0.825229 -1.769 
-1.42639 -0.829427 -1.778 
-1.41897 -0.829427 -1.778 
-1.42424 -0.836891 -1.794 
-1.42386 -0.84109 -1.803 
-1.42262 -0.844822 -1.811 
-1.42209 -0.84902 -1.82 
-1.41449 -0.84902 -1.82 
-1.41385 -0.853218 -1.829 
-1.41313 -0.857417 -1.838 
-1.41157 -0.861149 -1.846 
-1.40386 -0.861149 -1.846 
-1.39616 -0.861149 -1.846 
-1.39522 -0.865347 -1.855 
-1.3942 -0.869546 -1.864 
-1.38642 -0.869546 -1.864 
-1.38604 -0.874211 -1.874 
-1.38483 -0.878409 -1.883 
-1.38355 -0.882608 -1.892 
-1.38292 -0.887273 -1.902 
-1.38148 -0.891471 -1.911 
-1.38069 -0.896136 -1.921 
-1.3791 -0.900334 -1.93 
-1.37815 -0.904999 -1.94 
-1.38417 -0.914329 -1.96 
-1.37599 -0.914329 -1.96 
-1.37478 -0.918994 -1.97 
-1.36656 -0.918994 -1.97 
-1.35833 -0.918994 -1.97 
-1.35696 -0.923659 -1.98 
-1.35619 -0.928791 -1.991 
-1.35464 -0.933456 -2.001 
-1.34629 -0.933456 -2.001 
-1.34529 -0.938587 -2.012 
-1.34353 -0.943252 -2.022 
-1.34235 -0.948383 -2.033 
-1.34108 -0.953515 -2.044 
-1.34689 -0.963778 -2.066 
-1.34539 -0.968909 -2.077 
-1.34444 -0.974507 -2.089 
-1.35042 -0.985236 -2.112 
-1.35621 -0.995966 -2.135 
-1.35487 -1.00156 -2.147 
-1.35343 -1.00716 -2.159 
-1.35998 -1.01882 -2.184 
-1.35891 -1.02489 -2.197 
-1.3571 -1.03049 -2.209 
-1.35581 -1.03655 -2.222 
-1.35441 -1.04262 -2.235 
-1.34508 -1.04262 -2.235 
-1.34352 -1.04868 -2.248 
-1.34244 -1.05521 -2.262 
-1.34066 -1.06128 -2.275 
-1.33935 -1.06781 -2.289 
-1.32979 -1.06781 -2.289 
-1.32773 -1.07387 -2.302 
-1.32614 -1.0804 -2.316 
-1.31647 -1.0804 -2.316 
-1.31526 -1.0874 -2.331 
-1.31337 -1.09393 -2.345 
-1.30358 -1.09393 -2.345 
-1.29379 -1.09393 -2.345 
-1.284 -1.09393 -2.345 
-1.28181 -1.10046 -2.359 
-1.28005 -1.10746 -2.374 
-1.27014 -1.10746 -2.374 
-1.26819 -1.11446 -2.389 
-1.26611 -1.12145 -2.404 
-1.26391 -1.12845 -2.419 
-1.25381 -1.12845 -2.419 
-1.25143 -1.13545 -2.434 
-1.24942 -1.14291 -2.45 
-1.24729 -1.15038 -2.466 
-1.24502 -1.15784 -2.482 
-1.24261 -1.1653 -2.498 
-1.24057 -1.17323 -2.515 
-1.23789 -1.1807 -2.531 
-1.22732 -1.1807 -2.531 
-1.22493 -1.18863 -2.548 
-1.21429 -1.18863 -2.548 
-1.21168 -1.19656 -2.565 
-1.20097 -1.19656 -2.565 
-1.19026 -1.19656 -2.565 
-1.17955 -1.19656 -2.565 
-1.16884 -1.19656 -2.565 
-1.15046 -1.18863 -2.548 
-1.13221 -1.1807 -2.531 
-1.11455 -1.17323 -2.515 
-1.08254 -1.15038 -2.466 
-1.04529 -1.12145 -2.404 
-1.00381 -1.0874 -2.331 
-0.9702 -1.06128 -2.275 
-0.859744 -0.968909 -2.077 
-0.824437 -0.938587 -2.012 
-0.799002 -0.918994 -1.97 
-0.77472 -0.900334 -1.93 
-0.755539 -0.887273 -1.902 
-0.736592 -0.874211 -1.874 
-0.721378 -0.865347 -1.855 
-0.703631 -0.853218 -1.829 
-0.689144 -0.844822 -1.811 
-0.672174 -0.833159 -1.786 
-0.661739 -0.829427 -1.778 
-0.648059 -0.821497 -1.761 
-0.637796 -0.817765 -1.753 
-0.630476 -0.817765 -1.753 
-0.623157 -0.817765 -1.753 
-0.613027 -0.814033 -1.745 
-0.600187 -0.806569 -1.729 
-0.590567 -0.803304 -1.722 
-0.580667 -0.799572 -1.714 
-0.568491 -0.792574 -1.699 
-0.558754 -0.788842 -1.691 
-0.54941 -0.785577 -1.684 
-0.539802 -0.781845 -1.676 
-0.528353 -0.775314 -1.662 
-0.521414 -0.775314 -1.662 
-0.514474 -0.775314 -1.662 
-0.507535 -0.775314 -1.662 
-0.500596 -0.775314 -1.662 
-0.493656 -0.775314 -1.662 
-0.484667 -0.772048 -1.655 
-0.477756 -0.772048 -1.655 
-0.470846 -0.772048 -1.655 
-0.463936 -0.772048 -1.655 
-0.454817 -0.768316 -1.647 
-0.44794 -0.768316 -1.647 
-0.441063 -0.768316 -1.647 
-0.434186 -0.768316 -1.647 
-0.427309 -0.768316 -1.647 
-0.418646 -0.765051 -1.64 
-0.411798 -0.765051 -1.64 
-0.406679 -0.768316 -1.647 
-0.399802 -0.768316 -1.647 
-0.394834 -0.772048 -1.655 
-0.387924 -0.772048 -1.655 
-0.381013 -0.772048 -1.655 
-0.374103 -0.772048 -1.655 
-0.367193 -0.772048 -1.655 
-0.360283 -0.772048 -1.655 
-0.354867 -0.775314 -1.662 
-0.347928 -0.775314 -1.662 
-0.340988 -0.775314 -1.662 
-0.334049 -0.775314 -1.662 
-0.328487 -0.778579 -1.669 
-0.321518 -0.778579 -1.669 
-0.31455 -0.778579 -1.669 
-0.307581 -0.778579 -1.669 
-0.300612 -0.778579 -1.669 
-0.293644 -0.778579 -1.669 
-0.286675 -0.778579 -1.669 
-0.279706 -0.778579 -1.669 
-0.275189 -0.785577 -1.684 
-0.271661 -0.79584 -1.706 
-0.268104 -0.806569 -1.729 
-0.266921 -0.825229 -1.769 
-0.265696 -0.844822 -1.811 
-0.265689 -0.869546 -1.864 
-0.265793 -0.896136 -1.921 
-0.267165 -0.928791 -1.991 
-0.268603 -0.963778 -2.066 
-0.268659 -0.995966 -2.135 
-0.265751 -1.05521 -2.262 
-0.264125 -1.0874 -2.331 
-0.262359 -1.12145 -2.404 
-0.260508 -1.15784 -2.482 
-0.256796 -1.18863 -2.548 
-0.251181 -1.21289 -2.6 
-0.243653 -1.22968 -2.636 
-0.235912 -1.24694 -2.673 
-0.226349 -1.2558 -2.692 
-0.216627 -1.26467 -2.711 
-0.206747 -1.27353 -2.73 
-0.195348 -1.27353 -2.73 
-0.185297 -1.28286 -2.75 
-0.175079 -1.29219 -2.77 
-0.163513 -1.29219 -2.77 
-0.151947 -1.29219 -2.77 
-0.141395 -1.30152 -2.79 
-0.129746 -1.30152 -2.79 
-0.118097 -1.30152 -2.79 
-0.106447 -1.30152 -2.79 
-0.094798 -1.30152 -2.79 
-0.0837448 -1.31085 -2.81 
-0.0720121 -1.31085 -2.81 
-0.0602793 -1.31085 -2.81 
-0.0485466 -1.31085 -2.81 
-0.0368138 -1.31085 -2.81 
-0.0250811 -1.31085 -2.81 
-0.0133483 -1.31085 -2.81 
-0.00161555 -1.31085 -2.81 
0.0101172 -1.31085 -2.81 
0.02185 -1.31085 -2.81 
0.0335827 -1.31085 -2.81 
0.0453155 -1.31085 -2.81 
0.0570482 -1.31085 -2.81 
0.068781 -1.31085 -2.81 
0.0805137 -1.31085 -2.81 
0.0922465 -1.31085 -2.81 
0.104756 -1.32065 -2.831 
0.116577 -1.32065 -2.831 
0.128397 -1.32065 -2.831 
0.140218 -1.32065 -2.831 
0.152038 -1.32065 -2.831 
0.163859 -1.32065 -2.831 
0.175679 -1.32065 -2.831 
0.187499 -1.32065 -2.831 
0.19932 -1.32065 -2.831 
0.209574 -1.31085 -2.81 
0.221307 -1.31085 -2.81 
0.23304 -1.31085 -2.81 
0.244772 -1.31085 -2.81 
0.256505 -1.31085 -2.81 
0.268238 -1.31085 -2.81 
0.279971 -1.31085 -2.81 
0.291703 -1.31085 -2.81 
0.301276 -1.30152 -2.79 
0.315169 -1.31085 -2.81 
0.326902 -1.31085 -2.81 
0.338634 -1.31085 -2.81 
0.350367 -1.31085 -2.81 
0.3621 -1.31085 -2.81 
0.373833 -1.31085 -2.81 
0.388447 -1.32065 -2.831 
0.400267 -1.32065 -2.831 
0.412088 -1.32065 -2.831 
0.423908 -1.32065 -2.831 
0.435729 -1.32065 -2.831 
0.444229 -1.31085 -2.81 
0.455962 -1.31085 -2.81 
0.467695 -1.31085 -2.81 
0.479427 -1.31085 -2.81 
0.487664 -1.30152 -2.79 
0.499314 -1.30152 -2.79 
0.514626 -1.31085 -2.81 
0.526358 -1.31085 -2.81 
0.538091 -1.31085 -2.81 
0.549824 -1.31085 -2.81 
0.565753 -1.32065 -2.831 
0.577574 -1.32065 -2.831 
0.589394 -1.32065 -2.831 
0.601215 -1.32065 -2.831 
0.608488 -1.31085 -2.81 
0.615806 -1.30152 -2.79 
0.622958 -1.29219 -2.77 
0.62536 -1.27353 -2.73 
0.623464 -1.24694 -2.673 
0.621567 -1.22128 -2.618 
0.619693 -1.19656 -2.565 
0.618115 -1.17323 -2.515 
0.616368 -1.15038 -2.466 
0.618533 -1.13545 -2.434 
0.617072 -1.11446 -2.389 
0.619173 -1.10046 -2.359 
0.621556 -1.0874 -2.331 
0.631289 -1.0874 -2.331 
0.636897 -1.0804 -2.316 
0.646567 -1.0804 -2.316 
0.656237 -1.0804 -2.316 
0.665907 -1.0804 -2.316 
0.675577 -1.0804 -2.316 
0.685248 -1.0804 -2.316 
0.694918 -1.0804 -2.316 
0.704588 -1.0804 -2.316 
0.714258 -1.0804 -2.316 
0.728617 -1.0874 -2.331 
0.73835 -1.0874 -2.331 
0.748082 -1.0874 -2.331 
0.752939 -1.0804 -2.316 
0.762609 -1.0804 -2.316 
0.772279 -1.0804 -2.316 
0.781949 -1.0804 -2.316 
0.786834 -1.07387 -2.302 
0.796445 -1.07387 -2.302 
0.801505 -1.06781 -2.289 
0.811062 -1.06781 -2.289 
0.82062 -1.06781 -2.289 
0.830177 -1.06781 -2.289 
0.84964 -1.0804 -2.316 
0.87007 -1.09393 -2.345 
0.89637 -1.11446 -2.389 
0.929487 -1.14291 -2.45 
0.958128 -1.1653 -2.498 
0.994536 -1.19656 -2.565 
1.03307 -1.22968 -2.636 
1.06626 -1.2558 -2.692 
1.10071 -1.28286 -2.75 
1.12837 -1.30152 -2.79 
1.14819 -1.31085 -2.81 
1.15993 -1.31085 -2.81 
1.17166 -1.31085 -2.81 
1.18339 -1.31085 -2.81 
1.20406 -1.32065 -2.831 
1.21588 -1.32065 -2.831 
1.2368 -1.33044 -2.852 
1.24871 -1.33044 -2.852 
1.26062 -1.33044 -2.852 
1.27253 -1.33044 -2.852 
1.28444 -1.33044 -2.852 
1.29635 -1.33044 -2.852 
1.30825 -1.33044 -2.852 
1.32016 -1.33044 -2.852 
1.33207 -1.33044 -2.852 
1.33408 -1.32065 -2.831 
1.3459 -1.32065 -2.831 
1.35772 -1.32065 -2.831 
1.3797 -1.33044 -2.852 
1.39161 -1.33044 -2.852 
1.40352 -1.33044 -2.852 
1.41543 -1.33044 -2.852 
1.43835 -1.34071 -2.874 
1.45034 -1.34071 -2.874 
1.46234 -1.34071 -2.874 
1.46306 -1.33044 -2.852 
1.47497 -1.33044 -2.852 
1.47593 -1.32065 -2.831 
1.48775 -1.32065 -2.831 
1.49957 -1.32065 -2.831 
1.51139 -1.32065 -2.831 
1.52321 -1.32065 -2.831 
1.52364 -1.31085 -2.81 
1.54685 -1.32065 -2.831 
1.55867 -1.32065 -2.831 
1.57049 -1.32065 -2.831 
1.58231 -1.32065 -2.831 
1.60596 -1.33044 -2.852 
1.61786 -1.33044 -2.852 
1.62977 -1.33044 -2.852 
1.64168 -1.33044 -2.852 
1.65359 -1.33044 -2.852 
1.6655 -1.33044 -2.852 
1.67741 -1.33044 -2.852 
1.70234 -1.34071 -2.874 
1.71434 -1.34071 -2.874 
1.72634 -1.34071 -2.874 
1.73834 -1.34071 -2.874 
1.75034 -1.34071 -2.874 
1.74885 -1.33044 -2.852 
1.76076 -1.33044 -2.852 
1.77267 -1.33044 -2.852 
1.78458 -1.33044 -2.852 
1.81034 -1.34071 -2.874 
1.82234 -1.34071 -2.874 
1.8203 -1.33044 -2.852 
1.83221 -1.33044 -2.852 
1.84412 -1.33044 -2.852 
1.87034 -1.34071 -2.874 
1.88234 -1.34071 -2.874 
1.89434 -1.34071 -2.874 
1.90634 -1.34071 -2.874 
1.91834 -1.34071 -2.874 
1.93034 -1.34071 -2.874 
1.94234 -1.34071 -2.874 
1.95434 -1.34071 -2.874 
1.96634 -1.34071 -2.874 
1.97834 -1.34071 -2.874 
1.99034 -1.34071 -2.874 
2.00234 -1.34071 -2.874 
2.01434 -1.34071 -2.874 
2.04115 -1.3505 -2.895 
2.05324 -1.3505 -2.895 
2.06533 -1.3505 -2.895 
2.07741 -1.3505 -2.895 
2.1061 -1.36123 -2.918 
2.11829 -1.36123 -2.918 
2.11368 -1.3505 -2.895 
2.12576 -1.3505 -2.895 
2.15484 -1.36123 -2.918 
2.16702 -1.36123 -2.918 
2.1792 -1.36123 -2.918 
2.19139 -1.36123 -2.918 
2.20357 -1.36123 -2.918 
2.19829 -1.3505 -2.895 
2.22794 -1.36123 -2.918 
2.24012 -1.36123 -2.918 
2.25231 -1.36123 -2.918 
2.26449 -1.36123 -2.918 
2.27667 -1.36123 -2.918 
2.28886 -1.36123 -2.918 
2.30104 -1.36123 -2.918 
2.31322 -1.36123 -2.918 
2.32541 -1.36123 -2.918 
2.35522 -1.37149 -2.94 
2.36749 -1.37149 -2.94 
2.37977 -1.37149 -2.94 
2.39204 -1.37149 -2.94 
2.40432 -1.37149 -2.94 
2.41659 -1.37149 -2.94 
2.42887 -1.37149 -2.94 
2.44114 -1.37149 -2.94 
2.45342 -1.37149 -2.94 
2.48499 -1.38222 -2.963 
2.49736 -1.38222 -2.963 
2.50973 -1.38222 -2.963 
2.5221 -1.38222 -2.963 
2.53447 -1.38222 -2.963 
2.56661 -1.39295 -2.986 
2.57908 -1.39295 -2.986 
2.59155 -1.39295 -2.986 
2.60402 -1.39295 -2.986 
2.61648 -1.39295 -2.986 
2.62895 -1.39295 -2.986 
2.64142 -1.39295 -2.986 
2.65389 -1.39295 -2.986 
2.68689 -1.40368 -3.009 
2.69946 -1.40368 -3.009 
2.69129 -1.39295 -2.986 
2.70376 -1.39295 -2.986 
2.6953 -1.38222 -2.963 
2.68666 -1.37149 -2.94 
2.69893 -1.37149 -2.94 
2.69092 -1.36123 -2.918 
2.6818 -1.3505 -2.895 
2.67434 -1.34071 -2.874 
2.66578 -1.33044 -2.852 
2.67769 -1.33044 -2.852 
2.66979 -1.32065 -2.831 
2.66172 -1.31085 -2.81 
2.65442 -1.30152 -2.79 
2.64696 -1.29219 -2.77 
2.63933 -1.28286 -2.75 
2.65082 -1.28286 -2.75 
2.6623 -1.28286 -2.75 
2.65433 -1.27353 -2.73 
2.64718 -1.26467 -2.711 
2.63987 -1.2558 -2.692 
2.66982 -1.26467 -2.711 
2.71971 -1.28286 -2.75 
2.75105 -1.29219 -2.77 
2.78257 -1.30152 -2.79 
2.77419 -1.29219 -2.77 
2.80587 -1.30152 -2.79 
2.88013 -1.33044 -2.852 
-1.52795 -0.771899 -1.64 
-1.52111 -0.771899 -1.64 
-1.5078 -0.768604 -1.633 
-1.50741 -0.771899 -1.64 
-1.49416 -0.768604 -1.633 
-1.48734 -0.768604 -1.633 
-1.48687 -0.771899 -1.64 
-1.48002 -0.771899 -1.64 
-1.47317 -0.771899 -1.64 
-1.46633 -0.771899 -1.64 
-1.46571 -0.775193 -1.647 
-1.46592 -0.778959 -1.655 
-1.46518 -0.782253 -1.662 
-1.45824 -0.782253 -1.662 
-1.45741 -0.785548 -1.669 
-1.45044 -0.785548 -1.669 
-1.44953 -0.788843 -1.676 
-1.44942 -0.792608 -1.684 
-1.44838 -0.795903 -1.691 
-1.44814 -0.799668 -1.699 
-1.44698 -0.802963 -1.706 
-1.43986 -0.802963 -1.706 
-1.43945 -0.806728 -1.714 
-1.43898 -0.810494 -1.722 
-1.43761 -0.813788 -1.729 
-1.43701 -0.817554 -1.737 
-1.43635 -0.821319 -1.745 
-1.42906 -0.821319 -1.745 
-1.42829 -0.825084 -1.753 
-1.42746 -0.82885 -1.761 
-1.42656 -0.832615 -1.769 
-1.42639 -0.836851 -1.778 
-1.42535 -0.840616 -1.786 
-1.42424 -0.844382 -1.794 
-1.42386 -0.848618 -1.803 
-1.42262 -0.852383 -1.811 
-1.42209 -0.856619 -1.82 
-1.42148 -0.860855 -1.829 
-1.41385 -0.860855 -1.829 
-1.41313 -0.865091 -1.838 
-1.41157 -0.868857 -1.846 
-1.40386 -0.868857 -1.846 
-1.39616 -0.868857 -1.846 
-1.39522 -0.873093 -1.855 
-1.38747 -0.873093 -1.855 
-1.38642 -0.877329 -1.864 
-1.38604 -0.882035 -1.874 
-1.38483 -0.886271 -1.883 
-1.38355 -0.890507 -1.892 
-1.38292 -0.895214 -1.902 
-1.38148 -0.89945 -1.911 
-1.38069 -0.904157 -1.921 
-1.3791 -0.908393 -1.93 
-1.37815 -0.9131 -1.94 
-1.37711 -0.917806 -1.95 
-1.37599 -0.922513 -1.96 
-1.37478 -0.92722 -1.97 
-1.36656 -0.92722 -1.97 
-1.36523 -0.931926 -1.98 
-1.35696 -0.931926 -1.98 
-1.35619 -0.937104 -1.991 
-1.35464 -0.94181 -2.001 
-1.34629 -0.94181 -2.001 
-1.34529 -0.946988 -2.012 
-1.34353 -0.951694 -2.022 
-1.34235 -0.956872 -2.033 
-1.34108 -0.962049 -2.044 
-1.34689 -0.972404 -2.066 
-1.34539 -0.977581 -2.077 
-1.34444 -0.983229 -2.089 
-1.35042 -0.994055 -2.112 
-1.35621 -1.00488 -2.135 
-1.35487 -1.01053 -2.147 
-1.35343 -1.01618 -2.159 
-1.35251 -1.02229 -2.172 
-1.35086 -1.02794 -2.184 
-1.34973 -1.03406 -2.197 
-1.34788 -1.03971 -2.209 
-1.34654 -1.04583 -2.222 
-1.34508 -1.05195 -2.235 
-1.34352 -1.05807 -2.248 
-1.34244 -1.06466 -2.262 
-1.34066 -1.07077 -2.275 
-1.33116 -1.07077 -2.275 
-1.32979 -1.07736 -2.289 
-1.32773 -1.08348 -2.302 
-1.31812 -1.08348 -2.302 
-1.31647 -1.09007 -2.316 
-1.31526 -1.09713 -2.331 
-1.30553 -1.09713 -2.331 
-1.30358 -1.10372 -2.345 
-1.29379 -1.10372 -2.345 
-1.284 -1.10372 -2.345 
-1.28181 -1.11031 -2.359 
-1.28005 -1.11737 -2.374 
-1.27014 -1.11737 -2.374 
-1.26819 -1.12443 -2.389 
-1.25821 -1.12443 -2.389 
-1.25608 -1.13149 -2.404 
-1.25381 -1.13855 -2.419 
-1.25143 -1.14561 -2.434 
-1.24942 -1.15314 -2.45 
-1.24729 -1.16067 -2.466 
-1.24502 -1.1682 -2.482 
-1.24261 -1.17573 -2.498 
-1.24057 -1.18373 -2.515 
-1.23007 -1.18373 -2.515 
-1.22732 -1.19127 -2.531 
-1.21676 -1.19127 -2.531 
-1.21429 -1.19927 -2.548 
-1.20365 -1.19927 -2.548 
-1.19301 -1.19927 -2.548 
-1.18237 -1.19927 -2.548 
-1.17173 -1.19927 -2.548 
-1.1611 -1.19927 -2.548 
-1.15046 -1.19927 -2.548 
-1.13221 -1.19127 -2.531 
-1.12165 -1.19127 -2.531 
-1.08957 -1.1682 -2.482 
-1.06529 -1.15314 -2.45 
-1.02879 -1.12443 -2.389 
-1.00005 -1.10372 -2.345 
-0.966613 -1.07736 -2.289 
-0.794865 -0.94181 -2.001 
-0.774325 -0.92722 -1.97 
-0.754433 -0.9131 -1.94 
-0.739024 -0.904157 -1.921 
-0.723773 -0.895214 -1.902 
-0.708681 -0.886271 -1.883 
-0.693747 -0.877329 -1.864 
-0.67934 -0.868857 -1.846 
-0.671632 -0.868857 -1.846 
-0.661047 -0.865091 -1.838 
-0.653373 -0.865091 -1.838 
-0.639375 -0.856619 -1.82 
-0.628652 -0.852383 -1.811 
-0.61526 -0.844382 -1.794 
-0.605059 -0.840616 -1.786 
-0.594925 -0.836851 -1.778 
-0.581884 -0.82885 -1.761 
-0.571921 -0.825084 -1.753 
-0.559449 -0.817554 -1.737 
-0.549653 -0.813788 -1.729 
-0.542434 -0.813788 -1.729 
-0.535214 -0.813788 -1.729 
-0.525858 -0.810494 -1.722 
-0.518668 -0.810494 -1.722 
-0.511478 -0.810494 -1.722 
-0.504288 -0.810494 -1.722 
-0.494788 -0.806728 -1.714 
-0.487632 -0.806728 -1.714 
-0.47627 -0.799668 -1.699 
-0.466967 -0.795903 -1.691 
-0.458003 -0.792608 -1.684 
-0.448829 -0.788843 -1.676 
-0.439986 -0.785548 -1.669 
-0.431201 -0.782253 -1.662 
-0.424262 -0.782253 -1.662 
-0.417322 -0.782253 -1.662 
-0.410383 -0.782253 -1.662 
-0.403443 -0.782253 -1.662 
-0.396504 -0.782253 -1.662 
-0.389564 -0.782253 -1.662 
-0.382625 -0.782253 -1.662 
-0.377268 -0.785548 -1.669 
-0.370299 -0.785548 -1.669 
-0.36333 -0.785548 -1.669 
-0.356362 -0.785548 -1.669 
-0.349393 -0.785548 -1.669 
-0.342424 -0.785548 -1.669 
-0.335456 -0.785548 -1.669 
-0.328487 -0.785548 -1.669 
-0.321518 -0.785548 -1.669 
-0.31455 -0.785548 -1.669 
-0.308871 -0.788843 -1.676 
-0.303314 -0.792608 -1.684 
-0.297514 -0.795903 -1.691 
-0.291828 -0.799668 -1.699 
-0.287248 -0.806728 -1.714 
-0.28385 -0.817554 -1.737 
-0.280419 -0.82885 -1.761 
-0.280819 -0.852383 -1.811 
-0.279897 -0.873093 -1.855 
-0.279047 -0.895214 -1.902 
-0.279373 -0.922513 -1.96 
-0.281243 -1.05195 -2.235 
-0.280062 -1.08348 -2.302 
-0.275502 -1.10372 -2.345 
-0.272396 -1.13149 -2.404 
-0.270871 -1.1682 -2.482 
-0.265651 -1.19127 -2.531 
-0.260223 -1.21527 -2.582 
-0.251181 -1.22374 -2.6 
-0.243653 -1.24069 -2.636 
-0.234235 -1.24916 -2.654 
-0.224751 -1.2581 -2.673 
-0.215109 -1.26704 -2.692 
-0.205308 -1.27599 -2.711 
-0.193988 -1.27599 -2.711 
-0.183949 -1.28493 -2.73 
-0.17255 -1.28493 -2.73 
-0.161152 -1.28493 -2.73 
-0.15085 -1.29434 -2.75 
-0.139368 -1.29434 -2.75 
-0.127886 -1.29434 -2.75 
-0.116403 -1.29434 -2.75 
-0.105684 -1.30376 -2.77 
-0.0941185 -1.30376 -2.77 
-0.0825527 -1.30376 -2.77 
-0.070987 -1.30376 -2.77 
-0.0594213 -1.30376 -2.77 
-0.0478555 -1.30376 -2.77 
-0.0362898 -1.30376 -2.77 
-0.0249025 -1.31317 -2.79 
-0.0132533 -1.31317 -2.79 
-0.00160405 -1.31317 -2.79 
0.0100452 -1.31317 -2.79 
0.0216944 -1.31317 -2.79 
0.0333437 -1.31317 -2.79 
0.0449929 -1.31317 -2.79 
0.0566422 -1.31317 -2.79 
0.0682914 -1.31317 -2.79 
0.0799407 -1.31317 -2.79 
0.0915899 -1.31317 -2.79 
0.103239 -1.31317 -2.79 
0.114888 -1.31317 -2.79 
0.126538 -1.31317 -2.79 
0.138187 -1.31317 -2.79 
0.149836 -1.31317 -2.79 
0.161485 -1.31317 -2.79 
0.173135 -1.31317 -2.79 
0.184784 -1.31317 -2.79 
0.196433 -1.31317 -2.79 
0.208082 -1.31317 -2.79 
0.219732 -1.31317 -2.79 
0.231381 -1.31317 -2.79 
0.241288 -1.30376 -2.77 
0.252854 -1.30376 -2.77 
0.264419 -1.30376 -2.77 
0.275985 -1.30376 -2.77 
0.287551 -1.30376 -2.77 
0.299117 -1.30376 -2.77 
0.310682 -1.30376 -2.77 
0.324575 -1.31317 -2.79 
0.336224 -1.31317 -2.79 
0.347873 -1.31317 -2.79 
0.359523 -1.31317 -2.79 
0.371172 -1.31317 -2.79 
0.382821 -1.31317 -2.79 
0.397298 -1.32258 -2.81 
0.409031 -1.32258 -2.81 
0.420764 -1.32258 -2.81 
0.429418 -1.31317 -2.79 
0.441067 -1.31317 -2.79 
0.449471 -1.30376 -2.77 
0.461037 -1.30376 -2.77 
0.472603 -1.30376 -2.77 
0.484169 -1.30376 -2.77 
0.495734 -1.30376 -2.77 
0.5073 -1.30376 -2.77 
0.518866 -1.30376 -2.77 
0.534261 -1.31317 -2.79 
0.545911 -1.31317 -2.79 
0.55756 -1.31317 -2.79 
0.569209 -1.31317 -2.79 
0.580858 -1.31317 -2.79 
0.592508 -1.31317 -2.79 
0.599826 -1.30376 -2.77 
0.606977 -1.29434 -2.75 
0.61846 -1.29434 -2.75 
0.621008 -1.27599 -2.711 
0.619033 -1.24916 -2.654 
0.617293 -1.22374 -2.6 
0.619693 -1.20727 -2.565 
0.618115 -1.18373 -2.515 
0.616368 -1.16067 -2.466 
0.618533 -1.14561 -2.434 
0.617072 -1.12443 -2.389 
0.619173 -1.11031 -2.359 
0.625289 -1.10372 -2.345 
0.631289 -1.09713 -2.331 
0.641022 -1.09713 -2.331 
0.646567 -1.09007 -2.316 
0.656237 -1.09007 -2.316 
0.665907 -1.09007 -2.316 
0.675577 -1.09007 -2.316 
0.685248 -1.09007 -2.316 
0.694918 -1.09007 -2.316 
0.704588 -1.09007 -2.316 
0.714258 -1.09007 -2.316 
0.728617 -1.09713 -2.331 
0.73835 -1.09713 -2.331 
0.748082 -1.09713 -2.331 
0.752939 -1.09007 -2.316 
0.762609 -1.09007 -2.316 
0.772279 -1.09007 -2.316 
0.777222 -1.08348 -2.302 
0.786834 -1.08348 -2.302 
0.796445 -1.08348 -2.302 
0.801505 -1.07736 -2.289 
0.811062 -1.07736 -2.289 
0.82062 -1.07736 -2.289 
0.834892 -1.08348 -2.302 
0.84964 -1.09007 -2.316 
0.875264 -1.11031 -2.359 
0.89637 -1.12443 -2.389 
0.929487 -1.15314 -2.45 
0.958128 -1.17573 -2.498 
0.987945 -1.19927 -2.548 
1.02602 -1.23221 -2.618 
1.05873 -1.2581 -2.673 
1.0851 -1.27599 -2.711 
1.1122 -1.29434 -2.75 
1.13185 -1.30376 -2.77 
1.14342 -1.30376 -2.77 
1.15498 -1.30376 -2.77 
1.17497 -1.31317 -2.79 
1.18662 -1.31317 -2.79 
1.19827 -1.31317 -2.79 
1.21859 -1.32258 -2.81 
1.23032 -1.32258 -2.81 
1.25134 -1.33247 -2.831 
1.26316 -1.33247 -2.831 
1.27498 -1.33247 -2.831 
1.2868 -1.33247 -2.831 
1.29862 -1.33247 -2.831 
1.30072 -1.32258 -2.81 
1.32226 -1.33247 -2.831 
1.32419 -1.32258 -2.81 
1.33592 -1.32258 -2.81 
1.34765 -1.32258 -2.81 
1.35938 -1.32258 -2.81 
1.37112 -1.32258 -2.81 
1.38285 -1.32258 -2.81 
1.39458 -1.32258 -2.81 
1.41683 -1.33247 -2.831 
1.42865 -1.33247 -2.831 
1.44047 -1.33247 -2.831 
1.45229 -1.33247 -2.831 
1.46411 -1.33247 -2.831 
1.46498 -1.32258 -2.81 
1.47671 -1.32258 -2.81 
1.48844 -1.32258 -2.81 
1.50018 -1.32258 -2.81 
1.50115 -1.31317 -2.79 
1.5128 -1.31317 -2.79 
1.53538 -1.32258 -2.81 
1.54711 -1.32258 -2.81 
1.57049 -1.33247 -2.831 
1.58231 -1.33247 -2.831 
1.59413 -1.33247 -2.831 
1.60595 -1.33247 -2.831 
1.62977 -1.34235 -2.852 
1.62959 -1.33247 -2.831 
1.64141 -1.33247 -2.831 
1.65323 -1.33247 -2.831 
1.66505 -1.33247 -2.831 
1.68931 -1.34235 -2.852 
1.70122 -1.34235 -2.852 
1.71313 -1.34235 -2.852 
1.72504 -1.34235 -2.852 
1.72416 -1.33247 -2.831 
1.73598 -1.33247 -2.831 
1.7478 -1.33247 -2.831 
1.75962 -1.33247 -2.831 
1.77144 -1.33247 -2.831 
1.78326 -1.33247 -2.831 
1.79508 -1.33247 -2.831 
1.8069 -1.33247 -2.831 
1.81872 -1.33247 -2.831 
1.83054 -1.33247 -2.831 
1.85603 -1.34235 -2.852 
1.86794 -1.34235 -2.852 
1.87984 -1.34235 -2.852 
1.89175 -1.34235 -2.852 
1.90366 -1.34235 -2.852 
1.91557 -1.34235 -2.852 
1.92748 -1.34235 -2.852 
1.93938 -1.34235 -2.852 
1.95129 -1.34235 -2.852 
1.9632 -1.34235 -2.852 
1.97511 -1.34235 -2.852 
1.98702 -1.34235 -2.852 
1.99892 -1.34235 -2.852 
2.01083 -1.34235 -2.852 
2.03834 -1.35271 -2.874 
2.05034 -1.35271 -2.874 
2.06234 -1.35271 -2.874 
2.07434 -1.35271 -2.874 
2.10159 -1.36259 -2.895 
2.11368 -1.36259 -2.895 
2.12576 -1.36259 -2.895 
2.13785 -1.36259 -2.895 
2.14994 -1.36259 -2.895 
2.16203 -1.36259 -2.895 
2.17411 -1.36259 -2.895 
2.1862 -1.36259 -2.895 
2.19829 -1.36259 -2.895 
2.21038 -1.36259 -2.895 
2.22247 -1.36259 -2.895 
2.23455 -1.36259 -2.895 
2.24664 -1.36259 -2.895 
2.25873 -1.36259 -2.895 
2.27082 -1.36259 -2.895 
2.30104 -1.37341 -2.918 
2.31322 -1.37341 -2.918 
2.32541 -1.37341 -2.918 
2.33759 -1.37341 -2.918 
2.34978 -1.37341 -2.918 
2.36196 -1.37341 -2.918 
2.37414 -1.37341 -2.918 
2.38633 -1.37341 -2.918 
2.39851 -1.37341 -2.918 
2.41069 -1.37341 -2.918 
2.44114 -1.38377 -2.94 
2.45342 -1.38377 -2.94 
2.4657 -1.38377 -2.94 
2.47797 -1.38377 -2.94 
2.49025 -1.38377 -2.94 
2.5221 -1.39459 -2.963 
2.53447 -1.39459 -2.963 
2.54684 -1.39459 -2.963 
2.57908 -1.40542 -2.986 
2.59155 -1.40542 -2.986 
2.60402 -1.40542 -2.986 
2.61648 -1.40542 -2.986 
2.62895 -1.40542 -2.986 
2.64142 -1.40542 -2.986 
2.65389 -1.40542 -2.986 
2.66635 -1.40542 -2.986 
2.67882 -1.40542 -2.986 
2.69129 -1.40542 -2.986 
2.68293 -1.39459 -2.963 
2.6953 -1.39459 -2.963 
2.70767 -1.39459 -2.963 
2.69893 -1.38377 -2.94 
2.69092 -1.37341 -2.918 
2.7031 -1.37341 -2.918 
2.69388 -1.36259 -2.895 
2.68634 -1.35271 -2.874 
2.69834 -1.35271 -2.874 
2.6896 -1.34235 -2.852 
2.68161 -1.33247 -2.831 
2.67345 -1.32258 -2.81 
2.66607 -1.31317 -2.79 
2.65853 -1.30376 -2.77 
2.65082 -1.29434 -2.75 
2.6623 -1.29434 -2.75 
2.65433 -1.28493 -2.73 
2.64718 -1.27599 -2.711 
2.63987 -1.26704 -2.692 
2.66982 -1.27599 -2.711 
2.69993 -1.28493 -2.73 
2.75105 -1.30376 -2.77 
2.78257 -1.31317 -2.79 
2.79422 -1.31317 -2.79 
2.82598 -1.32258 -2.81 
2.88013 -1.34235 -2.852 
-1.52143 -0.775422 -1.633 
-1.52111 -0.778746 -1.64 
-1.5078 -0.775422 -1.633 
-1.50741 -0.778746 -1.64 
-1.50056 -0.778746 -1.64 
-1.48734 -0.775422 -1.633 
-1.48687 -0.778746 -1.64 
-1.48002 -0.778746 -1.64 
-1.47317 -0.778746 -1.64 
-1.47259 -0.78207 -1.647 
-1.46571 -0.78207 -1.647 
-1.46592 -0.785869 -1.655 
-1.46518 -0.789193 -1.662 
-1.45824 -0.789193 -1.662 
-1.45741 -0.792517 -1.669 
-1.45044 -0.792517 -1.669 
-1.44953 -0.795841 -1.676 
-1.44942 -0.799639 -1.684 
-1.44838 -0.802963 -1.691 
-1.44814 -0.806762 -1.699 
-1.44698 -0.810086 -1.706 
-1.43986 -0.810086 -1.706 
-1.43945 -0.813885 -1.714 
-1.43898 -0.817683 -1.722 
-1.43761 -0.821007 -1.729 
-1.43701 -0.824806 -1.737 
-1.43635 -0.828605 -1.745 
-1.42906 -0.828605 -1.745 
-1.42829 -0.832404 -1.753 
-1.42746 -0.836202 -1.761 
-1.42656 -0.840001 -1.769 
-1.42639 -0.844275 -1.778 
-1.42535 -0.848074 -1.786 
-1.42424 -0.851872 -1.794 
-1.42386 -0.856146 -1.803 
-1.42262 -0.859945 -1.811 
-1.42209 -0.864218 -1.82 
-1.42148 -0.868492 -1.829 
-1.4208 -0.872765 -1.838 
-1.41313 -0.872765 -1.838 
-1.41157 -0.876564 -1.846 
-1.40386 -0.876564 -1.846 
-1.40296 -0.880838 -1.855 
-1.39522 -0.880838 -1.855 
-1.3942 -0.885111 -1.864 
-1.38642 -0.885111 -1.864 
-1.38604 -0.88986 -1.874 
-1.38483 -0.894134 -1.883 
-1.38355 -0.898407 -1.892 
-1.38292 -0.903156 -1.902 
-1.38148 -0.907429 -1.911 
-1.38069 -0.912178 -1.921 
-1.3791 -0.916451 -1.93 
-1.37815 -0.9212 -1.94 
-1.37711 -0.925948 -1.95 
-1.37599 -0.930697 -1.96 
-1.37478 -0.935445 -1.97 
-1.36656 -0.935445 -1.97 
-1.36523 -0.940194 -1.98 
-1.35696 -0.940194 -1.98 
-1.35619 -0.945417 -1.991 
-1.35464 -0.950165 -2.001 
-1.35369 -0.955389 -2.012 
-1.34529 -0.955389 -2.012 
-1.34353 -0.960137 -2.022 
-1.34235 -0.96536 -2.033 
-1.34108 -0.970584 -2.044 
-1.34689 -0.98103 -2.066 
-1.34539 -0.986253 -2.077 
-1.34444 -0.991952 -2.089 
-1.35042 -1.00287 -2.112 
-1.34859 -1.0081 -2.123 
-1.35487 -1.01949 -2.147 
-1.35343 -1.02519 -2.159 
-1.35251 -1.03136 -2.172 
-1.35086 -1.03706 -2.184 
-1.34973 -1.04323 -2.197 
-1.34788 -1.04893 -2.209 
-1.34654 -1.05511 -2.222 
-1.33726 -1.05511 -2.222 
-1.33575 -1.06128 -2.235 
-1.33413 -1.06745 -2.248 
-1.333 -1.0741 -2.262 
-1.33116 -1.08027 -2.275 
-1.32979 -1.08692 -2.289 
-1.32773 -1.09309 -2.302 
-1.31812 -1.09309 -2.302 
-1.31647 -1.09974 -2.316 
-1.31526 -1.10686 -2.331 
-1.30553 -1.10686 -2.331 
-1.30358 -1.11351 -2.345 
-1.29379 -1.11351 -2.345 
-1.284 -1.11351 -2.345 
-1.28181 -1.12016 -2.359 
-1.28005 -1.12728 -2.374 
-1.27014 -1.12728 -2.374 
-1.26819 -1.13441 -2.389 
-1.25821 -1.13441 -2.389 
-1.25608 -1.14153 -2.404 
-1.25381 -1.14865 -2.419 
-1.25143 -1.15577 -2.434 
-1.24942 -1.16337 -2.45 
-1.24729 -1.17097 -2.466 
-1.24502 -1.17857 -2.482 
-1.23465 -1.17857 -2.482 
-1.23218 -1.18616 -2.498 
-1.23007 -1.19424 -2.515 
-1.22732 -1.20183 -2.531 
-1.21676 -1.20183 -2.531 
-1.20619 -1.20183 -2.531 
-1.20365 -1.20991 -2.548 
-1.19301 -1.20991 -2.548 
-1.18237 -1.20991 -2.548 
-1.17173 -1.20991 -2.548 
-1.1611 -1.20991 -2.548 
-1.14278 -1.20183 -2.531 
-1.13221 -1.20183 -2.531 
-1.12165 -1.20183 -2.531 
-1.09659 -1.18616 -2.498 
-1.0792 -1.17857 -2.482 
-1.04817 -1.15577 -2.434 
-1.02521 -1.14153 -2.404 
-0.996173 -1.12016 -2.359 
-0.968344 -1.09974 -2.316 
-0.941703 -1.08027 -2.275 
-0.910487 -1.05511 -2.222 
-0.885797 -1.03706 -2.184 
-0.861826 -1.01949 -2.147 
-0.745187 -0.940194 -1.98 
-0.733198 -0.935445 -1.97 
-0.721293 -0.930697 -1.96 
-0.709471 -0.925948 -1.95 
-0.697732 -0.9212 -1.94 
-0.686077 -0.916451 -1.93 
-0.671344 -0.907429 -1.911 
-0.660241 -0.903156 -1.902 
-0.645783 -0.894134 -1.883 
-0.634872 -0.88986 -1.874 
-0.62069 -0.880838 -1.855 
-0.607327 -0.872765 -1.838 
-0.596716 -0.868492 -1.829 
-0.586181 -0.864218 -1.82 
-0.573178 -0.856146 -1.803 
-0.565649 -0.856146 -1.803 
-0.555335 -0.851872 -1.794 
-0.547845 -0.851872 -1.794 
-0.537944 -0.848074 -1.786 
-0.530487 -0.848074 -1.786 
-0.52303 -0.848074 -1.786 
-0.513263 -0.844275 -1.778 
-0.503279 -0.840001 -1.769 
-0.49365 -0.836202 -1.761 
-0.484088 -0.832404 -1.753 
-0.472417 -0.824806 -1.737 
-0.463022 -0.821007 -1.729 
-0.453958 -0.817683 -1.722 
-0.444692 -0.813885 -1.714 
-0.433707 -0.806762 -1.699 
-0.424604 -0.802963 -1.691 
-0.415815 -0.799639 -1.684 
-0.408784 -0.799639 -1.684 
-0.401752 -0.799639 -1.684 
-0.394721 -0.799639 -1.684 
-0.389301 -0.802963 -1.691 
-0.384049 -0.806762 -1.699 
-0.376955 -0.806762 -1.699 
-0.371385 -0.810086 -1.706 
-0.36597 -0.813885 -1.714 
-0.360488 -0.817683 -1.722 
-0.354735 -0.821007 -1.729 
-0.347515 -0.821007 -1.729 
-0.341871 -0.824806 -1.737 
-0.334618 -0.824806 -1.737 
-0.327366 -0.824806 -1.737 
-0.321587 -0.828605 -1.745 
-0.315742 -0.832404 -1.753 
-0.30983 -0.836202 -1.761 
-0.305397 -0.844275 -1.778 
-0.300655 -0.851872 -1.794 
-0.297413 -0.864218 -1.82 
-0.295387 -0.880838 -1.855 
-0.293379 -0.898407 -1.892 
-0.294807 -1.04323 -2.197 
-0.294085 -1.0741 -2.262 
-0.291435 -1.09974 -2.316 
-0.288822 -1.12728 -2.374 
-0.284196 -1.14865 -2.419 
-0.279421 -1.17097 -2.466 
-0.274473 -1.19424 -2.515 
-0.26922 -1.21798 -2.565 
-0.260223 -1.22605 -2.582 
-0.25292 -1.24314 -2.618 
-0.243653 -1.25169 -2.636 
-0.234235 -1.26024 -2.654 
-0.223154 -1.26024 -2.654 
-0.213591 -1.26926 -2.673 
-0.203869 -1.27828 -2.692 
-0.192629 -1.27828 -2.692 
-0.181389 -1.27828 -2.692 
-0.17135 -1.28731 -2.711 
-0.16003 -1.28731 -2.711 
-0.148711 -1.28731 -2.711 
-0.138354 -1.29633 -2.73 
-0.126956 -1.29633 -2.73 
-0.115557 -1.29633 -2.73 
-0.104158 -1.29633 -2.73 
-0.0927594 -1.29633 -2.73 
-0.0813606 -1.29633 -2.73 
-0.0699619 -1.29633 -2.73 
-0.0585632 -1.29633 -2.73 
-0.04751 -1.30582 -2.75 
-0.0360278 -1.30582 -2.75 
-0.0245455 -1.30582 -2.75 
-0.0130633 -1.30582 -2.75 
-0.00158105 -1.30582 -2.75 
0.00990118 -1.30582 -2.75 
0.0213834 -1.30582 -2.75 
0.0328657 -1.30582 -2.75 
0.0443479 -1.30582 -2.75 
0.0558301 -1.30582 -2.75 
0.0673124 -1.30582 -2.75 
0.0787946 -1.30582 -2.75 
0.0902768 -1.30582 -2.75 
0.102499 -1.31532 -2.77 
0.114065 -1.31532 -2.77 
0.125631 -1.31532 -2.77 
0.137196 -1.31532 -2.77 
0.148762 -1.31532 -2.77 
0.160328 -1.31532 -2.77 
0.171894 -1.31532 -2.77 
0.183459 -1.31532 -2.77 
0.195025 -1.31532 -2.77 
0.206591 -1.31532 -2.77 
0.216581 -1.30582 -2.75 
0.228064 -1.30582 -2.75 
0.239546 -1.30582 -2.75 
0.251028 -1.30582 -2.75 
0.26251 -1.30582 -2.75 
0.273993 -1.30582 -2.75 
0.285475 -1.30582 -2.75 
0.296957 -1.30582 -2.75 
0.308439 -1.30582 -2.75 
0.319922 -1.30582 -2.75 
0.331404 -1.30582 -2.75 
0.342886 -1.30582 -2.75 
0.356945 -1.31532 -2.77 
0.368511 -1.31532 -2.77 
0.380077 -1.31532 -2.77 
0.391643 -1.31532 -2.77 
0.40612 -1.32482 -2.79 
0.417769 -1.32482 -2.79 
0.42634 -1.31532 -2.77 
0.434744 -1.30582 -2.75 
0.446226 -1.30582 -2.75 
0.457708 -1.30582 -2.75 
0.465778 -1.29633 -2.73 
0.480673 -1.30582 -2.75 
0.492155 -1.30582 -2.75 
0.503637 -1.30582 -2.75 
0.515119 -1.30582 -2.75 
0.526602 -1.30582 -2.75 
0.538084 -1.30582 -2.75 
0.553563 -1.31532 -2.77 
0.565129 -1.31532 -2.77 
0.576695 -1.31532 -2.77 
0.584013 -1.30582 -2.75 
0.591164 -1.29633 -2.73 
0.602563 -1.29633 -2.73 
0.609689 -1.28731 -2.711 
0.612303 -1.26926 -2.673 
0.614834 -1.25169 -2.636 
0.617293 -1.2346 -2.6 
0.615586 -1.20991 -2.548 
0.613936 -1.18616 -2.498 
0.616368 -1.17097 -2.466 
0.618533 -1.15577 -2.434 
0.620947 -1.14153 -2.404 
0.62311 -1.12728 -2.374 
0.625289 -1.11351 -2.345 
0.635081 -1.11351 -2.345 
0.641022 -1.10686 -2.331 
0.650755 -1.10686 -2.331 
0.656237 -1.09974 -2.316 
0.665907 -1.09974 -2.316 
0.675577 -1.09974 -2.316 
0.685248 -1.09974 -2.316 
0.694918 -1.09974 -2.316 
0.704588 -1.09974 -2.316 
0.714258 -1.09974 -2.316 
0.728617 -1.10686 -2.331 
0.73835 -1.10686 -2.331 
0.748082 -1.10686 -2.331 
0.752939 -1.09974 -2.316 
0.762609 -1.09974 -2.316 
0.772279 -1.09974 -2.316 
0.777222 -1.09309 -2.302 
0.786834 -1.09309 -2.302 
0.796445 -1.09309 -2.302 
0.801505 -1.08692 -2.289 
0.811062 -1.08692 -2.289 
0.82062 -1.08692 -2.289 
0.834892 -1.09309 -2.302 
0.855143 -1.10686 -2.331 
0.875264 -1.12016 -2.359 
0.89637 -1.13441 -2.389 
0.929487 -1.16337 -2.45 
0.958128 -1.18616 -2.498 
0.987945 -1.20991 -2.548 
1.01896 -1.2346 -2.6 
1.05121 -1.26024 -2.654 
1.0775 -1.27828 -2.692 
1.09642 -1.28731 -2.711 
1.11551 -1.29633 -2.73 
1.1269 -1.29633 -2.73 
1.14664 -1.30582 -2.75 
1.16655 -1.31532 -2.77 
1.17811 -1.31532 -2.77 
1.18968 -1.31532 -2.77 
1.20992 -1.32482 -2.79 
1.22157 -1.32482 -2.79 
1.23322 -1.32482 -2.79 
1.24487 -1.32482 -2.79 
1.25651 -1.32482 -2.79 
1.26816 -1.32482 -2.79 
1.27981 -1.32482 -2.79 
1.29146 -1.32482 -2.79 
1.30311 -1.32482 -2.79 
1.30534 -1.31532 -2.77 
1.3169 -1.31532 -2.77 
1.32847 -1.31532 -2.77 
1.34003 -1.31532 -2.77 
1.3516 -1.31532 -2.77 
1.37301 -1.32482 -2.79 
1.38466 -1.32482 -2.79 
1.39631 -1.32482 -2.79 
1.41805 -1.33432 -2.81 
1.42978 -1.33432 -2.81 
1.44151 -1.33432 -2.81 
1.4429 -1.32482 -2.79 
1.45455 -1.32482 -2.79 
1.4662 -1.32482 -2.79 
1.46726 -1.31532 -2.77 
1.47882 -1.31532 -2.77 
1.49039 -1.31532 -2.77 
1.50195 -1.31532 -2.77 
1.51352 -1.31532 -2.77 
1.5361 -1.32482 -2.79 
1.55884 -1.33432 -2.81 
1.57057 -1.33432 -2.81 
1.59413 -1.34429 -2.831 
1.60595 -1.34429 -2.831 
1.61777 -1.34429 -2.831 
1.62959 -1.34429 -2.831 
1.64141 -1.34429 -2.831 
1.65323 -1.34429 -2.831 
1.66505 -1.34429 -2.831 
1.67687 -1.34429 -2.831 
1.6887 -1.34429 -2.831 
1.70052 -1.34429 -2.831 
1.71234 -1.34429 -2.831 
1.71137 -1.33432 -2.81 
1.7231 -1.33432 -2.81 
1.73483 -1.33432 -2.81 
1.74657 -1.33432 -2.81 
1.7583 -1.33432 -2.81 
1.77003 -1.33432 -2.81 
1.76908 -1.32482 -2.79 
1.78073 -1.32482 -2.79 
1.79238 -1.32482 -2.79 
1.81696 -1.33432 -2.81 
1.82869 -1.33432 -2.81 
1.85418 -1.34429 -2.831 
1.866 -1.34429 -2.831 
1.87782 -1.34429 -2.831 
1.88964 -1.34429 -2.831 
1.90146 -1.34429 -2.831 
1.91328 -1.34429 -2.831 
1.91082 -1.33432 -2.81 
1.92256 -1.33432 -2.81 
1.93429 -1.33432 -2.81 
1.96057 -1.34429 -2.831 
1.97239 -1.34429 -2.831 
1.98421 -1.34429 -2.831 
1.99603 -1.34429 -2.831 
2.00785 -1.34429 -2.831 
2.01967 -1.34429 -2.831 
2.04656 -1.35426 -2.852 
2.05847 -1.35426 -2.852 
2.07037 -1.35426 -2.852 
2.08228 -1.35426 -2.852 
2.11034 -1.36471 -2.874 
2.12234 -1.36471 -2.874 
2.13434 -1.36471 -2.874 
2.14634 -1.36471 -2.874 
2.15834 -1.36471 -2.874 
2.17034 -1.36471 -2.874 
2.18234 -1.36471 -2.874 
2.19434 -1.36471 -2.874 
2.20634 -1.36471 -2.874 
2.21834 -1.36471 -2.874 
2.23034 -1.36471 -2.874 
2.24234 -1.36471 -2.874 
2.25434 -1.36471 -2.874 
2.2829 -1.37468 -2.895 
2.29499 -1.37468 -2.895 
2.30708 -1.37468 -2.895 
2.33759 -1.3856 -2.918 
2.34978 -1.3856 -2.918 
2.36196 -1.3856 -2.918 
2.37414 -1.3856 -2.918 
2.38633 -1.3856 -2.918 
2.39851 -1.3856 -2.918 
2.41069 -1.3856 -2.918 
2.42288 -1.3856 -2.918 
2.43506 -1.3856 -2.918 
2.44725 -1.3856 -2.918 
2.45943 -1.3856 -2.918 
2.49025 -1.39604 -2.94 
2.50252 -1.39604 -2.94 
2.53447 -1.40697 -2.963 
2.54684 -1.40697 -2.963 
2.55921 -1.40697 -2.963 
2.57159 -1.40697 -2.963 
2.60402 -1.41789 -2.986 
2.61648 -1.41789 -2.986 
2.62895 -1.41789 -2.986 
2.64142 -1.41789 -2.986 
2.65389 -1.41789 -2.986 
2.66635 -1.41789 -2.986 
2.65819 -1.40697 -2.963 
2.67056 -1.40697 -2.963 
2.68293 -1.40697 -2.963 
2.6953 -1.40697 -2.963 
2.68666 -1.39604 -2.94 
2.69893 -1.39604 -2.94 
2.69092 -1.3856 -2.918 
2.7031 -1.3856 -2.918 
2.69388 -1.37468 -2.895 
2.68634 -1.36471 -2.874 
2.69834 -1.36471 -2.874 
2.6896 -1.35426 -2.852 
2.68161 -1.34429 -2.831 
2.67345 -1.33432 -2.81 
2.66607 -1.32482 -2.79 
2.65853 -1.31532 -2.77 
2.65082 -1.30582 -2.75 
2.6623 -1.30582 -2.75 
2.65433 -1.29633 -2.73 
2.64718 -1.28731 -2.711 
2.63987 -1.27828 -2.692 
2.65111 -1.27828 -2.692 
2.69993 -1.29633 -2.73 
2.75105 -1.31532 -2.77 
2.78257 -1.32482 -2.79 
2.77419 -1.31532 -2.77 
2.78575 -1.31532 -2.77 
2.85892 -1.34429 -2.831 
-1.52825 -0.782241 -1.633 
-1.52795 -0.785594 -1.64 
-1.51461 -0.782241 -1.633 
-1.5078 -0.782241 -1.633 
-1.50741 -0.785594 -1.64 
-1.50056 -0.785594 -1.64 
-1.49372 -0.785594 -1.64 
-1.48687 -0.785594 -1.64 
-1.48002 -0.785594 -1.64 
-1.47317 -0.785594 -1.64 
-1.47259 -0.788947 -1.647 
-1.46571 -0.788947 -1.647 
-1.46592 -0.792779 -1.655 
-1.46518 -0.796132 -1.662 
-1.45824 -0.796132 -1.662 
-1.45741 -0.799485 -1.669 
-1.45044 -0.799485 -1.669 
-1.44953 -0.802839 -1.676 
-1.44942 -0.806671 -1.684 
-1.44838 -0.810024 -1.691 
-1.44814 -0.813856 -1.699 
-1.44698 -0.817209 -1.706 
-1.43986 -0.817209 -1.706 
-1.43945 -0.821041 -1.714 
-1.43898 -0.824873 -1.722 
-1.43761 -0.828227 -1.729 
-1.43701 -0.832059 -1.737 
-1.43635 -0.835891 -1.745 
-1.43561 -0.839723 -1.753 
-1.42829 -0.839723 -1.753 
-1.42746 -0.843555 -1.761 
-1.42656 -0.847387 -1.769 
-1.42639 -0.851699 -1.778 
-1.42535 -0.855531 -1.786 
-1.42424 -0.859363 -1.794 
-1.42386 -0.863674 -1.803 
-1.42262 -0.867506 -1.811 
-1.42209 -0.871817 -1.82 
-1.42148 -0.876129 -1.829 
-1.4208 -0.88044 -1.838 
-1.41313 -0.88044 -1.838 
-1.41157 -0.884272 -1.846 
-1.41071 -0.888583 -1.855 
-1.40296 -0.888583 -1.855 
-1.39522 -0.888583 -1.855 
-1.3942 -0.892894 -1.864 
-1.39386 -0.897685 -1.874 
-1.39269 -0.901996 -1.883 
-1.39145 -0.906307 -1.892 
-1.39086 -0.911097 -1.902 
-1.38946 -0.915408 -1.911 
-1.38148 -0.915408 -1.911 
-1.38069 -0.920199 -1.921 
-1.3791 -0.92451 -1.93 
-1.37815 -0.9293 -1.94 
-1.37711 -0.93409 -1.95 
-1.37599 -0.93888 -1.96 
-1.37478 -0.943671 -1.97 
-1.37349 -0.948461 -1.98 
-1.36523 -0.948461 -1.98 
-1.3645 -0.95373 -1.991 
-1.363 -0.95852 -2.001 
-1.35464 -0.95852 -2.001 
-1.35369 -0.963789 -2.012 
-1.34529 -0.963789 -2.012 
-1.34353 -0.96858 -2.022 
-1.34235 -0.973849 -2.033 
-1.34108 -0.979118 -2.044 
-1.34689 -0.989656 -2.066 
-1.34539 -0.994926 -2.077 
-1.34444 -1.00067 -2.089 
-1.35042 -1.01169 -2.112 
-1.34859 -1.01696 -2.123 
-1.3473 -1.02271 -2.135 
-1.34591 -1.02846 -2.147 
-1.34442 -1.03421 -2.159 
-1.35086 -1.04618 -2.184 
-1.34973 -1.05241 -2.197 
-1.34788 -1.05816 -2.209 
-1.33866 -1.05816 -2.209 
-1.33726 -1.06438 -2.222 
-1.33575 -1.07061 -2.235 
-1.33413 -1.07684 -2.248 
-1.333 -1.08354 -2.262 
-1.33116 -1.08977 -2.275 
-1.32979 -1.09648 -2.289 
-1.32024 -1.09648 -2.289 
-1.31812 -1.10271 -2.302 
-1.31647 -1.10941 -2.316 
-1.3068 -1.10941 -2.316 
-1.30553 -1.1166 -2.331 
-1.30358 -1.1233 -2.345 
-1.29379 -1.1233 -2.345 
-1.284 -1.1233 -2.345 
-1.28181 -1.13001 -2.359 
-1.28005 -1.13719 -2.374 
-1.27014 -1.13719 -2.374 
-1.26819 -1.14438 -2.389 
-1.25821 -1.14438 -2.389 
-1.25608 -1.15157 -2.404 
-1.25381 -1.15875 -2.419 
-1.25143 -1.16594 -2.434 
-1.24942 -1.1736 -2.45 
-1.24729 -1.18126 -2.466 
-1.24502 -1.18893 -2.482 
-1.23465 -1.18893 -2.482 
-1.23218 -1.19659 -2.498 
-1.22175 -1.19659 -2.498 
-1.21132 -1.19659 -2.498 
-1.20906 -1.20474 -2.515 
-1.19856 -1.20474 -2.515 
-1.18806 -1.20474 -2.515 
-1.18505 -1.2124 -2.531 
-1.17448 -1.2124 -2.531 
-1.16392 -1.2124 -2.531 
-1.15335 -1.2124 -2.531 
-1.14278 -1.2124 -2.531 
-1.12506 -1.20474 -2.515 
-1.12165 -1.2124 -2.531 
-1.10405 -1.20474 -2.515 
-1.08616 -1.19659 -2.498 
-1.06884 -1.18893 -2.482 
-1.05165 -1.18126 -2.466 
-1.02151 -1.15875 -2.419 
-1.00514 -1.15157 -2.404 
-0.982683 -1.13719 -2.374 
-0.960887 -1.1233 -2.345 
-0.933656 -1.10271 -2.302 
-0.913206 -1.08977 -2.275 
-0.882654 -1.06438 -2.222 
-0.868266 -1.05816 -2.209 
-0.849321 -1.04618 -2.184 
-0.679049 -0.948461 -1.98 
-0.667394 -0.943671 -1.97 
-0.655823 -0.93888 -1.96 
-0.637726 -0.92451 -1.93 
-0.623469 -0.915408 -1.911 
-0.612591 -0.911097 -1.902 
-0.601471 -0.906307 -1.892 
-0.590748 -0.901996 -1.883 
-0.580099 -0.897685 -1.874 
-0.572275 -0.897685 -1.874 
-0.561438 -0.892894 -1.864 
-0.553655 -0.892894 -1.864 
-0.543237 -0.888583 -1.855 
-0.535491 -0.888583 -1.855 
-0.525186 -0.884272 -1.846 
-0.512712 -0.876129 -1.829 
-0.50259 -0.871817 -1.82 
-0.492543 -0.867506 -1.811 
-0.480429 -0.859363 -1.794 
-0.47083 -0.855531 -1.786 
-0.458962 -0.847387 -1.769 
-0.447491 -0.839723 -1.753 
-0.436154 -0.832059 -1.737 
-0.426926 -0.828227 -1.729 
-0.418008 -0.824873 -1.722 
-0.410818 -0.824873 -1.722 
-0.403628 -0.824873 -1.722 
-0.39805 -0.828227 -1.729 
-0.392639 -0.832059 -1.737 
-0.387161 -0.835891 -1.745 
-0.381617 -0.839723 -1.753 
-0.377714 -0.847387 -1.769 
-0.372212 -0.851699 -1.778 
-0.366429 -0.855531 -1.786 
-0.36058 -0.859363 -1.794 
-0.353089 -0.859363 -1.794 
-0.347332 -0.863674 -1.803 
-0.339804 -0.863674 -1.803 
-0.33375 -0.867506 -1.811 
-0.32781 -0.871817 -1.82 
-0.323378 -0.88044 -1.838 
-0.318623 -0.888583 -1.855 
-0.314062 -0.897685 -1.874 
-0.310813 -0.911097 -1.902 
-0.308923 -0.9293 -1.94 
-0.312974 -1.08354 -2.262 
-0.310776 -1.10941 -2.316 
-0.308646 -1.13719 -2.374 
-0.304396 -1.15875 -2.419 
-0.298068 -1.1736 -2.45 
-0.293477 -1.19659 -2.498 
-0.284974 -1.20474 -2.515 
-0.278074 -1.22054 -2.548 
-0.26922 -1.22869 -2.565 
-0.262037 -1.24545 -2.6 
-0.251181 -1.24545 -2.6 
-0.241989 -1.25408 -2.618 
-0.232647 -1.2627 -2.636 
-0.22164 -1.2627 -2.636 
-0.212072 -1.27132 -2.654 
-0.200991 -1.27132 -2.654 
-0.18991 -1.27132 -2.654 
-0.180108 -1.28042 -2.673 
-0.168948 -1.28042 -2.673 
-0.157787 -1.28042 -2.673 
-0.146626 -1.28042 -2.673 
-0.136428 -1.28952 -2.692 
-0.125188 -1.28952 -2.692 
-0.113948 -1.28952 -2.692 
-0.102708 -1.28952 -2.692 
-0.0914682 -1.28952 -2.692 
-0.0807944 -1.29862 -2.711 
-0.069475 -1.29862 -2.711 
-0.0581556 -1.29862 -2.711 
-0.0468362 -1.29862 -2.711 
-0.0355168 -1.29862 -2.711 
-0.0241974 -1.29862 -2.711 
-0.012878 -1.29862 -2.711 
-0.00155863 -1.29862 -2.711 
0.00976077 -1.29862 -2.711 
0.0212279 -1.30773 -2.73 
0.0326266 -1.30773 -2.73 
0.0440254 -1.30773 -2.73 
0.0554241 -1.30773 -2.73 
0.0668228 -1.30773 -2.73 
0.0782215 -1.30773 -2.73 
0.0896203 -1.30773 -2.73 
0.101019 -1.30773 -2.73 
0.112418 -1.30773 -2.73 
0.123816 -1.30773 -2.73 
0.135215 -1.30773 -2.73 
0.146614 -1.30773 -2.73 
0.158013 -1.30773 -2.73 
0.169411 -1.30773 -2.73 
0.18081 -1.30773 -2.73 
0.192209 -1.30773 -2.73 
0.203608 -1.30773 -2.73 
0.215006 -1.30773 -2.73 
0.226405 -1.30773 -2.73 
0.236149 -1.29862 -2.711 
0.247468 -1.29862 -2.711 
0.258787 -1.29862 -2.711 
0.270107 -1.29862 -2.711 
0.281426 -1.29862 -2.711 
0.292746 -1.29862 -2.711 
0.304065 -1.29862 -2.711 
0.317595 -1.30773 -2.73 
0.328994 -1.30773 -2.73 
0.340392 -1.30773 -2.73 
0.354368 -1.31731 -2.75 
0.36585 -1.31731 -2.75 
0.377333 -1.31731 -2.75 
0.388815 -1.31731 -2.75 
0.400297 -1.31731 -2.75 
0.411779 -1.31731 -2.75 
0.423262 -1.31731 -2.75 
0.431582 -1.30773 -2.73 
0.442981 -1.30773 -2.73 
0.451217 -1.29862 -2.711 
0.462537 -1.29862 -2.711 
0.473856 -1.29862 -2.711 
0.485175 -1.29862 -2.711 
0.496495 -1.29862 -2.711 
0.507814 -1.29862 -2.711 
0.519134 -1.29862 -2.711 
0.534171 -1.30773 -2.73 
0.545569 -1.30773 -2.73 
0.556968 -1.30773 -2.73 
0.568367 -1.30773 -2.73 
0.575731 -1.29862 -2.711 
0.582936 -1.28952 -2.692 
0.594176 -1.28952 -2.692 
0.601143 -1.28042 -2.673 
0.607951 -1.27132 -2.654 
0.610636 -1.25408 -2.618 
0.61302 -1.23683 -2.582 
0.615586 -1.22054 -2.548 
0.613936 -1.19659 -2.498 
0.616368 -1.18126 -2.466 
0.618533 -1.16594 -2.434 
0.620947 -1.15157 -2.404 
0.62311 -1.13719 -2.374 
0.629023 -1.13001 -2.359 
0.635081 -1.1233 -2.345 
0.641022 -1.1166 -2.331 
0.650755 -1.1166 -2.331 
0.656237 -1.10941 -2.316 
0.665907 -1.10941 -2.316 
0.675577 -1.10941 -2.316 
0.685248 -1.10941 -2.316 
0.699418 -1.1166 -2.331 
0.704588 -1.10941 -2.316 
0.718884 -1.1166 -2.331 
0.728617 -1.1166 -2.331 
0.73835 -1.1166 -2.331 
0.748082 -1.1166 -2.331 
0.752939 -1.10941 -2.316 
0.762609 -1.10941 -2.316 
0.772279 -1.10941 -2.316 
0.781949 -1.10941 -2.316 
0.786834 -1.10271 -2.302 
0.796445 -1.10271 -2.302 
0.801505 -1.09648 -2.289 
0.811062 -1.09648 -2.289 
0.82528 -1.10271 -2.302 
0.83997 -1.10941 -2.316 
0.855143 -1.1166 -2.331 
0.875264 -1.13001 -2.359 
0.901998 -1.15157 -2.404 
0.929487 -1.1736 -2.45 
0.958128 -1.19659 -2.498 
0.987945 -1.22054 -2.548 
1.01191 -1.23683 -2.582 
1.04408 -1.2627 -2.636 
1.06229 -1.27132 -2.654 
1.08874 -1.28952 -2.692 
1.10774 -1.29862 -2.711 
1.11122 -1.28952 -2.692 
1.13038 -1.29862 -2.711 
1.1497 -1.30773 -2.73 
1.1611 -1.30773 -2.73 
1.18109 -1.31731 -2.75 
1.19257 -1.31731 -2.75 
1.20405 -1.31731 -2.75 
1.21554 -1.31731 -2.75 
1.23594 -1.32689 -2.77 
1.2385 -1.31731 -2.75 
1.24998 -1.31731 -2.75 
1.26146 -1.31731 -2.75 
1.27295 -1.31731 -2.75 
1.28443 -1.31731 -2.75 
1.28649 -1.30773 -2.73 
1.29789 -1.30773 -2.73 
1.30928 -1.30773 -2.73 
1.32068 -1.30773 -2.73 
1.33208 -1.30773 -2.73 
1.35332 -1.31731 -2.75 
1.3648 -1.31731 -2.75 
1.37629 -1.31731 -2.75 
1.39786 -1.32689 -2.77 
1.40943 -1.32689 -2.77 
1.42099 -1.32689 -2.77 
1.42222 -1.31731 -2.75 
