ply
format ascii 1.0
comment pointcloud saved from Realsense Viewer
element vertex 1806
property float32 x
property float32 y
property float32 z
end_header
-0.62850 2.75500 -0.56769 
-0.18690 3.05800 -0.63012 
-0.02785 3.12000 -0.64290 
0.11407 3.21900 -0.66330 
0.12247 3.21900 -0.66330 
0.13087 3.21900 -0.66330 
0.14845 3.23600 -0.66680 
0.39323 3.30600 -0.68122 
0.45856 3.34200 -0.68864 
0.51364 3.36000 -0.69235 
0.59352 3.41600 -0.70389 
0.61493 3.43600 -0.70801 
0.97425 2.69400 -0.55512 
1.02633 2.64700 -0.54543 
1.34709 2.94000 -0.60581 
1.45033 2.87100 -0.59159 
1.52368 2.64700 -0.54543 
1.51774 2.61300 -0.53843 
1.51204 2.58000 -0.53163 
1.75821 2.43600 -0.50195 
1.79248 2.31600 -0.47723 
1.89399 2.35200 -0.48465 
-1.46498 2.22400 -0.46407 
-1.43960 2.25700 -0.47096 
-1.24377 2.34300 -0.48891 
-1.21636 2.36100 -0.49266 
-0.87704 1.90500 -0.39751 
-0.76041 1.88700 -0.39375 
-0.62040 1.80900 -0.37748 
-0.48608 1.71800 -0.35849 
-0.62131 2.75500 -0.57488 
-0.58135 2.80500 -0.58531 
-0.54728 2.81800 -0.58802 
-0.54241 2.83100 -0.59073 
-0.52764 2.83100 -0.59073 
-0.48845 2.81800 -0.58802 
-0.42763 2.80500 -0.58531 
-0.29559 3.02700 -0.63163 
-0.09298 3.12000 -0.65104 
-0.06042 3.12000 -0.65104 
-0.02785 3.12000 -0.65104 
0.00472 3.12000 -0.65104 
0.07131 3.18500 -0.66460 
0.29508 3.27000 -0.68234 
0.31215 3.27000 -0.68234 
0.40186 3.30600 -0.68985 
0.41911 3.30600 -0.68985 
0.52536 3.37900 -0.70508 
0.53703 3.39700 -0.70884 
0.76665 3.51500 -0.73346 
0.79417 3.51500 -0.73346 
0.81252 3.51500 -0.73346 
0.89094 3.53500 -0.73764 
0.89944 3.36000 -0.70112 
0.85108 3.08900 -0.64457 
0.80216 2.83100 -0.59073 
0.78779 2.73000 -0.56966 
0.90491 2.71800 -0.56716 
1.03324 2.64700 -0.55234 
1.07009 2.67000 -0.55714 
1.42236 2.96900 -0.61953 
1.43230 2.92600 -0.61056 
1.44128 2.89800 -0.60472 
1.51878 2.83100 -0.59073 
1.52908 2.71800 -0.56716 
1.56593 2.56900 -0.53606 
1.72336 2.49600 -0.52083 
1.74769 2.46600 -0.51457 
1.75905 2.44600 -0.51040 
1.78892 2.34300 -0.48891 
1.78124 2.32500 -0.48515 
1.90013 2.35200 -0.49078 
-1.64295 2.15300 -0.45488 
-1.55921 2.14600 -0.45340 
-1.43794 2.27300 -0.48023 
-1.40089 2.29000 -0.48382 
-1.36372 2.30800 -0.48762 
-1.31208 2.33400 -0.49312 
-1.26211 2.34300 -0.49502 
-0.87980 1.91100 -0.40375 
-0.81497 1.91100 -0.40375 
-0.63667 1.81500 -0.38347 
-0.62985 1.80900 -0.38220 
-0.56131 1.75700 -0.37121 
-0.54287 1.74200 -0.36804 
-0.48735 1.91700 -0.40502 
-0.58342 2.78000 -0.58735 
-0.55463 2.81800 -0.59538 
-0.28769 3.02700 -0.63953 
0.30362 3.27000 -0.69087 
0.47601 3.34200 -0.70608 
0.48734 3.36000 -0.70989 
0.50773 3.37900 -0.71390 
0.76179 3.53500 -0.74686 
0.81252 3.51500 -0.74263 
0.89598 3.55500 -0.75109 
0.90453 3.37900 -0.71390 
0.79499 2.70600 -0.57171 
0.95165 2.73000 -0.57678 
0.99091 2.68200 -0.56664 
1.12041 2.74200 -0.57932 
1.18435 2.84400 -0.60087 
1.23547 2.91200 -0.61524 
1.36892 2.95400 -0.62411 
1.41517 2.95400 -0.62411 
1.45782 2.87100 -0.60657 
1.66180 2.63600 -0.55692 
1.80127 2.41700 -0.51065 
1.90386 2.33400 -0.49312 
-1.67162 2.16100 -0.46221 
-1.64295 2.15300 -0.46050 
-1.59281 2.14600 -0.45900 
-1.50807 2.16100 -0.46221 
-1.48552 2.16100 -0.46221 
-1.46597 2.20800 -0.47226 
-1.44630 2.24000 -0.47910 
-1.31714 2.34300 -0.50113 
-0.76534 1.88700 -0.40360 
-0.69647 1.84800 -0.39526 
-0.68460 1.84200 -0.39398 
-0.60049 1.77800 -0.38029 
-0.57210 1.76200 -0.37687 
-0.51447 1.72300 -0.36852 
-0.50401 1.71800 -0.36746 
-0.46725 1.78300 -0.38136 
-0.47090 1.81500 -0.38820 
-0.60850 2.49600 -0.53386 
-0.63269 2.74200 -0.58647 
-0.48109 2.81800 -0.60273 
-0.41491 2.81800 -0.60273 
-0.31465 2.98300 -0.63802 
-0.19583 3.07300 -0.65727 
-0.16461 3.08900 -0.66069 
-0.14043 3.08900 -0.66069 
-0.09298 3.12000 -0.66732 
0.04590 3.15200 -0.67417 
0.45609 3.32400 -0.71096 
0.48734 3.36000 -0.71866 
0.72079 3.51500 -0.75181 
0.76665 3.51500 -0.75181 
0.79417 3.51500 -0.75181 
0.86815 3.55500 -0.76036 
0.89598 3.55500 -0.76036 
0.79142 2.71800 -0.58134 
0.85854 2.70600 -0.57877 
0.90491 2.71800 -0.58134 
0.95165 2.73000 -0.58391 
1.01942 2.64700 -0.56615 
1.17155 2.83100 -0.60551 
1.24141 2.92600 -0.62583 
1.27195 2.92600 -0.62583 
1.52769 2.78000 -0.59460 
1.73486 2.59100 -0.55418 
1.76056 2.46600 -0.52744 
1.78280 2.34300 -0.50113 
1.78431 2.29000 -0.48980 
1.88063 2.34300 -0.50113 
1.88868 2.30800 -0.49365 
-1.57601 2.14600 -0.46460 
-1.54744 2.15300 -0.46611 
-1.53063 2.16100 -0.46785 
-1.49116 2.16100 -0.46785 
-1.47988 2.16100 -0.46785 
-1.39492 2.29000 -0.49577 
-1.37101 2.29000 -0.49577 
-1.26823 2.34300 -0.50725 
-1.24100 2.36100 -0.51115 
-0.87255 1.91700 -0.41502 
-0.78753 1.89300 -0.40983 
-0.78259 1.89300 -0.40983 
-0.76041 1.88700 -0.40853 
-0.73404 1.87000 -0.40485 
-0.54742 1.74200 -0.37713 
-0.51447 1.72300 -0.37302 
-0.47635 1.83600 -0.39749 
-0.62118 2.54800 -0.55163 
-0.63705 2.73000 -0.59103 
-0.48109 2.81800 -0.61008 
-0.46638 2.81800 -0.61008 
-0.12491 3.10400 -0.67200 
0.02930 3.13600 -0.67893 
0.06235 3.15200 -0.68239 
0.07962 3.18500 -0.68954 
0.32245 3.28800 -0.71184 
0.43007 3.32400 -0.71963 
0.46728 3.34200 -0.72353 
0.51930 3.39700 -0.73543 
0.78500 3.51500 -0.76098 
0.80335 3.51500 -0.76098 
0.85854 2.70600 -0.58584 
0.88363 2.71800 -0.58843 
1.27036 2.94000 -0.63650 
1.27195 2.92600 -0.63346 
1.41703 2.92600 -0.63346 
1.46531 2.87100 -0.62156 
1.51558 2.69400 -0.58324 
1.50076 2.52700 -0.54708 
1.75123 2.63600 -0.57068 
1.72683 2.56900 -0.55618 
1.75412 2.46600 -0.53388 
1.76822 2.30800 -0.49967 
1.77833 2.29000 -0.49577 
1.89399 2.35200 -0.50920 
1.91972 2.36100 -0.51115 
1.85718 2.24800 -0.48668 
-1.51932 2.16900 -0.47524 
-1.49680 2.16100 -0.47349 
-1.44113 2.23200 -0.48904 
-1.38894 2.29000 -0.50175 
-1.37640 2.29900 -0.50372 
-1.31714 2.34300 -0.51336 
-0.82235 1.90500 -0.41739 
-0.76534 1.88700 -0.41345 
-0.68940 1.84200 -0.40359 
-0.64401 1.80900 -0.39636 
-0.57015 1.74200 -0.38168 
-0.48628 1.70300 -0.37314 
-0.62554 2.74200 -0.60079 
-0.58342 2.78000 -0.60911 
-0.40020 2.81800 -0.61744 
-0.34948 2.88500 -0.63212 
-0.33918 2.92600 -0.64110 
-0.30686 2.98300 -0.65359 
-0.27841 3.01200 -0.65994 
-0.25737 3.04200 -0.66652 
0.01280 3.10400 -0.68010 
0.10512 3.20200 -0.70157 
0.81617 2.70600 -0.59290 
0.91603 2.73000 -0.59816 
0.99870 2.64700 -0.57997 
1.32407 2.94000 -0.64417 
1.33174 2.94000 -0.64417 
1.35476 2.94000 -0.64417 
1.42729 2.88500 -0.63212 
1.49820 2.59100 -0.56770 
1.53980 2.55900 -0.56069 
1.76164 2.69400 -0.59027 
1.71856 2.53700 -0.55587 
1.71684 2.49600 -0.54689 
1.72195 2.46600 -0.54031 
1.72778 2.45600 -0.53812 
1.80785 2.28200 -0.50000 
1.86531 2.26500 -0.49627 
-1.56991 2.15300 -0.47735 
-1.53627 2.16100 -0.47912 
-1.51366 2.16900 -0.48090 
-1.47440 2.15300 -0.47735 
-1.37699 2.29000 -0.50773 
-1.24716 2.36100 -0.52347 
-1.23955 2.37000 -0.52546 
-1.17040 2.34300 -0.51948 
-0.89034 1.92300 -0.42636 
-0.72196 1.86400 -0.41328 
-0.62079 1.78300 -0.39532 
-0.55332 1.73200 -0.38401 
-0.47983 1.83100 -0.40596 
-0.63705 2.73000 -0.60528 
-0.61838 2.74200 -0.60794 
-0.50547 2.83100 -0.62767 
0.09625 3.18500 -0.70616 
0.12247 3.21900 -0.71370 
0.20017 3.25300 -0.72124 
0.66725 3.47500 -0.77046 
0.72079 3.51500 -0.77933 
0.75748 3.51500 -0.77933 
0.79841 2.74200 -0.60794 
0.95877 2.73000 -0.60528 
1.41223 2.88500 -0.63965 
1.45868 2.85800 -0.63366 
1.46638 2.84400 -0.63056 
1.48122 2.84400 -0.63056 
1.52645 2.55900 -0.56737 
1.53912 2.56900 -0.56958 
1.71033 2.49600 -0.55340 
1.78663 2.38900 -0.52968 
1.89652 2.32500 -0.51549 
1.82587 2.16900 -0.48090 
-1.70545 2.16100 -0.48476 
-1.66598 2.16100 -0.48476 
-1.62086 2.16100 -0.48476 
-1.54196 2.16900 -0.48656 
-1.44757 2.22400 -0.49890 
-1.43460 2.24000 -0.50249 
-1.42697 2.26500 -0.50809 
-1.40195 2.28200 -0.51191 
-1.38894 2.29000 -0.51370 
-1.33645 2.33400 -0.52357 
-1.28537 2.35200 -0.52761 
-1.23184 2.37900 -0.53367 
-0.91609 1.93500 -0.43407 
-0.88532 1.92300 -0.43138 
-0.79003 1.89900 -0.42599 
-0.78012 1.89900 -0.42599 
-0.77021 1.89900 -0.42599 
-0.73150 1.87600 -0.42083 
-0.72428 1.87000 -0.41949 
-0.53820 1.72700 -0.38741 
-0.57847 2.29900 -0.51572 
-0.65384 2.68200 -0.60164 
-0.64134 2.71800 -0.60971 
-0.62280 2.73000 -0.61240 
-0.52264 2.84400 -0.63798 
-0.42421 2.83100 -0.63506 
-0.36859 2.85800 -0.64112 
-0.17980 3.07300 -0.68935 
-0.01156 3.12000 -0.69989 
0.12247 3.21900 -0.72210 
0.19168 3.25300 -0.72973 
0.21715 3.25300 -0.72973 
0.72560 3.49400 -0.78379 
0.75748 3.51500 -0.78850 
0.91994 3.57600 -0.80218 
0.86922 3.18500 -0.71447 
0.80981 2.85800 -0.64112 
0.80204 2.73000 -0.61240 
0.91603 2.73000 -0.61240 
0.98647 2.67000 -0.59894 
1.06312 2.67000 -0.59894 
1.36465 2.91200 -0.65323 
1.55906 2.59100 -0.58122 
1.75263 2.65900 -0.59648 
1.72683 2.56900 -0.57629 
1.71064 2.50600 -0.56216 
1.72558 2.41700 -0.54219 
1.75582 2.39800 -0.53793 
1.76830 2.31600 -0.51953 
1.76021 2.28200 -0.51191 
1.82989 2.20800 -0.49531 
1.81570 2.18400 -0.48992 
-1.60958 2.16100 -0.49040 
-1.46272 2.16900 -0.49222 
-1.44630 2.24000 -0.50833 
-1.37576 2.30800 -0.52376 
-1.24100 2.36100 -0.53579 
-1.23955 2.37000 -0.53783 
-1.23184 2.37900 -0.53987 
-1.19007 2.37000 -0.53783 
-1.16429 2.34300 -0.53171 
-0.86755 1.91700 -0.43503 
-0.61905 1.77800 -0.40349 
-0.55623 1.72700 -0.39191 
-0.50999 1.70800 -0.38760 
-0.65263 2.70600 -0.61408 
-0.52764 2.83100 -0.64245 
-0.43898 2.83100 -0.64245 
-0.41874 2.84400 -0.64540 
-0.38350 2.85800 -0.64858 
-0.34350 2.89800 -0.65765 
-0.15498 3.05800 -0.69396 
-0.07631 3.10400 -0.70440 
-0.03599 3.12000 -0.70803 
0.05385 3.13600 -0.71166 
0.12183 3.20200 -0.72664 
0.13927 3.21900 -0.73050 
0.15690 3.23600 -0.73436 
0.24261 3.25300 -0.73821 
0.32245 3.28800 -0.74616 
0.50157 3.39700 -0.77089 
0.64537 3.45500 -0.78406 
0.71649 3.49400 -0.79291 
0.80204 2.73000 -0.61953 
0.82324 2.70600 -0.61408 
0.86560 2.70600 -0.61408 
0.92721 2.74200 -0.62225 
0.95165 2.73000 -0.61953 
0.96991 2.68200 -0.60864 
1.09158 2.70600 -0.61408 
1.25067 2.91200 -0.66083 
1.35705 2.91200 -0.66083 
1.44376 2.85800 -0.64858 
1.48239 2.81800 -0.63950 
1.49751 2.80500 -0.63655 
1.50416 2.62500 -0.59570 
1.59322 2.62500 -0.59570 
1.66180 2.63600 -0.59820 
1.71100 2.65900 -0.60342 
1.70736 2.43600 -0.55281 
1.74923 2.38900 -0.54214 
1.77185 2.36100 -0.53579 
-1.69352 2.15300 -0.49421 
-1.65470 2.16100 -0.49604 
-1.64342 2.16100 -0.49604 
-1.55328 2.16900 -0.49788 
-1.42697 2.26500 -0.51992 
-1.39492 2.29000 -0.52565 
-1.37376 2.32500 -0.53369 
-1.25469 2.35200 -0.53989 
-1.24855 2.35200 -0.53989 
-1.24716 2.36100 -0.54195 
-1.24100 2.36100 -0.54195 
-1.23484 2.36100 -0.54195 
-1.21832 2.38900 -0.54838 
-0.88256 1.91700 -0.44003 
-0.84988 1.91100 -0.43866 
-0.81481 1.89900 -0.43590 
-0.44100 2.84400 -0.65282 
-0.35701 2.88500 -0.66223 
-0.29768 2.96900 -0.68151 
-0.28993 2.96900 -0.68151 
0.07922 3.16900 -0.72742 
0.17470 3.25300 -0.74670 
0.82176 3.55500 -0.81603 
0.91454 3.55500 -0.81603 
0.89944 3.36000 -0.77126 
0.81350 2.87100 -0.65902 
0.80222 2.78000 -0.63813 
1.01519 2.63600 -0.60508 
1.02207 2.63600 -0.60508 
1.28106 2.91200 -0.66843 
1.29486 2.92600 -0.67164 
1.60677 2.63600 -0.60508 
1.69637 2.64700 -0.60760 
1.70035 2.41700 -0.55481 
1.72295 2.37000 -0.54402 
1.76448 2.25700 -0.51808 
1.77037 2.25700 -0.51808 
1.81752 2.20000 -0.50499 
1.81000 2.18400 -0.50132 
-1.69981 2.16100 -0.50168 
-1.68853 2.16100 -0.50168 
-1.66034 2.16100 -0.50168 
-1.55328 2.16900 -0.50354 
-1.47251 2.19200 -0.50888 
-1.37908 2.33400 -0.54184 
-1.24716 2.36100 -0.54811 
-0.92400 1.94100 -0.45061 
-0.80490 1.89900 -0.44086 
-0.72428 1.87000 -0.43413 
-0.71710 1.86400 -0.43273 
-0.63187 1.78800 -0.41509 
-0.50287 1.69900 -0.39443 
-0.47592 2.83100 -0.65722 
-0.28993 2.96900 -0.68926 
-0.23911 3.01200 -0.69924 
-0.23240 3.02700 -0.70273 
-0.08400 3.08900 -0.71712 
0.13087 3.21900 -0.74730 
0.23412 3.25300 -0.75519 
0.25959 3.25300 -0.75519 
0.27802 3.27000 -0.75914 
0.34147 3.30600 -0.76750 
0.38670 3.32400 -0.77168 
0.40405 3.32400 -0.77168 
0.89944 3.36000 -0.78003 
0.83773 3.01200 -0.69924 
0.90890 2.73000 -0.63378 
1.12041 2.74200 -0.63656 
1.17352 2.81800 -0.65421 
1.27346 2.91200 -0.67603 
1.39901 2.85800 -0.66349 
1.50681 2.74200 -0.63656 
1.56548 2.61300 -0.60662 
1.62741 2.63600 -0.61195 
1.69312 2.38900 -0.55461 
1.72166 2.34300 -0.54393 
1.72777 2.34300 -0.54393 
1.74000 2.34300 -0.54393 
1.75920 2.27300 -0.52768 
1.78678 2.24800 -0.52188 
1.80091 2.14600 -0.49820 
-1.58677 2.15300 -0.50544 
-1.51286 2.17600 -0.51084 
-1.42782 2.25700 -0.52986 
-1.41386 2.28200 -0.53573 
-1.32937 2.34300 -0.55005 
-1.30491 2.34300 -0.55005 
-1.28046 2.34300 -0.55005 
-0.76525 1.89900 -0.44581 
-0.58546 1.74700 -0.41013 
-0.55623 1.72700 -0.40543 
-0.54271 1.72700 -0.40543 
-0.47511 1.72700 -0.40543 
-0.55903 2.76700 -0.64959 
-0.18500 3.02700 -0.71063 
0.11287 3.18500 -0.74772 
0.16534 3.23600 -0.75969 
0.25242 3.27000 -0.76767 
0.35009 3.30600 -0.77612 
0.56677 3.41600 -0.80195 
0.60243 3.41600 -0.80195 
0.61135 3.41600 -0.80195 
0.62026 3.41600 -0.80195 
0.79869 3.53500 -0.82988 
0.91454 3.55500 -0.83458 
0.85522 3.10400 -0.72870 
0.80561 2.71800 -0.63808 
0.81617 2.70600 -0.63527 
0.96447 2.70600 -0.63527 
0.97254 2.67000 -0.62682 
1.15541 2.79200 -0.65546 
1.33808 2.95400 -0.69349 
1.36812 2.96900 -0.69701 
1.38834 2.89800 -0.68034 
1.40796 2.83100 -0.66461 
1.55210 2.60200 -0.61085 
1.55889 2.60200 -0.61085 
1.70996 2.48600 -0.58362 
1.79860 2.18400 -0.51272 
-1.63214 2.16100 -0.51296 
-1.60924 2.15300 -0.51106 
-1.58677 2.15300 -0.51106 
-1.56991 2.15300 -0.51106 
-1.38590 2.32500 -0.55189 
-1.25469 2.35200 -0.55830 
-1.23805 2.37900 -0.56471 
-1.21322 2.37900 -0.56471 
-1.19626 2.37000 -0.56257 
-0.91829 1.92900 -0.45789 
-0.90038 1.92300 -0.45647 
-0.89536 1.92300 -0.45647 
-0.82211 1.89300 -0.44935 
-0.75295 1.89300 -0.44935 
-0.66289 1.80900 -0.42941 
-0.62865 2.69400 -0.63948 
-0.17710 3.02700 -0.71852 
-0.02799 3.13600 -0.74440 
-0.01981 3.13600 -0.74440 
0.11347 3.20200 -0.76006 
0.18319 3.25300 -0.77217 
0.26095 3.27000 -0.77621 
0.50773 3.37900 -0.80208 
0.70352 3.47500 -0.82487 
0.76665 3.51500 -0.83436 
0.83595 3.57600 -0.84884 
0.84528 3.57600 -0.84884 
0.90178 2.73000 -0.64803 
0.92721 2.74200 -0.65087 
1.06312 2.67000 -0.63378 
1.31389 2.96900 -0.70476 
1.35019 2.99800 -0.71164 
1.40796 2.83100 -0.67200 
1.44685 2.79200 -0.66274 
1.50734 2.73000 -0.64803 
1.52525 2.59100 -0.61503 
1.64730 2.61300 -0.62025 
1.69429 2.59100 -0.61503 
1.69594 2.30800 -0.54785 
1.71401 2.30800 -0.54785 
1.76513 2.27300 -0.53955 
1.80833 2.22400 -0.52792 
1.79375 2.19200 -0.52032 
-1.51827 2.19200 -0.52604 
-1.51233 2.20000 -0.52796 
-1.41982 2.28200 -0.54764 
-1.39197 2.32500 -0.55796 
-1.38517 2.33400 -0.56012 
-0.92907 1.94100 -0.46580 
-0.57179 1.74700 -0.41925 
-0.56504 2.20000 -0.52796 
-0.62552 2.48600 -0.59659 
-0.41874 2.84400 -0.68251 
-0.27175 2.94000 -0.70555 
0.34147 3.30600 -0.79338 
0.35872 3.30600 -0.79338 
0.50773 3.37900 -0.81090 
0.59352 3.41600 -0.81978 
0.74831 3.51500 -0.84353 
0.87841 3.59700 -0.86321 
0.90127 3.57600 -0.85817 
0.80561 2.71800 -0.65227 
0.82293 2.68200 -0.64363 
0.99344 2.67000 -0.64075 
1.05615 2.67000 -0.64075 
1.40265 2.91200 -0.69883 
1.42431 2.80500 -0.67315 
1.71645 2.48600 -0.59659 
1.70182 2.31600 -0.55580 
1.70786 2.31600 -0.55580 
1.72003 2.30800 -0.55388 
1.78803 2.19200 -0.52604 
-1.64342 2.16100 -0.52424 
-1.57011 2.16100 -0.52424 
-1.49891 2.24000 -0.54340 
-1.48666 2.24800 -0.54534 
-1.47493 2.24800 -0.54534 
-1.43879 2.26500 -0.54947 
-1.43201 2.27300 -0.55141 
-1.33645 2.33400 -0.56621 
-1.17809 2.33400 -0.56621 
-0.90038 1.92300 -0.46650 
-0.68304 1.82500 -0.44273 
-0.59585 1.77800 -0.43133 
-0.56267 1.74700 -0.42381 
-0.52017 1.72700 -0.41896 
-0.49313 1.72700 -0.41896 
-0.48412 1.72700 -0.41896 
-0.49810 1.88200 -0.45656 
-0.62804 2.49600 -0.60551 
-0.62865 2.69400 -0.65354 
-0.50547 2.83100 -0.68678 
-0.44637 2.83100 -0.68678 
-0.42421 2.83100 -0.68678 
-0.35862 2.89800 -0.70303 
-0.34350 2.89800 -0.70303 
-0.32236 2.91200 -0.70643 
-0.27942 2.94000 -0.71322 
-0.26408 2.94000 -0.71322 
-0.21452 2.99800 -0.72729 
-0.10762 3.07300 -0.74548 
-0.04436 3.13600 -0.76077 
0.07962 3.18500 -0.77265 
0.13927 3.21900 -0.78090 
0.16534 3.23600 -0.78502 
0.51655 3.37900 -0.81972 
0.54589 3.39700 -0.82408 
0.66341 3.45500 -0.83815 
0.85052 3.05800 -0.74184 
0.85526 2.71800 -0.65936 
1.39117 3.08900 -0.74936 
1.40967 2.80500 -0.68047 
1.50734 2.73000 -0.66227 
1.68076 2.59100 -0.62855 
1.70798 2.44600 -0.59338 
1.75015 2.30800 -0.55990 
-1.59281 2.14600 -0.52620 
-1.57553 2.15300 -0.52792 
-1.49839 2.24800 -0.55121 
-1.46316 2.25700 -0.55342 
-1.41240 2.29900 -0.56372 
-1.30096 2.32500 -0.57009 
-1.25333 2.36100 -0.57892 
-1.24716 2.36100 -0.57892 
-1.19486 2.34300 -0.57451 
-1.04942 2.12300 -0.52056 
-0.62253 1.78800 -0.43842 
-0.50812 1.73200 -0.42469 
-0.65677 2.69400 -0.66057 
-0.63568 2.69400 -0.66057 
-0.52279 2.80500 -0.68779 
-0.24992 2.95400 -0.72432 
-0.12241 3.04200 -0.74590 
-0.09158 3.07300 -0.75350 
-0.02829 3.16900 -0.77704 
0.14845 3.23600 -0.79347 
0.39109 3.28800 -0.80622 
0.43007 3.32400 -0.81505 
0.49611 3.36000 -0.82387 
0.90657 3.59700 -0.88199 
0.82293 2.68200 -0.65763 
0.97153 2.70600 -0.66351 
1.01711 2.65900 -0.65199 
1.04015 2.64700 -0.64905 
1.05615 2.67000 -0.65469 
1.09642 2.71800 -0.66646 
1.23016 2.95400 -0.72432 
1.25002 2.98300 -0.73143 
1.43843 3.10400 -0.76110 
1.41103 2.89800 -0.71059 
1.40796 2.83100 -0.69416 
1.47691 2.78000 -0.68166 
1.52368 2.64700 -0.64905 
1.61365 2.63600 -0.64635 
1.74959 2.61300 -0.64071 
1.75580 2.60200 -0.63801 
1.71640 2.36100 -0.57892 
1.72827 2.35200 -0.57671 
1.73389 2.34300 -0.57451 
1.73332 2.33400 -0.57230 
1.75017 2.31600 -0.56788 
1.77581 2.18400 -0.53552 
1.77498 2.17600 -0.53356 
-1.58721 2.14600 -0.53180 
-1.56965 2.17600 -0.53924 
-1.51827 2.19200 -0.54320 
-1.51255 2.19200 -0.54320 
-1.51233 2.20000 -0.54518 
-1.51176 2.21600 -0.54915 
-1.31309 2.32500 -0.57616 
-1.30702 2.32500 -0.57616 
-1.23013 2.35200 -0.58285 
-0.90757 1.91700 -0.47505 
-0.89757 1.91700 -0.47505 
-0.88756 1.91700 -0.47505 
-0.72682 1.86400 -0.46192 
-0.53833 1.74200 -0.43169 
-0.53378 1.74200 -0.43169 
-0.65263 2.70600 -0.67057 
-0.43160 2.83100 -0.70155 
-0.34948 2.88500 -0.71493 
-0.12241 3.04200 -0.75384 
-0.10762 3.07300 -0.76152 
-0.09912 3.05800 -0.75780 
-0.00349 3.18500 -0.78928 
0.20017 3.25300 -0.80613 
0.20757 3.23600 -0.80191 
0.35677 3.28800 -0.81480 
0.64537 3.45500 -0.85618 
0.69825 3.49400 -0.86585 
0.73914 3.51500 -0.87105 
0.89841 3.64000 -0.90203 
0.99344 2.67000 -0.66165 
1.15678 2.83100 -0.70155 
1.22245 2.95400 -0.73203 
1.39597 3.13600 -0.77713 
1.44508 3.13600 -0.77713 
1.44685 2.79200 -0.69189 
1.53877 2.59100 -0.64208 
1.55230 2.59100 -0.64208 
1.59322 2.62500 -0.65050 
1.72337 2.62500 -0.65050 
1.75854 2.64700 -0.65595 
1.75811 2.63600 -0.65323 
1.70738 2.42700 -0.60144 
1.70658 2.40800 -0.59673 
1.74190 2.37900 -0.58954 
1.77212 2.28200 -0.56550 
1.76838 2.16100 -0.53552 
-1.57592 2.16900 -0.54316 
-1.51255 2.19200 -0.54892 
-1.50520 2.23200 -0.55894 
-0.84950 1.89900 -0.47555 
-0.82716 1.88200 -0.47129 
-0.68117 1.82000 -0.45576 
-0.63297 1.77800 -0.44525 
-0.51560 1.74200 -0.43623 
-0.65969 2.70600 -0.67764 
-0.56380 2.75500 -0.68991 
-0.36277 2.87100 -0.71896 
-0.33593 2.89800 -0.72572 
-0.25641 2.94000 -0.73623 
-0.06856 3.12000 -0.78131 
0.20017 3.25300 -0.81462 
0.51364 3.36000 -0.84141 
0.57569 3.41600 -0.85543 
0.70737 3.49400 -0.87497 
0.95583 2.80500 -0.70243 
1.40310 3.15200 -0.78932 
1.41132 3.15200 -0.78932 
1.45414 2.79200 -0.69917 
1.47600 2.79200 -0.69917 
1.49142 2.78000 -0.69617 
1.49867 2.78000 -0.69617 
1.76190 2.59100 -0.64884 
1.71437 2.44600 -0.61253 
1.75685 2.40800 -0.60301 
1.77738 2.35200 -0.58899 
1.76746 2.15300 -0.53915 
1.76731 2.14600 -0.53740 
-1.64384 2.16900 -0.54882 
-1.58677 2.15300 -0.54477 
-1.58139 2.16100 -0.54680 
-1.56972 2.18400 -0.55262 
-1.52413 2.18400 -0.55262 
-1.40471 2.31600 -0.58602 
-1.39867 2.31600 -0.58602 
-1.35556 2.32500 -0.58829 
-1.28542 2.30800 -0.58399 
-0.93629 1.93500 -0.48961 
-0.87206 1.90500 -0.48202 
-0.80983 1.87600 -0.47468 
-0.66761 1.80900 -0.45773 
-0.57818 2.75500 -0.69710 
-0.51786 2.81800 -0.71304 
-0.49580 2.81800 -0.71304 
-0.32081 2.89800 -0.73328 
-0.27809 2.92600 -0.74036 
-0.19695 2.96900 -0.75124 
0.16621 3.25300 -0.82310 
0.33775 3.27000 -0.82741 
0.52241 3.36000 -0.85018 
0.66341 3.45500 -0.87422 
0.67631 3.47500 -0.87928 
0.94793 3.57600 -0.90483 
0.84816 2.71800 -0.68773 
0.97177 2.76700 -0.70013 
1.42356 2.81800 -0.71304 
1.47600 2.79200 -0.70646 
1.48328 2.79200 -0.70646 
1.52964 2.69400 -0.68166 
1.53683 2.68200 -0.67863 
1.58637 2.62500 -0.66420 
1.63343 2.59100 -0.65560 
1.70736 2.43600 -0.61638 
1.79287 2.38900 -0.60449 
1.78124 2.32500 -0.58829 
1.78066 2.17600 -0.55059 
1.77307 2.15300 -0.54477 
-1.66082 2.16900 -0.55448 
-1.48721 2.24000 -0.57263 
-1.41793 2.30800 -0.59002 
-1.41075 2.31600 -0.59206 
-1.37299 2.33400 -0.59666 
-1.32010 2.31600 -0.59206 
-1.29144 2.30800 -0.59002 
-0.90473 1.91100 -0.48853 
-0.74142 1.86400 -0.47651 
-0.71094 1.84800 -0.47242 
-0.66983 1.81500 -0.46399 
-0.62079 1.78300 -0.45580 
-0.57567 1.77300 -0.45325 
-0.58816 2.29000 -0.58541 
-0.64417 2.73000 -0.69789 
-0.56891 2.78000 -0.71068 
-0.22679 2.95400 -0.75516 
-0.13693 3.01200 -0.76998 
-0.04458 3.15200 -0.80577 
0.04687 3.21900 -0.82290 
0.08005 3.20200 -0.81856 
0.52241 3.36000 -0.85895 
0.59352 3.41600 -0.87326 
0.67631 3.47500 -0.88835 
0.77538 3.55500 -0.90880 
0.82712 3.61900 -0.92516 
0.80955 2.83100 -0.72371 
1.01435 2.67000 -0.68256 
1.02131 2.67000 -0.68256 
1.37623 3.18500 -0.81421 
1.39487 3.15200 -0.80577 
1.42545 2.91200 -0.74442 
1.53646 2.70600 -0.69176 
1.55897 2.62500 -0.67105 
1.57952 2.62500 -0.67105 
1.62003 2.61300 -0.66799 
1.62000 2.60200 -0.66517 
1.64020 2.59100 -0.66236 
1.70185 2.61300 -0.66799 
1.74569 2.65900 -0.67974 
1.78617 2.64700 -0.67668 
1.79420 2.13800 -0.54656 
-1.56975 2.19200 -0.56608 
-1.51273 2.18400 -0.56402 
-1.49400 2.22400 -0.57435 
-1.48666 2.24800 -0.58054 
-1.48079 2.24800 -0.58054 
-1.47493 2.24800 -0.58054 
-1.34949 2.32500 -0.60043 
-1.30951 2.30800 -0.59604 
-1.22010 2.26500 -0.58493 
-1.09014 2.11600 -0.54645 
-0.85445 1.89900 -0.49041 
-0.80004 1.87600 -0.48447 
-0.73943 1.85900 -0.48008 
-0.56450 1.76700 -0.45633 
-0.54297 1.75700 -0.45374 
-0.49765 1.89900 -0.49041 
-0.67484 2.68200 -0.69262 
-0.56891 2.78000 -0.71793 
-0.46115 2.83100 -0.73110 
-0.33443 2.88500 -0.74505 
-0.18146 2.96900 -0.76674 
-0.02829 3.16900 -0.81839 
0.26948 3.27000 -0.84447 
0.31215 3.27000 -0.84447 
0.50217 3.34200 -0.86307 
0.62389 3.43600 -0.88734 
0.81270 3.59700 -0.92892 
0.94206 3.66200 -0.94571 
1.03525 2.67000 -0.68952 
1.09179 2.74200 -0.70812 
1.15467 2.84400 -0.73446 
1.40310 3.15200 -0.81400 
1.42466 2.92600 -0.75564 
1.45297 2.81800 -0.72774 
1.53667 2.69400 -0.69572 
1.65343 2.58000 -0.66628 
1.70665 2.41700 -0.62419 
1.80761 2.21600 -0.57228 
1.80684 2.20800 -0.57021 
1.81802 2.15300 -0.55601 
-1.57547 2.19200 -0.57180 
-1.56403 2.19200 -0.57180 
-1.46316 2.25700 -0.58876 
-1.34949 2.32500 -0.60650 
-1.06077 2.05900 -0.53711 
-1.02081 2.01200 -0.52485 
-0.95946 1.94100 -0.50633 
-0.94052 1.92300 -0.50163 
-0.92468 1.91100 -0.49850 
-0.83199 1.89300 -0.49380 
-0.72737 1.85300 -0.48337 
-0.56450 1.76700 -0.46094 
-0.52313 1.75200 -0.45702 
-0.51856 1.75200 -0.45702 
-0.68088 2.70600 -0.70588 
-0.49809 2.83100 -0.73849 
-0.37420 2.84400 -0.74188 
-0.36678 2.84400 -0.74188 
-0.35936 2.84400 -0.74188 
0.09625 3.18500 -0.83083 
0.11407 3.21900 -0.83970 
0.15690 3.23600 -0.84414 
0.32921 3.27000 -0.85301 
0.40186 3.30600 -0.86240 
0.41049 3.30600 -0.86240 
0.58135 3.39700 -0.88614 
0.60243 3.41600 -0.89109 
0.66341 3.45500 -0.90127 
0.72560 3.49400 -0.91144 
0.85091 3.64000 -0.94952 
0.86561 3.66200 -0.95526 
0.94989 3.61900 -0.94405 
0.82511 2.91200 -0.75962 
1.02590 2.68200 -0.69962 
1.07514 2.71800 -0.70901 
1.35129 3.18500 -0.83083 
1.37623 3.18500 -0.83083 
1.44584 3.12000 -0.81388 
1.41976 2.88500 -0.75258 
1.54382 2.68200 -0.69962 
1.66724 2.59100 -0.67588 
1.75988 2.67000 -0.69649 
1.71684 2.49600 -0.65110 
1.70908 2.46600 -0.64328 
1.83135 2.46600 -0.64328 
1.83564 2.44600 -0.63806 
1.81572 2.37000 -0.61823 
1.81258 2.27300 -0.59293 
1.80323 2.16900 -0.56580 
-1.50800 2.16900 -0.57146 
-1.49478 2.20800 -0.58174 
-1.46906 2.24800 -0.59228 
-1.43201 2.27300 -0.59886 
-1.20231 2.20000 -0.57963 
-0.91183 1.90500 -0.50191 
-0.68237 1.83600 -0.48373 
-0.64694 1.80400 -0.47530 
-0.60977 1.77800 -0.46845 
-0.60343 1.77300 -0.46713 
-0.46115 2.83100 -0.74588 
-0.01991 3.15200 -0.83045 
0.26808 3.25300 -0.85706 
0.28506 3.25300 -0.85706 
0.56945 3.37900 -0.89026 
0.62026 3.41600 -0.90001 
0.63286 3.43600 -0.90528 
0.82115 2.89800 -0.76353 
0.80557 2.74200 -0.72243 
0.87790 2.76700 -0.72902 
0.99815 2.88500 -0.76010 
1.09696 2.75500 -0.72585 
1.31262 3.15200 -0.83045 
1.38885 3.12000 -0.82202 
1.38983 3.10400 -0.81780 
1.43148 3.08900 -0.81385 
1.43012 2.83100 -0.74588 
1.48783 2.68200 -0.70662 
1.74769 2.58000 -0.67975 
1.71033 2.49600 -0.65762 
1.69402 2.40800 -0.63443 
1.73272 2.42700 -0.63944 
1.83971 2.48600 -0.65498 
-1.60988 2.16900 -0.57712 
-1.59804 2.17600 -0.57898 
-1.59252 2.18400 -0.58111 
-1.56975 2.19200 -0.58324 
-1.49583 2.17600 -0.57898 
-1.49539 2.19200 -0.58324 
-1.43960 2.25700 -0.60054 
-1.41982 2.28200 -0.60719 
-1.39986 2.30800 -0.61411 
-1.38658 2.31600 -0.61624 
-1.33360 2.30800 -0.61411 
-1.30441 2.29900 -0.61171 
-1.25200 2.24800 -0.59814 
-1.21379 2.20000 -0.58537 
-1.09465 2.05200 -0.54599 
-0.99442 1.96000 -0.52151 
-0.90686 1.90500 -0.50688 
-0.83958 1.89900 -0.50528 
-0.77556 1.87600 -0.49916 
-0.51560 1.74200 -0.46351 
-0.50578 1.91100 -0.50847 
-0.67681 2.71800 -0.72320 
-0.66262 2.71800 -0.72320 
-0.60519 2.78000 -0.73970 
-0.58594 2.79200 -0.74289 
-0.26156 2.91200 -0.77482 
-0.22464 2.92600 -0.77854 
0.13087 3.21900 -0.85650 
0.15690 3.23600 -0.86103 
0.25959 3.25300 -0.86555 
0.33775 3.27000 -0.87007 
0.61135 3.41600 -0.90892 
0.85091 3.64000 -0.96852 
0.81272 2.74200 -0.72958 
0.99627 2.85800 -0.76045 
0.99424 2.83100 -0.75327 
1.03990 2.68200 -0.71362 
1.35129 3.18500 -0.84746 
1.41442 2.84400 -0.75672 
1.55782 2.67000 -0.71043 
1.60639 2.61300 -0.69526 
1.63323 2.58000 -0.68648 
1.64670 2.58000 -0.68648 
1.84672 2.42700 -0.64577 
1.80821 2.29000 -0.60932 
-1.67186 2.17600 -0.58466 
-1.50151 2.17600 -0.58466 
-1.49563 2.18400 -0.58681 
-1.31640 2.29900 -0.61771 
-1.08178 2.01800 -0.54221 
-0.94259 1.91700 -0.51507 
-0.93465 1.91100 -0.51346 
-0.90401 1.89900 -0.51024 
-0.89905 1.89900 -0.51024 
-0.84224 1.90500 -0.51185 
-0.70319 1.85300 -0.49788 
-0.67278 1.83600 -0.49331 
-0.66617 1.83100 -0.49197 
-0.64614 1.81500 -0.48767 
-0.57964 1.75700 -0.47208 
-0.63332 2.51700 -0.67629 
-0.59793 2.78000 -0.74695 
-0.57866 2.79200 -0.75017 
-0.41491 2.81800 -0.75716 
-0.25397 2.91200 -0.78242 
-0.21038 2.94000 -0.78994 
-0.20270 2.94000 -0.78994 
-0.16675 2.98300 -0.80149 
-0.14479 3.01200 -0.80929 
0.00477 3.15200 -0.84690 
0.32921 3.27000 -0.87861 
0.47344 3.32400 -0.89312 
0.70849 3.45500 -0.92831 
0.82209 3.59700 -0.96647 
0.81988 2.74200 -0.73674 
0.84134 2.74200 -0.73674 
1.41223 2.88500 -0.77516 
1.41535 2.83100 -0.76065 
1.45359 2.80500 -0.75367 
1.46871 2.79200 -0.75017 
1.54388 2.67000 -0.71739 
1.55085 2.67000 -0.71739 
1.57176 2.67000 -0.71739 
1.60630 2.58000 -0.69321 
1.61956 2.56900 -0.69026 
1.73022 2.62500 -0.70530 
1.69699 2.48600 -0.66796 
1.69324 2.39800 -0.64431 
1.73188 2.41700 -0.64942 
1.85479 2.44600 -0.65721 
1.81859 2.33400 -0.62712 
1.84896 2.22400 -0.59756 
-1.70081 2.18400 -0.59251 
-1.66661 2.18400 -0.59251 
-1.59804 2.17600 -0.59034 
-1.56965 2.17600 -0.59034 
-1.55261 2.17600 -0.59034 
-1.43973 2.24800 -0.60988 
-1.41284 2.29000 -0.62127 
-1.39383 2.30800 -0.62615 
-0.95353 1.92900 -0.52333 
-0.92675 1.90500 -0.51682 
-0.84988 1.91100 -0.51845 
-0.84224 1.90500 -0.51682 
-0.78996 1.88700 -0.51194 
-0.64792 1.82000 -0.49376 
-0.62428 1.79300 -0.48644 
-0.52924 1.74200 -0.47260 
-0.46115 2.83100 -0.76804 
-0.14479 3.01200 -0.81715 
-0.09912 3.05800 -0.82963 
0.13018 3.20200 -0.86869 
0.29508 3.27000 -0.88714 
0.35297 3.25300 -0.88253 
0.43637 3.30600 -0.89691 
0.45362 3.30600 -0.89691 
0.46477 3.32400 -0.90179 
0.70849 3.45500 -0.93733 
1.24299 3.04200 -0.82528 
1.46027 2.67000 -0.72436 
1.53752 2.65900 -0.72138 
1.57176 2.67000 -0.72436 
1.58610 2.59100 -0.70293 
1.64670 2.58000 -0.69995 
1.73188 2.41700 -0.65572 
1.81640 2.30800 -0.62615 
1.83576 2.26500 -0.61449 
1.89824 2.24800 -0.60988 
-1.53630 2.16900 -0.59410 
-1.52498 2.16900 -0.59410 
-1.50111 2.19200 -0.60040 
-1.50084 2.20000 -0.60259 
-1.49510 2.20000 -0.60259 
-1.35240 2.29900 -0.62971 
-1.27222 2.23200 -0.61136 
-1.22499 2.16900 -0.59410 
-1.20640 2.14600 -0.58780 
-1.13361 2.04500 -0.56014 
-1.02413 1.99800 -0.54726 
-0.89127 1.89300 -0.51850 
-0.85486 1.91100 -0.52344 
-0.73458 1.85900 -0.50919 
-0.55056 1.75200 -0.47988 
-0.54599 1.75200 -0.47988 
-0.53378 1.74200 -0.47714 
-0.64951 2.63600 -0.72202 
-0.61680 2.76700 -0.75790 
-0.44432 2.81800 -0.77187 
-0.42961 2.81800 -0.77187 
-0.27676 2.91200 -0.79762 
-0.26156 2.91200 -0.79762 
-0.19596 2.95400 -0.80912 
-0.15194 2.99800 -0.82117 
-0.13761 3.02700 -0.82911 
0.06268 3.16900 -0.86801 
0.08702 3.15200 -0.86335 
0.17288 3.21900 -0.88170 
0.23290 3.23600 -0.88636 
0.29508 3.27000 -0.89567 
0.42541 3.28800 -0.90060 
0.51364 3.36000 -0.92033 
0.62918 3.41600 -0.93566 
0.90384 3.66200 -1.00304 
1.34179 3.20200 -0.87705 
1.40700 2.84400 -0.77899 
1.41620 2.81800 -0.77187 
1.47103 2.74200 -0.75105 
1.51047 2.63600 -0.72202 
1.57937 2.58000 -0.70668 
1.61297 2.54800 -0.69791 
1.66938 2.42700 -0.66477 
1.84956 2.45600 -0.67271 
1.85479 2.44600 -0.66997 
1.80932 2.29900 -0.62971 
-1.70081 2.18400 -0.60391 
-1.69511 2.18400 -0.60391 
-1.39492 2.29000 -0.63322 
-1.37040 2.29900 -0.63571 
-1.18658 2.10100 -0.58096 
-0.92675 1.90500 -0.52676 
-0.91887 1.89900 -0.52510 
-0.83727 1.90500 -0.52676 
-0.74142 1.86400 -0.51543 
-0.72973 1.85900 -0.51404 
-0.70803 1.85300 -0.51238 
-0.60806 1.77300 -0.49026 
-0.64843 2.71800 -0.75157 
-0.59068 2.78000 -0.76871 
-0.52521 2.81800 -0.77922 
-0.49295 2.84400 -0.78641 
-0.32081 2.89800 -0.80134 
-0.21038 2.94000 -0.81296 
-0.20270 2.94000 -0.81296 
-0.16675 2.98300 -0.82485 
-0.09960 3.07300 -0.84973 
-0.01971 3.12000 -0.86273 
0.09576 3.16900 -0.87628 
0.16361 3.20200 -0.88540 
0.36146 3.25300 -0.89951 
0.55182 3.37900 -0.93435 
0.92116 3.47500 -0.96089 
0.79840 2.79200 -0.77203 
0.83419 2.74200 -0.75821 
0.88995 2.80500 -0.77563 
0.99512 2.79200 -0.77203 
0.99002 2.71800 -0.75157 
1.12205 2.81800 -0.77922 
1.15064 2.87100 -0.79388 
1.21110 2.98300 -0.82485 
1.37019 3.15200 -0.87158 
1.35535 3.02700 -0.83701 
1.37366 2.99800 -0.82899 
1.39580 3.01200 -0.83287 
1.40538 2.87100 -0.79388 
1.44685 2.79200 -0.77203 
1.45621 2.62500 -0.72585 
1.53059 2.64700 -0.73194 
1.58615 2.53700 -0.70152 
1.67516 2.40800 -0.66585 
1.68072 2.39800 -0.66309 
1.68065 2.38900 -0.66060 
1.71201 2.39800 -0.66309 
1.81665 2.31600 -0.64041 
1.87713 2.26500 -0.62631 
-1.69511 2.18400 -0.60961 
-1.55319 2.16100 -0.60319 
-1.54191 2.16100 -0.60319 
-1.48721 2.24000 -0.62524 
-1.44630 2.24000 -0.62524 
-1.44045 2.24000 -0.62524 
-1.39600 2.28200 -0.63696 
-1.38240 2.29900 -0.64171 
-1.01683 2.02500 -0.56523 
-0.74428 1.85900 -0.51889 
-0.67758 1.83600 -0.51247 
-0.65267 1.82000 -0.50801 
-0.58882 1.75700 -0.49042 
-0.53225 1.73700 -0.48484 
-0.51567 1.72700 -0.48205 
-0.61413 2.75500 -0.76899 
-0.54475 2.80500 -0.78295 
-0.41299 2.80500 -0.78295 
-0.18825 2.95400 -0.82454 
-0.17453 2.98300 -0.83263 
-0.13761 3.02700 -0.84491 
-0.03563 3.08900 -0.86222 
0.04614 3.16900 -0.88455 
0.09576 3.16900 -0.88455 
0.13780 3.18500 -0.88901 
0.28813 3.28800 -0.91776 
0.30362 3.27000 -0.91274 
0.38490 3.23600 -0.90325 
0.41455 3.27000 -0.91274 
0.59352 3.41600 -0.95349 
0.74886 3.47500 -0.96996 
0.80939 2.75500 -0.76899 
0.90559 2.83100 -0.79020 
0.99512 2.79200 -0.77932 
1.04455 2.69400 -0.75196 
1.09966 2.78000 -0.77597 
1.42612 2.78000 -0.77597 
1.44063 2.78000 -0.77597 
1.46991 2.62500 -0.73270 
1.55782 2.67000 -0.74527 
1.57264 2.56900 -0.71707 
1.69277 2.54800 -0.71121 
1.66968 2.44600 -0.68274 
1.69950 2.39800 -0.66934 
1.73800 2.40800 -0.67213 
1.80785 2.28200 -0.63696 
1.83303 2.24000 -0.62524 
-1.64347 2.17600 -0.61306 
-1.57575 2.16100 -0.60883 
-1.55868 2.15300 -0.60658 
-1.49400 2.22400 -0.62658 
-1.44045 2.24000 -0.63109 
-1.37699 2.29000 -0.64517 
-1.09999 2.14600 -0.60460 
-1.09031 2.13800 -0.60235 
-1.00805 2.01800 -0.56854 
-0.87923 1.89900 -0.53502 
-0.86436 1.89900 -0.53502 
-0.69421 1.84200 -0.51896 
-0.64614 1.81500 -0.51135 
-0.52772 1.73700 -0.48937 
-0.51567 1.72700 -0.48656 
-0.48331 2.83100 -0.79759 
-0.25519 2.92600 -0.82436 
-0.19596 2.95400 -0.83225 
-0.15265 3.01200 -0.84859 
0.12118 3.18500 -0.89733 
0.17196 3.20200 -0.90212 
0.25110 3.25300 -0.91648 
0.41683 3.28800 -0.92634 
0.86991 3.64000 -1.02551 
0.88891 3.64000 -1.02551 
0.81751 2.91200 -0.82041 
0.85252 2.75500 -0.77618 
1.00373 2.85800 -0.80520 
1.09966 2.78000 -0.78322 
1.36324 3.13600 -0.88352 
1.35991 3.07300 -0.86577 
1.41393 2.85800 -0.80520 
1.48519 2.75500 -0.77618 
1.47340 2.69400 -0.75899 
1.57952 2.62500 -0.73955 
1.68546 2.53700 -0.71476 
1.79635 2.43600 -0.68631 
1.83674 2.45600 -0.69194 
1.79796 2.24000 -0.63109 
1.80319 2.23200 -0.62883 
1.83888 2.24000 -0.63109 
-1.71276 2.19200 -0.62328 
-1.66050 2.17600 -0.61873 
-1.53681 2.14600 -0.61020 
-1.53121 2.14600 -0.61020 
-1.51286 2.17600 -0.61873 
-1.50683 2.19200 -0.62328 
-1.41604 2.25700 -0.64177 
-1.32939 2.24000 -0.63693 
-1.07928 1.91100 -0.54338 
-1.04441 1.89300 -0.53826 
-0.86436 1.89900 -0.53997 
-0.79981 1.88700 -0.53656 
-0.73221 1.85300 -0.52689 
-0.71576 1.84800 -0.52547 
-0.53992 2.81800 -0.80128 
-0.36859 2.85800 -0.81266 
-0.15976 2.99800 -0.85247 
0.02122 3.15200 -0.89625 
0.22446 3.23600 -0.92014 
0.25110 3.25300 -0.92497 
0.33775 3.27000 -0.92981 
0.35297 3.25300 -0.92497 
0.50217 3.34200 -0.95028 
0.66873 3.43600 -0.97701 
0.86021 3.15200 -0.89625 
0.80569 2.76700 -0.78678 
1.01890 2.68200 -0.76261 
1.42236 2.96900 -0.84422 
1.43010 2.96900 -0.84422 
1.43059 2.95400 -0.83995 
1.56455 2.71800 -0.77285 
1.58610 2.65900 -0.75607 
1.57258 2.59100 -0.73674 
1.64584 2.52700 -0.71854 
1.67557 2.43600 -0.69266 
1.71296 2.41700 -0.68726 
1.75081 2.41700 -0.68726 
-1.45860 2.23200 -0.64048 
-1.35714 2.25700 -0.64766 
-1.12506 2.10900 -0.60519 
-1.14818 2.24000 -0.64278 
-0.87923 1.89900 -0.54493 
-0.85669 1.89300 -0.54320 
-0.84950 1.89900 -0.54493 
-0.78787 1.88200 -0.54005 
-0.61680 2.76700 -0.79400 
-0.56408 2.79200 -0.80118 
-0.46638 2.81800 -0.80864 
-0.42961 2.81800 -0.80864 
-0.08441 3.10400 -0.89071 
-0.02771 3.10400 -0.89071 
0.07922 3.16900 -0.90936 
0.28813 3.28800 -0.94351 
0.61135 3.41600 -0.98024 
0.92156 3.61900 -1.03849 
0.81658 2.75500 -0.79056 
0.85623 2.76700 -0.79400 
0.94215 2.89800 -0.83159 
1.42616 2.89800 -0.83159 
1.44685 2.79200 -0.80118 
1.51243 2.79200 -0.80118 
1.50734 2.73000 -0.78339 
1.51490 2.71800 -0.77994 
1.59308 2.49600 -0.71624 
1.70100 2.43600 -0.69902 
1.85992 2.43600 -0.69902 
1.79532 2.20800 -0.63360 
-1.69511 2.18400 -0.63241 
-1.66050 2.17600 -0.63009 
-1.48190 2.23200 -0.64631 
-1.46443 2.23200 -0.64631 
-1.42193 2.25700 -0.65355 
-1.12025 2.20800 -0.63936 
-0.97824 1.97900 -0.57305 
-0.92383 1.89900 -0.54988 
-0.91597 1.89300 -0.54814 
-0.90609 1.89300 -0.54814 
-0.86163 1.89300 -0.54814 
-0.71825 1.84200 -0.53338 
-0.58492 1.77300 -0.51340 
-0.46988 1.70800 -0.49458 
-0.46406 1.70300 -0.49313 
-0.47374 2.81800 -0.81599 
-0.31779 2.94000 -0.85132 
-0.08484 3.12000 -0.90344 
-0.06856 3.12000 -0.90344 
0.02122 3.15200 -0.91271 
0.18867 3.20200 -0.92718 
0.28970 3.30600 -0.95730 
0.32245 3.28800 -0.95209 
0.45856 3.34200 -0.96772 
0.51961 3.34200 -0.96772 
0.81358 2.89800 -0.83916 
0.83419 2.74200 -0.79398 
1.00163 2.83100 -0.81976 
1.32372 3.12000 -0.90344 
1.42729 2.88500 -0.83539 
1.59257 2.79200 -0.80846 
1.61914 2.49600 -0.72275 
1.86352 2.46600 -0.71406 
-1.54275 2.13100 -0.62262 
-1.51932 2.16900 -0.63372 
-1.50019 2.21600 -0.64746 
-1.42782 2.25700 -0.65944 
-1.05461 1.87600 -0.54812 
-1.13243 2.23200 -0.65213 
-1.09833 2.17600 -0.63577 
-0.96078 1.95400 -0.57091 
-0.89127 1.89300 -0.55308 
-0.88633 1.89300 -0.55308 
-0.85175 1.89300 -0.55308 
-0.83199 1.89300 -0.55308 
-0.67573 1.83100 -0.53497 
-0.62636 1.79900 -0.52562 
-0.60854 1.78800 -0.52241 
-0.58657 1.77800 -0.51948 
-0.50215 1.72700 -0.50458 
-0.63569 2.75500 -0.80494 
-0.63124 2.76700 -0.80844 
-0.37960 2.88500 -0.84292 
-0.33918 2.92600 -0.85490 
-0.16837 3.01200 -0.88003 
-0.16131 3.02700 -0.88441 
-0.15417 3.04200 -0.88879 
0.06268 3.16900 -0.92590 
0.12057 3.16900 -0.92590 
0.20648 3.21900 -0.94051 
0.53995 3.36000 -0.98170 
0.70459 3.43600 -1.00391 
0.74886 3.47500 -1.01530 
0.83104 3.55500 -1.03868 
0.88263 2.80500 -0.81955 
0.99534 2.69400 -0.78712 
1.00237 2.69400 -0.78712 
1.14543 2.85800 -0.83503 
1.32372 3.12000 -0.91158 
1.33313 3.10400 -0.90691 
1.59269 2.81800 -0.82334 
1.60743 2.83100 -0.82714 
1.59966 2.64700 -0.77338 
1.57937 2.58000 -0.75381 
1.56677 2.50600 -0.73219 
1.61914 2.48600 -0.72634 
1.67140 2.50600 -0.73219 
1.71551 2.46600 -0.72050 
1.77803 2.20800 -0.64512 
1.78151 2.18400 -0.63811 
1.83565 2.20800 -0.64512 
-1.60394 2.16100 -0.63703 
-1.55387 2.13100 -0.62818 
-1.53696 2.12300 -0.62582 
-1.43973 2.24800 -0.66267 
-1.35562 2.21600 -0.65324 
-1.04999 1.80900 -0.53326 
-1.17280 2.14600 -0.63260 
-1.03902 2.08000 -0.61315 
-0.89621 1.89300 -0.55802 
-0.80966 1.88700 -0.55626 
-0.80260 1.88200 -0.55478 
-0.68237 1.83600 -0.54122 
-0.52469 1.74200 -0.51351 
-0.51264 1.73200 -0.51056 
-0.50665 1.72700 -0.50909 
-0.45073 1.70300 -0.50202 
-0.61970 2.78000 -0.81950 
-0.56671 2.80500 -0.82687 
-0.39647 2.84400 -0.83836 
-0.13104 3.05800 -0.90145 
-0.12366 3.07300 -0.90587 
0.12884 3.16900 -0.93417 
0.14538 3.16900 -0.93417 
0.16274 3.18500 -0.93888 
0.29833 3.30600 -0.97455 
0.41911 3.30600 -0.97455 
0.44112 3.34200 -0.98516 
0.56945 3.37900 -0.99607 
0.77119 3.49400 -1.02997 
0.78031 3.49400 -1.02997 
0.86395 3.57600 -1.05414 
0.87010 3.21900 -0.94891 
0.99813 2.99800 -0.88376 
1.02637 3.01200 -0.88789 
0.98727 2.73000 -0.80476 
1.09966 2.78000 -0.81950 
1.41517 2.95400 -0.87079 
1.43148 2.94000 -0.86666 
1.63022 2.85800 -0.84249 
1.65259 2.85800 -0.84249 
1.65934 2.84400 -0.83836 
1.68448 2.50600 -0.73873 
1.73351 2.44600 -0.72104 
1.80519 2.19200 -0.64616 
-1.65516 2.16900 -0.64504 
-1.60958 2.16100 -0.64267 
-1.53696 2.12300 -0.63136 
-1.52607 2.13100 -0.63374 
-1.51992 2.13800 -0.63583 
-1.51932 2.16900 -0.64504 
-1.51843 2.18400 -0.64951 
-1.45214 2.24000 -0.66616 
-1.07928 1.91100 -0.56832 
-1.23548 2.31600 -0.68876 
-1.19174 2.32500 -0.69144 
-1.04252 2.08700 -0.62066 
-0.62811 1.80400 -0.53650 
-0.61698 1.79900 -0.53501 
-0.56496 1.78300 -0.53025 
-0.45691 2.80500 -0.83419 
-0.26534 2.95400 -0.87850 
-0.14700 3.05800 -0.90943 
-0.08528 3.13600 -0.93262 
-0.04413 3.12000 -0.92787 
0.21601 3.23600 -0.96236 
0.22564 3.25300 -0.96742 
0.35009 3.30600 -0.98318 
0.43240 3.34200 -0.99389 
0.61354 3.37900 -1.00489 
0.84032 3.55500 -1.05723 
0.82341 2.73000 -0.81188 
0.99343 2.76700 -0.82289 
1.33731 3.05800 -0.90943 
1.35535 3.02700 -0.90021 
1.35650 3.01200 -0.89575 
1.36436 3.01200 -0.89575 
1.36584 2.99800 -0.89158 
1.38362 2.96900 -0.88296 
1.46823 2.80500 -0.83419 
1.52777 2.76700 -0.82289 
1.65914 2.83100 -0.84192 
1.57987 2.55900 -0.76103 
1.65822 2.49600 -0.74229 
1.70501 2.51700 -0.74854 
1.71601 2.47600 -0.73634 
1.74538 2.42700 -0.72177 
1.85170 2.47600 -0.73634 
1.87639 2.46600 -0.73337 
1.86996 2.40800 -0.71612 
1.81570 2.18400 -0.64951 
-1.59239 2.15300 -0.64591 
-1.52051 2.13100 -0.63930 
-1.43973 2.24800 -0.67441 
-1.43386 2.24800 -0.67441 
-1.38288 2.23200 -0.66961 
-1.17242 2.29900 -0.68971 
-0.84189 1.88200 -0.56460 
-0.83698 1.88200 -0.56460 
-0.55067 1.76700 -0.53010 
-0.54297 1.75700 -0.52710 
-0.46850 1.70300 -0.51090 
-0.63569 2.75500 -0.82651 
-0.58135 2.80500 -0.84151 
-0.50547 2.83100 -0.84931 
-0.38350 2.85800 -0.85741 
-0.06073 3.13600 -0.94081 
-0.03599 3.12000 -0.93601 
0.20648 3.21900 -0.96571 
0.50814 3.32400 -0.99721 
0.55748 3.36000 -1.00801 
1.41785 2.91200 -0.87361 
1.68448 2.50600 -0.75181 
1.79096 2.44600 -0.73381 
1.78720 2.18400 -0.65521 
1.80323 2.16900 -0.65071 
1.83153 2.16900 -0.65071 
-1.66598 2.16100 -0.65394 
-1.65470 2.16100 -0.65394 
-1.58677 2.15300 -0.65152 
-1.57601 2.14600 -0.64941 
-1.52499 2.16100 -0.65394 
-1.45860 2.23200 -0.67543 
-1.42213 2.24800 -0.68027 
-1.32832 2.15300 -0.65152 
-1.13294 1.87600 -0.56770 
-1.04570 1.76200 -0.53320 
-0.83207 1.88200 -0.56952 
-0.81242 1.88200 -0.56952 
-0.62040 1.80900 -0.54743 
-0.58881 1.79900 -0.54440 
-0.50406 1.70300 -0.51535 
-0.54728 2.81800 -0.85276 
-0.41836 2.79200 -0.84489 
-0.40567 2.80500 -0.84883 
-0.36277 2.87100 -0.86880 
-0.35701 2.88500 -0.87304 
-0.33918 2.92600 -0.88544 
-0.25763 2.95400 -0.89392 
-0.23569 2.96900 -0.89845 
-0.21345 2.98300 -0.90269 
-0.18409 3.01200 -0.91147 
-0.17004 3.04200 -0.92055 
-0.05254 3.13600 -0.94899 
0.03806 3.18500 -0.96382 
0.06300 3.18500 -0.96382 
0.17196 3.20200 -0.96896 
0.51681 3.32400 -1.00588 
0.54578 3.34200 -1.01133 
0.55450 3.34200 -1.01133 
0.75793 3.47500 -1.05158 
0.77607 3.47500 -1.05158 
0.90127 3.57600 -1.08214 
0.88499 3.30600 -1.00043 
0.81291 2.76700 -0.83733 
0.89408 2.81800 -0.85276 
0.99512 2.79200 -0.84489 
0.98912 2.75500 -0.83370 
1.01390 2.70600 -0.81887 
1.34864 3.01200 -0.91147 
1.35900 2.98300 -0.90269 
1.43305 2.91200 -0.88121 
1.45740 2.88500 -0.87304 
1.45782 2.87100 -0.86880 
1.46362 2.75500 -0.83370 
1.57354 2.49600 -0.75532 
1.66473 2.49600 -0.75532 
1.72544 2.40800 -0.72869 
1.85195 2.36100 -0.71447 
1.78882 2.20000 -0.66575 
-1.57041 2.14600 -0.65501 
-1.02790 1.73200 -0.52864 
-1.20245 2.33400 -0.71239 
-0.84680 1.88200 -0.57443 
-0.80751 1.88200 -0.57443 
-0.77313 1.88200 -0.57443 
-0.75356 1.87000 -0.57076 
-0.74868 1.87000 -0.57076 
-0.62720 1.81500 -0.55398 
-0.53072 1.73200 -0.52864 
-0.49550 1.68900 -0.51552 
-0.48994 1.68500 -0.51430 
-0.47184 1.69900 -0.51857 
-0.48938 1.83100 -0.55886 
-0.65194 2.59100 -0.79083 
-0.58135 2.80500 -0.85615 
-0.44959 2.80500 -0.85615 
-0.36113 2.85800 -0.87232 
-0.10871 3.10400 -0.94741 
-0.07709 3.13600 -0.95717 
0.17288 3.21900 -0.98251 
0.27097 3.28800 -1.00357 
0.35009 3.30600 -1.00906 
0.47601 3.34200 -1.02005 
0.84533 2.75500 -0.84089 
0.92169 2.85800 -0.87232 
0.98727 2.73000 -0.83325 
1.00684 2.70600 -0.82593 
1.35263 2.96900 -0.90620 
1.40176 2.92600 -0.89308 
1.42545 2.91200 -0.88880 
1.43305 2.91200 -0.88880 
1.58021 2.51700 -0.76824 
1.59947 2.44600 -0.74657 
1.69522 2.44600 -0.74657 
1.86756 2.44600 -0.74657 
1.86434 2.41700 -0.73772 
1.80965 2.24000 -0.68370 
-1.67162 2.16100 -0.66522 
-1.64857 2.15300 -0.66276 
-1.42876 2.24000 -0.68954 
-1.05348 1.81500 -0.55871 
-0.49140 1.67500 -0.51562 
-0.47184 1.69900 -0.52301 
-0.65303 2.51700 -0.77481 
-0.59323 2.79200 -0.85946 
-0.38549 2.81800 -0.86747 
-0.36678 2.84400 -0.87547 
-0.16920 3.02700 -0.93180 
-0.14700 3.05800 -0.94135 
-0.10113 3.12000 -0.96043 
0.20757 3.23600 -0.99614 
0.31215 3.27000 -1.00661 
0.59256 3.36000 -1.03431 
0.74886 3.47500 -1.06971 
0.99139 2.84400 -0.87547 
1.15064 2.87100 -0.88378 
1.34529 3.05800 -0.94135 
1.35476 2.94000 -0.90502 
1.36243 2.94000 -0.90502 
1.41025 2.91200 -0.89640 
1.44987 2.88500 -0.88809 
1.44528 2.69400 -0.82930 
1.59267 2.74200 -0.84407 
1.59947 2.44600 -0.75295 
1.68334 2.46600 -0.75911 
1.69471 2.42700 -0.74711 
1.84295 2.33400 -0.71848 
1.79860 2.18400 -0.67230 
-1.64857 2.15300 -0.66838 
-1.52971 2.19200 -0.68049 
-1.01620 2.04500 -0.63485 
-0.91887 1.89900 -0.58953 
-0.87645 1.89300 -0.58766 
-0.86657 1.89300 -0.58766 
-0.86163 1.89300 -0.58766 
-0.71032 1.85900 -0.57711 
-0.53976 1.73200 -0.53768 
-0.48179 1.65700 -0.51440 
-0.24874 2.94000 -0.91270 
-0.16131 3.02700 -0.93970 
-0.10871 3.10400 -0.96361 
0.29508 3.27000 -1.01514 
0.61009 3.36000 -1.04308 
0.66113 3.39700 -1.05457 
0.67000 3.39700 -1.05457 
0.74886 3.47500 -1.07878 
0.80944 2.80500 -0.87079 
0.90559 2.83100 -0.87886 
0.98397 2.84400 -0.88289 
1.33585 3.07300 -0.95398 
1.34387 3.07300 -0.95398 
1.42616 2.89800 -0.89966 
1.45984 2.68200 -0.83260 
1.52939 2.70600 -0.84005 
1.58593 2.61300 -0.81118 
1.58678 2.47600 -0.76865 
1.84049 2.30800 -0.71650 
1.80684 2.20800 -0.68545 
-1.67726 2.16100 -0.67650 
-1.60422 2.16900 -0.67901 
-1.55883 2.16100 -0.67650 
-1.55319 2.16100 -0.67650 
-1.50598 2.21600 -0.69372 
-1.45918 2.22400 -0.69622 
-1.43016 2.22400 -0.69622 
-1.05821 1.81500 -0.56819 
-1.20245 2.33400 -0.73066 
-1.01620 2.04500 -0.64019 
-0.91183 1.90500 -0.59636 
-0.88418 1.89900 -0.59448 
-0.55355 1.74700 -0.54690 
-0.47632 1.65300 -0.51747 
-0.67681 2.71800 -0.85087 
-0.66555 2.73000 -0.85463 
-0.55463 2.81800 -0.88218 
-0.27942 2.94000 -0.92037 
-0.19105 2.99800 -0.93852 
0.07131 3.18500 -0.99707 
0.27802 3.27000 -1.02367 
0.70049 3.41600 -1.06938 
0.75793 3.47500 -1.08785 
0.91209 3.47500 -1.08785 
1.02096 2.70600 -0.84711 
1.08730 2.76700 -0.86621 
1.10955 2.80500 -0.87811 
1.44128 2.89800 -0.90722 
1.56548 2.61300 -0.81800 
1.65139 2.47600 -0.77511 
1.65759 2.46600 -0.77198 
1.66881 2.41700 -0.75664 
1.77728 2.43600 -0.76259 
1.85283 2.37000 -0.74193 
-1.64342 2.16100 -0.68214 
-1.62686 2.16900 -0.68467 
-1.43658 2.21600 -0.69950 
-1.05358 1.79900 -0.56787 
-1.26696 2.35200 -0.74243 
-1.25469 2.35200 -0.74243 
-0.99455 2.01200 -0.63511 
-0.85669 1.89300 -0.59754 
-0.79247 1.89300 -0.59754 
-0.64706 1.83100 -0.57797 
-0.51762 1.67500 -0.52873 
-0.50068 1.64800 -0.52021 
-0.67681 2.71800 -0.85796 
-0.65416 2.74200 -0.86554 
-0.61509 2.79200 -0.88132 
-0.57403 2.80500 -0.88543 
-0.54728 2.81800 -0.88953 
-0.48553 2.84400 -0.89774 
-0.44432 2.81800 -0.88953 
-0.41299 2.80500 -0.88543 
-0.38371 2.80500 -0.88543 
-0.18409 3.01200 -0.95077 
-0.16131 3.02700 -0.95550 
-0.13168 3.07300 -0.97002 
-0.05227 3.12000 -0.98486 
0.14768 3.21900 -1.01611 
0.40405 3.32400 -1.04925 
0.50814 3.32400 -1.04925 
0.58066 3.34200 -1.05493 
0.64000 3.37900 -1.06661 
0.75793 3.47500 -1.09692 
0.82144 2.92600 -0.92362 
0.96644 2.85800 -0.90216 
1.34619 3.04200 -0.96024 
1.44064 2.91200 -0.91920 
1.53156 2.62500 -0.82861 
1.53852 2.60200 -0.82135 
1.55906 2.59100 -0.81787 
1.57937 2.58000 -0.81440 
1.63201 2.47600 -0.78157 
1.68773 2.40800 -0.76011 
1.80373 2.44600 -0.77210 
1.81011 2.44600 -0.77210 
1.82598 2.40800 -0.76011 
1.85103 2.35200 -0.74243 
-1.67105 2.15300 -0.68523 
-1.52359 2.20800 -0.70274 
-1.44292 2.20800 -0.70274 
-1.41345 2.21600 -0.70529 
-1.28543 2.06600 -0.65754 
-1.26888 2.21600 -0.70529 
-1.29990 2.33400 -0.74284 
-0.92258 1.91700 -0.61012 
-0.80729 1.89300 -0.60248 
-0.79003 1.89900 -0.60439 
-0.61568 1.80900 -0.57575 
-0.64099 2.44600 -0.77849 
-0.68390 2.71800 -0.86506 
-0.56671 2.80500 -0.89275 
-0.49538 2.85800 -0.90961 
-0.34621 2.85800 -0.90961 
-0.13168 3.07300 -0.97804 
-0.06042 3.12000 -0.99300 
-0.02785 3.12000 -0.99300 
0.20975 3.27000 -1.04074 
0.23412 3.25300 -1.03533 
0.28506 3.25300 -1.03533 
0.41272 3.32400 -1.05793 
0.47344 3.32400 -1.05793 
0.48212 3.32400 -1.05793 
0.52264 3.30600 -1.05220 
0.69158 3.41600 -1.08721 
0.82590 3.49400 -1.11203 
0.96170 2.84400 -0.90516 
0.98445 2.74200 -0.87269 
1.07032 2.74200 -0.87269 
1.20542 2.96900 -0.94494 
1.34281 3.08900 -0.98313 
1.42545 2.91200 -0.92680 
1.44884 2.89800 -0.92234 
1.45782 2.87100 -0.91375 
1.46032 2.81800 -0.89688 
1.50115 2.70600 -0.86124 
1.53173 2.60200 -0.82814 
1.59275 2.56900 -0.81763 
1.66330 2.44600 -0.77849 
1.66938 2.42700 -0.77244 
1.70658 2.40800 -0.76639 
1.77728 2.43600 -0.77530 
1.79735 2.44600 -0.77849 
1.82019 2.41700 -0.76926 
1.82649 2.41700 -0.76926 
1.83027 2.38900 -0.76035 
-1.67681 2.14600 -0.68861 
-1.67121 2.14600 -0.68861 
-1.54115 2.19200 -0.70337 
-1.52955 2.20000 -0.70593 
-1.07232 1.83100 -0.58753 
-1.29381 2.33400 -0.74893 
-1.26336 2.33400 -0.74893 
-1.25600 2.34300 -0.75182 
-0.85715 1.90500 -0.61127 
-0.46801 1.63900 -0.52592 
