ply
format ascii 1.0
comment pointcloud saved from Realsense Viewer
element vertex 1875
property float32 x
property float32 y
property float32 z
end_header
0.37602 2.91800 0.94149 
0.48933 2.94000 0.94859 
0.50161 2.94000 0.94859 
0.51388 2.94000 0.94859 
0.55107 3.00900 0.97085 
0.86349 4.06600 1.31189 
1.33066 5.70500 1.84071 
1.56556 6.37000 2.05527 
1.75721 6.59000 2.12625 
1.92230 6.59000 2.12625 
2.03237 6.59000 2.12625 
2.11491 6.59000 2.12625 
2.14243 6.59000 2.12625 
2.26830 6.47800 2.09011 
2.29535 6.47800 2.09011 
2.40337 6.26600 2.02171 
2.42954 6.26600 2.02171 
2.08162 4.49700 1.45095 
2.30260 4.71900 1.52258 
2.67805 5.09600 1.64421 
2.73588 5.16500 1.66648 
2.92244 5.30800 1.71262 
2.83182 5.02900 1.62260 
2.83667 4.96400 1.60163 
2.97084 4.02300 1.29801 
2.92886 3.90000 1.25833 
2.91569 3.86100 1.24574 
2.89218 3.74700 1.20896 
2.86040 3.15900 1.01925 
2.78190 2.96300 0.95601 
2.75416 2.75000 0.88728 
-1.53507 1.63300 0.52007 
-1.41022 1.72200 0.54841 
-1.39169 1.75300 0.55828 
-1.38224 1.76900 0.56338 
-1.36911 1.88300 0.59968 
-1.34325 1.96000 0.62421 
-1.32009 2.01200 0.64077 
-1.31238 2.06600 0.65796 
-1.30633 2.11200 0.67261 
-1.25376 2.22200 0.70765 
-1.20850 2.45000 0.78026 
-1.20089 2.49800 0.79554 
-1.17918 2.63600 0.83949 
-1.13350 2.71100 0.86338 
-1.11190 2.77000 0.88217 
-1.10909 2.85200 0.90828 
-1.06566 2.96300 0.94363 
-1.01045 3.05800 0.97389 
-1.00551 3.08200 0.98153 
-0.98772 3.10700 0.98949 
-0.96178 3.10700 0.98949 
-0.64248 3.00900 0.95828 
-0.56276 2.98600 0.95096 
-0.55453 3.00900 0.95828 
-0.53363 3.03300 0.96593 
-0.31341 2.98600 0.95096 
-0.27600 2.98600 0.95096 
-0.26354 2.98600 0.95096 
-0.23860 2.98600 0.95096 
-0.21367 2.98600 0.95096 
-0.20120 2.98600 0.95096 
-0.18873 2.98600 0.95096 
-0.17626 2.98600 0.95096 
-0.16380 2.98600 0.95096 
0.08556 2.98600 0.95096 
0.40038 2.91800 0.92930 
0.45250 2.94000 0.93631 
0.53439 2.98600 0.95096 
1.04157 4.71900 1.50287 
1.33066 5.70500 1.81689 
1.44043 6.06700 1.93217 
1.61915 6.47800 2.06307 
1.86727 6.59000 2.09874 
2.08740 6.59000 2.09874 
2.25249 6.59000 2.09874 
2.26830 6.47800 2.06307 
2.37650 6.47800 2.06307 
2.41528 5.97200 1.90192 
2.35494 5.70500 1.81689 
2.34374 5.62100 1.79014 
2.26698 5.38300 1.71434 
2.18089 5.02900 1.60160 
2.15083 4.60500 1.46657 
2.26319 4.71900 1.50287 
2.65677 5.09600 1.62294 
2.71431 5.16500 1.64491 
3.03325 5.30800 1.69045 
2.89498 3.21200 1.02293 
2.85224 3.10700 0.98949 
2.68526 2.75000 0.87580 
2.68853 2.73000 0.86943 
2.76564 2.75000 0.87580 
-1.53507 1.63300 0.51325 
-1.41741 1.72200 0.54122 
-1.40874 1.72900 0.54342 
-1.38334 1.76100 0.55348 
-1.38224 1.76900 0.55599 
-1.36911 1.88300 0.59182 
-1.34043 1.98000 0.62231 
-1.32849 2.01200 0.63237 
-1.32665 2.02200 0.63551 
-1.32401 2.04400 0.64242 
-1.31238 2.06600 0.64934 
-1.23422 2.28900 0.71943 
-1.22525 2.34500 0.73703 
-1.21832 2.38900 0.75086 
-1.20331 2.41900 0.76028 
-1.20356 2.48200 0.78009 
-1.19320 2.48200 0.78009 
-1.18806 2.51500 0.79046 
-1.18505 2.53100 0.79549 
-1.18737 2.58200 0.81152 
-1.17918 2.63600 0.82849 
-1.12684 2.75000 0.86432 
-1.10449 2.81000 0.88318 
-1.09719 2.85200 0.89638 
-1.03195 3.00900 0.94572 
-1.01838 3.08200 0.96866 
-0.93058 3.13300 0.98469 
-0.89134 3.13300 0.98469 
-0.83901 3.13300 0.98469 
-0.79977 3.13300 0.98469 
-0.77360 3.13300 0.98469 
-0.64760 3.03300 0.95326 
-0.55029 2.98600 0.93849 
-0.46142 3.05800 0.96112 
-0.42311 3.05800 0.96112 
-0.39757 3.05800 0.96112 
-0.35633 3.03300 0.95326 
-0.31582 3.00900 0.94572 
-0.15133 2.98600 0.93849 
0.04852 3.00900 0.94572 
0.07365 3.00900 0.94572 
0.08622 3.00900 0.94572 
0.09802 2.98600 0.93849 
0.12296 2.98600 0.93849 
0.18244 2.94000 0.92403 
0.29292 2.94000 0.92403 
0.40340 2.94000 0.92403 
0.44023 2.94000 0.92403 
0.47706 2.94000 0.92403 
1.59211 6.47800 2.03602 
1.67466 6.59000 2.07122 
1.84387 6.70500 2.10736 
1.87186 6.70500 2.10736 
1.92230 6.59000 2.07122 
2.03237 6.59000 2.07122 
2.36255 6.59000 2.07122 
2.25755 5.30800 1.66829 
2.17699 4.66100 1.46494 
2.33139 4.77800 1.50171 
3.00337 5.53900 1.74089 
3.07275 5.53900 1.74089 
3.05172 5.46000 1.71606 
2.76953 2.96300 0.93126 
2.72889 2.83100 0.88978 
2.70102 2.79000 0.87689 
2.69674 2.75000 0.86432 
2.71971 2.75000 0.86432 
-1.47974 1.65500 0.51325 
-1.46592 1.65500 0.51325 
-1.45824 1.66200 0.51542 
-1.45130 1.66200 0.51542 
-1.45044 1.66900 0.51759 
-1.42832 1.68400 0.52225 
-1.40152 1.72900 0.53620 
-1.38224 1.76900 0.54861 
-1.36424 1.85500 0.57528 
-1.35385 1.94000 0.60164 
-1.32849 2.01200 0.62397 
-1.27230 2.15900 0.66955 
-1.25800 2.19700 0.68134 
-1.25565 2.20900 0.68506 
-1.23422 2.28900 0.70987 
-1.22525 2.34500 0.72724 
-1.20061 2.43400 0.75484 
-1.17918 2.63600 0.81748 
-1.13350 2.71100 0.84074 
-1.13004 2.73000 0.84663 
-1.11864 2.73000 0.84663 
-1.11536 2.75000 0.85284 
-1.09719 2.85200 0.88447 
-1.08955 2.89500 0.89780 
-1.04900 2.98600 0.92602 
-1.02322 3.05800 0.94835 
-0.98291 3.13300 0.97161 
-0.85916 3.15900 0.97968 
-0.57523 2.98600 0.92602 
-0.55029 2.98600 0.92602 
-0.47031 3.03300 0.94060 
-0.43588 3.05800 0.94835 
-0.42311 3.05800 0.94835 
-0.41034 3.05800 0.94835 
-0.38481 3.05800 0.94835 
-0.29301 3.03300 0.94060 
-0.26557 3.00900 0.93316 
-0.20120 2.98600 0.92602 
-0.02665 2.98600 0.92602 
0.01083 3.00900 0.93316 
0.12296 2.98600 0.92602 
0.14789 2.98600 0.92602 
0.17017 2.94000 0.91176 
0.28065 2.94000 0.91176 
0.41568 2.94000 0.91176 
0.49699 2.98600 0.92602 
0.50946 2.98600 0.92602 
0.60492 3.15900 0.97968 
1.14606 5.09600 1.58038 
1.44043 6.06700 1.88151 
1.73188 6.70500 2.07937 
1.84387 6.70500 2.07937 
2.08740 6.59000 2.04370 
2.16994 6.59000 2.04370 
2.28001 6.59000 2.04370 
2.41758 6.59000 2.04370 
2.49646 6.37000 1.97548 
2.48186 6.26600 1.94322 
2.45371 6.06700 1.88151 
2.39044 5.79100 1.79592 
2.29940 5.46000 1.69327 
2.24879 5.23600 1.62380 
2.20994 5.09600 1.58038 
2.47275 4.90000 1.51960 
2.54650 4.96400 1.53945 
3.00337 5.53900 1.71777 
3.11824 5.62100 1.74320 
2.81897 3.86100 1.19738 
2.71971 2.75000 0.85284 
2.74267 2.75000 0.85284 
-1.52825 1.63300 0.49961 
-1.47974 1.65500 0.50634 
-1.47212 1.66200 0.50848 
-1.44953 1.67600 0.51277 
-1.41137 1.70600 0.52194 
-1.40303 1.72200 0.52684 
-1.39169 1.75300 0.53632 
-1.38224 1.76900 0.54122 
-1.37116 1.80300 0.55162 
-1.36307 1.86400 0.57028 
-1.35663 1.92100 0.58772 
-1.32538 2.03300 0.62199 
-1.29891 2.10000 0.64249 
-1.27089 2.17200 0.66452 
-1.26182 2.17200 0.66452 
-1.25800 2.19700 0.67216 
-1.23617 2.27500 0.69603 
-1.21832 2.38900 0.73091 
-1.20589 2.40400 0.73550 
-1.20061 2.43400 0.74467 
-1.18479 2.60000 0.79546 
-1.18206 2.61800 0.80097 
-1.15109 2.67300 0.81780 
-1.10449 2.81000 0.85971 
-1.10909 2.85200 0.87256 
-1.04018 3.03300 0.92794 
-0.72128 3.13300 0.95853 
-0.60479 3.00900 0.92059 
-0.57523 2.98600 0.91356 
-0.52536 2.98600 0.91356 
-0.41034 3.05800 0.93558 
-0.21703 3.03300 0.92794 
0.02358 3.03300 0.92794 
0.07424 3.03300 0.92794 
0.31747 2.94000 0.89948 
0.40340 2.94000 0.89948 
0.44712 2.98600 0.91356 
0.55547 3.03300 0.92794 
0.60492 3.15900 0.96649 
1.16158 5.16500 1.58021 
1.61963 6.59000 2.01619 
1.78787 6.70500 2.05137 
1.81587 6.70500 2.05137 
2.33504 6.59000 2.01619 
2.43178 6.70500 2.05137 
2.50013 6.59000 2.01619 
2.34374 5.62100 1.71973 
2.23122 5.09600 1.55910 
2.18632 4.90000 1.49914 
2.19906 4.83800 1.48017 
2.21169 4.77800 1.46181 
2.38086 4.83800 1.48017 
2.69275 5.16500 1.58021 
3.00337 5.53900 1.69464 
3.07130 5.62100 1.71973 
3.11824 5.62100 1.71973 
3.16518 5.62100 1.71973 
3.23630 5.70500 1.74543 
3.18838 5.53900 1.69464 
3.21151 5.53900 1.69464 
2.79049 3.82200 1.16933 
2.80645 3.82200 1.16933 
2.82378 3.13300 0.95853 
2.76609 2.98600 0.91356 
2.68937 2.79000 0.85359 
2.68526 2.75000 0.84135 
-1.52795 1.64000 0.49490 
-1.49372 1.64000 0.49490 
-1.43535 1.68400 0.50818 
-1.38224 1.76900 0.53383 
-1.36969 1.81100 0.54651 
-1.35649 1.85500 0.55979 
-1.35474 1.87400 0.56552 
-1.34957 1.91100 0.57668 
-1.33125 1.99100 0.60083 
-1.32665 2.02200 0.61018 
-1.32538 2.03300 0.61350 
-1.28869 2.11200 0.63734 
-1.23422 2.28900 0.69075 
-1.22767 2.33100 0.70343 
-1.22525 2.34500 0.70765 
-1.22272 2.35900 0.71188 
-1.22058 2.37400 0.71640 
-1.18551 2.46600 0.74417 
-1.18505 2.53100 0.76378 
-1.16818 2.63600 0.79547 
-1.14803 2.69200 0.81237 
-1.13679 2.69200 0.81237 
-1.10565 2.87400 0.86729 
-1.08603 2.91800 0.88057 
-1.04018 3.03300 0.91527 
-0.99922 3.18500 0.96114 
-0.96746 3.21200 0.96929 
-0.90040 3.21200 0.96929 
-0.88699 3.21200 0.96929 
-0.81993 3.21200 0.96929 
-0.60479 3.00900 0.90803 
-0.58769 2.98600 0.90109 
-0.47549 2.98600 0.90109 
-0.45764 3.03300 0.91527 
-0.30568 3.03300 0.91527 
-0.26769 3.03300 0.91527 
-0.20275 3.00900 0.90803 
-0.17762 3.00900 0.90803 
-0.05159 2.98600 0.90109 
-0.01441 3.03300 0.91527 
0.07424 3.03300 0.91527 
0.47205 2.98600 0.90109 
0.86349 4.06600 1.22700 
1.26882 5.53900 1.67151 
1.64790 6.70500 2.02338 
1.70389 6.70500 2.02338 
1.87186 6.70500 2.02338 
2.01184 6.70500 2.02338 
2.14243 6.59000 1.98867 
2.22498 6.59000 1.98867 
2.33504 6.59000 1.98867 
2.57176 6.70500 2.02338 
2.55516 6.59000 1.98867 
2.53878 6.47800 1.95487 
2.52306 6.37000 1.92228 
2.50803 6.26600 1.89090 
2.33267 5.53900 1.67151 
2.28945 5.38300 1.62444 
2.25250 5.09600 1.53783 
2.37046 4.90000 1.47868 
2.47275 4.90000 1.47868 
2.65677 5.09600 1.53783 
2.81162 5.30800 1.60180 
3.14102 5.70500 1.72161 
3.25905 5.62100 1.69626 
2.70150 2.85200 0.86065 
2.67772 2.79000 0.84194 
2.66982 2.71100 0.81810 
2.72642 2.71100 0.81810 
-1.54165 1.64000 0.48806 
-1.51461 1.63300 0.48597 
-1.50780 1.63300 0.48597 
-1.37442 1.77800 0.52913 
-1.36129 1.82000 0.54162 
-1.33640 1.95000 0.58031 
-1.31689 2.03300 0.60501 
-1.27988 2.11200 0.62852 
-1.27768 2.12300 0.63180 
-1.26328 2.15900 0.64251 
-1.25376 2.22200 0.66126 
-1.24123 2.30200 0.68507 
-1.23911 2.31600 0.68923 
-1.21067 2.37400 0.70649 
-1.17394 2.60000 0.77375 
-1.11623 2.81000 0.83624 
-1.02664 3.10700 0.92463 
-1.02215 3.13300 0.93237 
-0.90797 3.23900 0.96391 
-0.64017 3.05800 0.91005 
-0.57523 2.98600 0.88862 
-0.07711 3.00900 0.89547 
-0.00174 3.03300 0.90261 
0.04931 3.05800 0.91005 
0.08762 3.05800 0.91005 
0.16036 2.98600 0.88862 
0.23155 2.94000 0.87493 
0.25610 2.94000 0.87493 
0.39419 2.96300 0.88178 
0.42218 2.98600 0.88862 
0.43465 2.98600 0.88862 
0.44712 2.98600 0.88862 
0.72202 3.53900 1.05319 
1.06784 4.83800 1.43977 
1.28760 5.62100 1.67279 
1.39294 5.97200 1.77724 
1.48768 6.26600 1.86474 
1.56506 6.47800 1.92783 
1.87687 6.82500 2.03109 
1.98385 6.70500 1.99538 
1.97733 6.59000 1.96116 
2.05988 6.59000 1.96116 
2.16011 6.47800 1.92783 
2.57176 6.70500 1.99538 
2.55516 6.59000 1.96116 
2.32787 5.02900 1.49661 
2.91494 5.46000 1.62487 
3.23672 5.79100 1.72338 
3.30599 5.62100 1.67279 
2.69234 3.05800 0.91005 
2.70511 3.05800 0.91005 
2.76895 3.05800 0.91005 
2.73242 2.96300 0.88178 
2.66607 2.79000 0.83029 
-1.54135 1.64700 0.48326 
-1.47906 1.66200 0.48766 
-1.47212 1.66200 0.48766 
-1.46352 1.67600 0.49177 
-1.44105 1.69900 0.49852 
-1.42686 1.69900 0.49852 
-1.41083 1.71400 0.50292 
-1.38185 1.77800 0.52170 
-1.36969 1.81100 0.53138 
-1.33765 1.94000 0.56924 
-1.33507 1.96000 0.57510 
-1.29682 2.05500 0.60298 
-1.25376 2.22200 0.65198 
-1.25744 2.26200 0.66372 
-1.25517 2.27500 0.66753 
-1.24567 2.27500 0.66753 
-1.19585 2.40400 0.70538 
-1.18805 2.45000 0.71888 
-1.17955 2.56500 0.75262 
-1.13350 2.71100 0.79546 
-1.11993 2.79000 0.81864 
-1.10909 2.85200 0.83684 
-1.07803 2.96300 0.86940 
-1.06146 2.98600 0.87615 
-1.05708 3.00900 0.88290 
-1.01616 3.23900 0.95039 
-0.95118 3.29500 0.96682 
-0.89615 3.29500 0.96682 
-0.83397 3.26700 0.95860 
-0.75921 3.23900 0.95039 
-0.66340 3.10700 0.91166 
-0.64519 3.08200 0.90432 
-0.60479 3.00900 0.88290 
-0.51726 2.94000 0.86266 
-0.50499 2.94000 0.86266 
-0.48419 2.96300 0.86940 
-0.46302 2.98600 0.87615 
-0.41315 2.98600 0.87615 
-0.36608 3.00900 0.88290 
-0.17904 3.03300 0.88994 
-0.12838 3.03300 0.88994 
-0.06506 3.03300 0.88994 
0.01101 3.05800 0.89728 
0.02378 3.05800 0.89728 
0.13756 3.03300 0.88994 
0.18530 2.98600 0.87615 
0.25610 2.94000 0.86266 
0.29522 2.96300 0.86940 
0.33233 2.96300 0.86940 
0.47569 3.00900 0.88290 
0.87283 4.11000 1.20596 
1.41510 6.06700 1.78018 
1.70589 6.82500 2.00260 
1.87687 6.82500 2.00260 
1.89986 6.70500 1.96739 
2.21421 6.47800 1.90078 
2.37579 6.70500 1.96739 
2.52306 6.37000 1.86909 
2.50803 6.26600 1.83857 
2.47904 6.06700 1.78018 
2.35688 5.38300 1.57948 
2.37129 4.77800 1.40196 
2.62184 5.02900 1.47561 
3.09337 5.70500 1.67396 
3.28647 5.88000 1.72531 
3.36012 5.88000 1.72531 
3.25690 5.46000 1.60208 
2.73065 3.05800 0.89728 
2.75618 3.05800 0.89728 
2.66979 2.83100 0.83067 
2.65442 2.79000 0.81864 
2.65853 2.77000 0.81277 
2.66230 2.75000 0.80691 
-1.56927 1.66200 0.48073 
-1.47135 1.66900 0.48275 
-1.44132 1.69100 0.48911 
-1.44105 1.69900 0.49143 
-1.41022 1.72200 0.49808 
-1.39992 1.74500 0.50473 
-1.39169 1.75300 0.50705 
-1.38224 1.76900 0.51167 
-1.36969 1.81100 0.52382 
-1.34552 1.88300 0.54465 
-1.33640 1.95000 0.56403 
-1.32849 2.01200 0.58196 
-1.31689 2.03300 0.58804 
-1.24378 2.28900 0.66208 
-1.22272 2.35900 0.68233 
-1.18284 2.48200 0.71791 
-1.16818 2.63600 0.76245 
-1.15399 2.65400 0.76766 
-1.14803 2.69200 0.77865 
-1.13679 2.69200 0.77865 
-1.12684 2.75000 0.79542 
-1.11993 2.79000 0.80699 
-1.10164 2.89500 0.83736 
-1.02664 3.10700 0.89868 
-1.03063 3.15900 0.91373 
-0.95955 3.32400 0.96145 
-0.81361 3.29500 0.95306 
-0.74568 3.23900 0.93686 
-0.72605 3.21200 0.92906 
-0.55842 2.96300 0.85703 
-0.46816 2.94000 0.85038 
-0.43808 2.98600 0.86369 
-0.37574 2.98600 0.86369 
-0.36328 2.98600 0.86369 
-0.35081 2.98600 0.86369 
-0.17904 3.03300 0.87728 
-0.14105 3.03300 0.87728 
-0.11572 3.03300 0.87728 
-0.05240 3.03300 0.87728 
-0.00176 3.05800 0.88451 
0.09957 3.03300 0.87728 
0.11223 3.03300 0.87728 
0.13756 3.03300 0.87728 
0.16160 3.00900 0.87034 
0.19776 2.98600 0.86369 
0.35707 2.96300 0.85703 
0.38182 2.96300 0.85703 
0.43800 3.00900 0.87034 
0.49620 3.05800 0.88451 
0.56005 3.05800 0.88451 
0.58199 3.10700 0.89868 
0.87283 4.11000 1.18880 
1.21061 5.38300 1.55701 
1.97078 6.47800 1.87373 
2.24126 6.47800 1.87373 
2.59975 6.70500 1.93939 
2.37893 5.53900 1.60213 
2.43486 5.30800 1.53531 
2.42369 5.23600 1.51449 
2.36066 4.83800 1.39937 
2.34201 4.71900 1.36495 
2.41119 4.77800 1.38201 
2.55459 4.90000 1.41730 
3.28802 5.97200 1.72737 
3.41632 6.06700 1.75485 
3.30599 5.62100 1.62585 
3.28089 5.53900 1.60213 
3.23344 5.38300 1.55701 
3.27704 5.30800 1.53531 
3.32137 5.30800 1.53531 
3.48487 5.46000 1.57928 
2.70511 3.05800 0.88451 
2.65442 2.79000 0.80699 
2.65082 2.75000 0.79542 
2.70731 2.69200 0.77865 
-1.53502 1.65500 0.47179 
-1.50056 1.64000 0.46751 
-1.50009 1.64700 0.46951 
-1.46438 1.66900 0.47578 
-1.44838 1.69100 0.48205 
-1.41022 1.72200 0.49089 
-1.37930 1.79400 0.51141 
-1.36969 1.81100 0.51626 
-1.35649 1.85500 0.52880 
-1.34691 1.87400 0.53422 
-1.34552 1.88300 0.53679 
-1.33507 1.96000 0.55874 
-1.33125 1.99100 0.56757 
-1.27601 2.07700 0.59209 
-1.27260 2.10000 0.59865 
-1.26717 2.19700 0.62630 
-1.23911 2.31600 0.66022 
-1.21067 2.37400 0.67676 
-1.19045 2.43400 0.69386 
-1.18805 2.45000 0.69842 
-1.18284 2.48200 0.70754 
-1.18003 2.49800 0.71210 
-1.15109 2.67300 0.76199 
-1.13993 2.67300 0.76199 
-1.13004 2.73000 0.77824 
-1.10164 2.89500 0.82528 
-1.07393 2.98600 0.85122 
-1.05708 3.00900 0.85777 
-1.05284 3.03300 0.86462 
-1.04018 3.03300 0.86462 
-1.00993 3.35300 0.95584 
-0.99593 3.35300 0.95584 
-0.84852 3.32400 0.94757 
-0.77941 3.26700 0.93132 
-0.59222 3.00900 0.85777 
-0.50499 2.94000 0.83811 
-0.49271 2.94000 0.83811 
-0.33574 2.96300 0.84466 
-0.12944 3.05800 0.87174 
-0.10390 3.05800 0.87174 
-0.05283 3.05800 0.87174 
0.08690 3.03300 0.86462 
0.11223 3.03300 0.86462 
0.13756 3.03300 0.86462 
0.14903 3.00900 0.85777 
0.16160 3.00900 0.85777 
0.31996 2.96300 0.84466 
0.40971 2.98600 0.85122 
0.54280 3.03300 0.86462 
0.58199 3.10700 0.88571 
1.41510 6.06700 1.72952 
1.67589 6.70500 1.91139 
1.81587 6.70500 1.91139 
1.84387 6.70500 1.91139 
1.89479 6.59000 1.87861 
1.96452 6.37000 1.81590 
2.41462 5.79100 1.65084 
2.50802 5.62100 1.60238 
2.87383 5.38300 1.53453 
3.43763 5.97200 1.70244 
3.40922 5.88000 1.67621 
3.33158 5.70500 1.62632 
3.55842 5.53900 1.57900 
2.65853 2.77000 0.78964 
2.66573 2.73000 0.77824 
2.66982 2.71100 0.77282 
2.73412 2.73000 0.77824 
2.74552 2.73000 0.77824 
-1.56233 1.66200 0.46685 
-1.55539 1.66200 0.46685 
-1.54845 1.66200 0.46685 
-1.44838 1.69100 0.47499 
-1.44105 1.69900 0.47724 
-1.42514 1.71400 0.48145 
-1.41741 1.72200 0.48370 
-1.40800 1.73700 0.48791 
-1.38927 1.77800 0.49943 
-1.36969 1.81100 0.50870 
-1.33765 1.94000 0.54493 
-1.28987 2.04400 0.57415 
-1.27601 2.07700 0.58342 
-1.26328 2.15900 0.60645 
-1.25084 2.30200 0.64662 
-1.22767 2.33100 0.65476 
-1.22058 2.37400 0.66684 
-1.18237 2.54800 0.71572 
-1.18479 2.60000 0.73033 
-1.17113 2.61800 0.73538 
-1.16818 2.63600 0.74044 
-1.15399 2.65400 0.74549 
-1.13350 2.71100 0.76150 
-1.05708 3.00900 0.84521 
-1.02664 3.10700 0.87274 
-1.02495 3.26700 0.91768 
-0.96793 3.35300 0.94184 
-0.84852 3.32400 0.93369 
-0.83464 3.32400 0.93369 
-0.70665 3.18500 0.89465 
-0.66895 3.13300 0.88004 
-0.64519 3.08200 0.86572 
-0.62740 3.05800 0.85898 
-0.60961 3.03300 0.85195 
-0.53368 2.96300 0.83229 
-0.48044 2.94000 0.82583 
-0.45945 2.96300 0.83229 
-0.44708 2.96300 0.83229 
-0.36996 2.94000 0.82583 
-0.32086 2.94000 0.82583 
-0.22613 2.98600 0.83875 
-0.19170 3.03300 0.85195 
-0.12944 3.05800 0.85898 
0.03655 3.05800 0.85898 
0.07424 3.03300 0.85195 
0.08690 3.03300 0.85195 
0.56005 3.05800 0.85898 
1.41510 6.06700 1.70419 
1.83976 6.59000 1.85110 
1.95861 6.26600 1.76009 
2.39007 6.59000 1.85110 
2.42640 5.70500 1.60250 
2.48716 5.79100 1.62666 
2.55970 5.79100 1.62666 
2.36987 5.02900 1.41262 
2.46023 4.71900 1.32554 
2.62941 4.96400 1.39436 
3.44576 6.16500 1.73171 
3.38180 5.79100 1.62666 
3.21055 5.30800 1.49099 
3.61110 5.62100 1.57891 
3.65804 5.62100 1.57891 
2.75208 3.08200 0.86572 
2.71121 2.94000 0.82583 
2.65082 2.75000 0.77246 
-1.56891 1.66900 0.46184 
-1.56194 1.66900 0.46184 
-1.52811 1.65500 0.45797 
-1.48634 1.64700 0.45576 
-1.41596 1.72900 0.47845 
-1.40874 1.72900 0.47845 
-1.40720 1.74500 0.48287 
-1.39901 1.75300 0.48509 
-1.36969 1.81100 0.50114 
-1.34405 1.89200 0.52355 
-1.33527 1.90200 0.52632 
-1.33881 1.93000 0.53407 
-1.33507 1.96000 0.54237 
-1.30840 2.03300 0.56257 
-1.29841 2.04400 0.56561 
-1.27601 2.07700 0.57475 
-1.24878 2.31600 0.64088 
-1.19585 2.40400 0.66523 
-1.18805 2.45000 0.67796 
-1.18551 2.46600 0.68239 
-1.18806 2.51500 0.69595 
-1.18505 2.53100 0.70038 
-1.16818 2.63600 0.72943 
-1.15109 2.67300 0.73967 
-1.09421 2.94000 0.81355 
-1.07393 2.98600 0.82628 
-1.01507 3.32400 0.91981 
-0.73947 3.21200 0.88882 
-0.60961 3.03300 0.83929 
-0.57966 3.00900 0.83265 
-0.36996 2.94000 0.81355 
-0.32086 2.94000 0.81355 
-0.30858 2.94000 0.81355 
-0.22613 2.98600 0.82628 
-0.14221 3.05800 0.84621 
-0.11667 3.05800 0.84621 
-0.01453 3.05800 0.84621 
0.11223 3.03300 0.83929 
0.12490 3.03300 0.83929 
0.22270 2.98600 0.82628 
0.30997 2.98600 0.82628 
0.36944 2.96300 0.81992 
0.43800 3.00900 0.83265 
0.60990 3.18500 0.88135 
0.89195 4.20000 1.16222 
1.34693 5.88000 1.62711 
1.59212 6.59000 1.82358 
1.70389 6.70500 1.85540 
1.75988 6.70500 1.85540 
1.90130 6.16500 1.70597 
2.46986 6.37000 1.76270 
2.45371 6.06700 1.67886 
2.41462 5.79100 1.60248 
2.46298 5.79100 1.60248 
2.55496 5.62100 1.55544 
2.31144 4.77800 1.32216 
2.26938 4.49700 1.24441 
3.50221 6.26600 1.73392 
3.36830 5.38300 1.48958 
2.75208 3.08200 0.85285 
2.68634 2.87400 0.79529 
2.67009 2.77000 0.76651 
2.76262 2.77000 0.76651 
2.77419 2.77000 0.76651 
-1.56891 1.66900 0.45488 
-1.53502 1.65500 0.45106 
-1.47974 1.65500 0.45106 
-1.47212 1.66200 0.45297 
-1.43986 1.70600 0.46496 
-1.43945 1.71400 0.46714 
-1.38185 1.77800 0.48458 
-1.36969 1.81100 0.49358 
-1.34751 1.86400 0.50802 
-1.30976 2.02200 0.55108 
-1.26707 2.13500 0.58188 
-1.26843 2.24800 0.61268 
-1.26688 2.26200 0.61649 
-1.23504 2.34500 0.63911 
-1.21067 2.37400 0.64702 
-1.20331 2.41900 0.65928 
-1.19321 2.41900 0.65928 
-1.18284 2.48200 0.67645 
-1.18806 2.51500 0.68545 
-1.16507 2.65400 0.72333 
-1.12796 2.81000 0.76585 
-1.07803 2.96300 0.80755 
-1.04451 3.00900 0.82008 
-1.01507 3.32400 0.90594 
-0.93393 3.38200 0.92174 
-0.75921 3.23900 0.88277 
-0.51289 2.98600 0.81382 
-0.50042 2.98600 0.81382 
-0.47549 2.98600 0.81382 
-0.39759 2.96300 0.80755 
-0.28403 2.94000 0.80128 
-0.22613 2.98600 0.81382 
-0.14221 3.05800 0.83344 
-0.09114 3.05800 0.83344 
0.04852 3.00900 0.82008 
0.18673 3.00900 0.82008 
0.38182 2.96300 0.80755 
0.47948 3.03300 0.82662 
0.49215 3.03300 0.82662 
0.51748 3.03300 0.82662 
1.11000 5.02900 1.37062 
1.81224 6.59000 1.79606 
1.79190 5.97200 1.62763 
1.61417 5.09600 1.38888 
2.25105 6.06700 1.65352 
2.48469 6.47800 1.76554 
2.42718 5.88000 1.60256 
2.41239 5.16500 1.40769 
2.22408 4.44400 1.21118 
2.27975 4.44400 1.21118 
2.37212 4.55000 1.24007 
2.56267 4.83800 1.31857 
3.16418 5.79100 1.57830 
3.40922 5.88000 1.60256 
3.21055 5.30800 1.44666 
3.43928 5.46000 1.48809 
2.95328 3.53900 0.96453 
2.77145 3.13300 0.85388 
2.74971 3.00900 0.82008 
2.71121 2.94000 0.80128 
2.68937 2.79000 0.76040 
2.72792 2.77000 0.75495 
-1.61839 1.69900 0.45596 
-1.59707 1.68400 0.45193 
-1.46592 1.65500 0.44415 
-1.46518 1.66200 0.44603 
-1.43945 1.71400 0.45998 
-1.42251 1.73700 0.46616 
-1.36129 1.82000 0.48843 
-1.36039 1.82900 0.49085 
-1.33216 1.98000 0.53137 
-1.30976 2.02200 0.54264 
-1.29991 2.03300 0.54559 
-1.24878 2.31600 0.62154 
-1.24713 2.33100 0.62557 
-1.20834 2.38900 0.64113 
-1.13004 2.73000 0.73265 
-1.13504 2.77000 0.74338 
-1.10909 2.85200 0.76539 
-1.11373 2.89500 0.77693 
-1.11039 2.91800 0.78310 
-1.09421 2.94000 0.78900 
-1.09040 2.96300 0.79518 
-1.07393 2.98600 0.80135 
-1.05284 3.03300 0.81396 
-1.01130 3.26700 0.87676 
-0.93993 3.35300 0.89984 
-0.88393 3.35300 0.89984 
-0.86240 3.32400 0.89206 
-0.80669 3.26700 0.87676 
-0.73947 3.21200 0.86200 
-0.65043 3.10700 0.83382 
-0.47915 3.00900 0.80752 
-0.40068 2.98600 0.80135 
-0.38821 2.98600 0.80135 
-0.29630 2.94000 0.78900 
-0.21367 2.98600 0.80135 
-0.09114 3.05800 0.82067 
-0.06560 3.05800 0.82067 
0.14903 3.00900 0.80752 
0.17555 3.03300 0.81396 
0.24954 3.00900 0.80752 
0.29751 2.98600 0.80135 
0.32244 2.98600 0.80135 
0.34738 2.98600 0.80135 
0.40971 2.98600 0.80135 
0.43465 2.98600 0.80135 
0.60492 3.15900 0.84778 
0.74262 3.64000 0.97686 
0.90193 4.24700 1.13976 
1.12478 5.09600 1.36761 
1.24569 5.53900 1.48649 
1.34693 5.88000 1.57801 
1.43796 6.16500 1.65449 
1.29639 3.74700 1.00558 
1.42547 4.02300 1.07965 
2.43880 5.79100 1.55412 
2.38016 5.09600 1.36761 
2.20980 4.34300 1.16552 
2.37212 4.55000 1.22108 
3.44576 6.16500 1.65449 
3.52298 6.16500 1.65449 
3.32335 5.38300 1.44463 
2.98082 3.57200 0.95861 
2.76895 3.05800 0.82067 
2.72348 2.94000 0.78900 
2.68937 2.79000 0.74875 
2.84710 2.83100 0.75975 
-1.59707 1.68400 0.44490 
-1.56891 1.66900 0.44094 
-1.52072 1.64700 0.43513 
-1.46352 1.67600 0.44279 
-1.36889 1.82000 0.48083 
-1.36803 1.82900 0.48321 
-1.36039 1.82900 0.48321 
-1.34691 1.87400 0.49510 
-1.34552 1.88300 0.49748 
-1.33881 1.93000 0.50989 
-1.28987 2.04400 0.54001 
-1.26734 2.07700 0.54873 
-1.26717 2.19700 0.58043 
-1.25687 2.33100 0.61583 
-1.23256 2.35900 0.62323 
-1.19045 2.43400 0.64305 
-1.18237 2.54800 0.67316 
-1.16818 2.63600 0.69641 
-1.11373 2.89500 0.76484 
-1.00264 3.23900 0.85572 
-0.99246 3.29500 0.87052 
-0.96793 3.35300 0.88584 
-0.83397 3.26700 0.86312 
-0.82033 3.26700 0.86312 
-0.66340 3.10700 0.82085 
-0.53363 3.03300 0.80130 
-0.52096 3.03300 0.80130 
-0.48297 3.03300 0.80130 
-0.47031 3.03300 0.80130 
-0.42889 3.00900 0.79496 
-0.41633 3.00900 0.79496 
-0.38821 2.98600 0.78888 
-0.27600 2.98600 0.78888 
-0.21531 3.00900 0.79496 
-0.16775 3.05800 0.80790 
-0.13046 3.08200 0.81424 
-0.06560 3.05800 0.80790 
0.01083 3.00900 0.79496 
0.17555 3.03300 0.80130 
0.38182 2.96300 0.78280 
0.45959 2.98600 0.78888 
0.55107 3.00900 0.79496 
0.91191 4.29400 1.13445 
1.26413 5.62100 1.48503 
1.78144 6.47800 1.71144 
1.77834 6.37000 1.68291 
1.73759 5.79100 1.52994 
1.63700 5.30800 1.40234 
1.49349 4.77800 1.26231 
1.41446 3.90000 1.03035 
1.86253 4.96400 1.31145 
2.01376 5.30800 1.40234 
2.36541 5.97200 1.57776 
2.47628 5.88000 1.55346 
2.63970 5.97200 1.57776 
2.21591 4.66100 1.23140 
3.34809 5.46000 1.44249 
3.37088 5.46000 1.44249 
3.54069 5.62100 1.48503 
3.15751 3.86100 1.02005 
3.05143 3.67500 0.97091 
2.87349 3.29500 0.87052 
2.71529 2.91800 0.77092 
2.73212 2.81000 0.74238 
2.74385 2.81000 0.74238 
2.79982 2.83100 0.74793 
2.82346 2.83100 0.74793 
2.88013 2.85200 0.75348 
-1.58949 1.67600 0.43579 
-1.48002 1.64000 0.42643 
-1.46592 1.65500 0.43033 
-1.44814 1.69900 0.44177 
-1.43986 1.70600 0.44359 
-1.41449 1.74500 0.45373 
-1.39701 1.76900 0.45997 
-1.37869 1.80300 0.46881 
-1.34059 1.92100 0.49949 
-1.33881 1.93000 0.50183 
-1.34043 1.98000 0.51483 
-1.30694 2.04400 0.53148 
-1.27966 2.05500 0.53434 
-1.27601 2.07700 0.54006 
-1.26707 2.13500 0.55514 
-1.27043 2.23500 0.58114 
-1.27006 2.30200 0.59856 
-1.26812 2.31600 0.60220 
-1.25687 2.33100 0.60610 
-1.23256 2.35900 0.61338 
-1.21341 2.41900 0.62898 
-1.20331 2.41900 0.62898 
-1.20061 2.43400 0.63288 
-1.18806 2.51500 0.65394 
-1.14482 2.71100 0.70491 
-1.11039 2.91800 0.75873 
-1.10649 2.94000 0.76445 
-1.09421 2.94000 0.76445 
-1.07393 2.98600 0.77641 
-1.06146 2.98600 0.77641 
-0.98911 3.23900 0.84220 
-0.96494 3.29500 0.85676 
-0.87490 3.26700 0.84948 
-0.66340 3.10700 0.80787 
-0.52526 3.05800 0.79513 
-0.51249 3.05800 0.79513 
-0.43588 3.05800 0.79513 
-0.39432 3.03300 0.78863 
-0.36608 3.00900 0.78239 
-0.34095 3.00900 0.78239 
-0.16775 3.05800 0.79513 
-0.10472 3.08200 0.80137 
-0.07837 3.05800 0.79513 
-0.03974 3.03300 0.78863 
0.07309 2.98600 0.77641 
0.15022 3.03300 0.78863 
0.17555 3.03300 0.78863 
0.31236 3.00900 0.78239 
0.41893 2.96300 0.77043 
0.48452 2.98600 0.77641 
0.50946 2.98600 0.77641 
0.53439 2.98600 0.77641 
0.57281 3.05800 0.79513 
1.14001 5.16500 1.34299 
1.67739 6.82500 1.77462 
1.77259 6.16500 1.60301 
1.73759 5.79100 1.50576 
0.96292 2.85200 0.74157 
0.96765 2.83100 0.73611 
0.99864 2.85200 0.74157 
1.47708 3.98100 1.03513 
1.81269 4.77800 1.24236 
2.34048 5.97200 1.55283 
2.37808 5.88000 1.52890 
2.47628 5.88000 1.52890 
2.61477 5.97200 1.55283 
2.59904 5.88000 1.52890 
2.44678 5.38300 1.39968 
2.14353 4.39300 1.14226 
2.32571 4.49700 1.16930 
2.59551 4.90000 1.27409 
3.00337 5.53900 1.44024 
3.23737 5.88000 1.52890 
3.26192 5.88000 1.52890 
3.47150 6.16500 1.60301 
3.33158 5.70500 1.48340 
3.63457 5.62100 1.46156 
3.05913 3.90000 1.01407 
3.15631 3.94000 1.02447 
3.18921 3.94000 1.02447 
3.11034 3.78400 0.98391 
2.98284 3.53900 0.92020 
2.93364 3.41300 0.88744 
2.85475 3.21200 0.83518 
2.83402 3.15900 0.82140 
2.80355 3.08200 0.80137 
2.71806 2.89500 0.75275 
2.73723 2.85200 0.74157 
2.72889 2.83100 0.73611 
2.88729 2.89500 0.75275 
-1.54193 1.65500 0.42342 
-1.42561 1.70600 0.43647 
-1.42251 1.73700 0.44440 
-1.39701 1.76900 0.45258 
-1.34552 1.88300 0.48175 
-1.34575 1.94000 0.49633 
-1.33689 2.01200 0.51475 
-1.32538 2.03300 0.52013 
-1.24241 2.35900 0.60353 
-1.21593 2.40400 0.61504 
-1.20061 2.43400 0.62272 
-1.18284 2.48200 0.63500 
-1.17756 2.51500 0.64344 
-1.17394 2.60000 0.66519 
-1.16225 2.67300 0.68387 
-1.15109 2.67300 0.68387 
-1.12796 2.81000 0.71892 
-1.10649 2.94000 0.75218 
-1.03599 3.05800 0.78237 
-1.01367 3.10700 0.79490 
-0.99106 3.15900 0.80821 
-0.83334 3.21200 0.82177 
-0.63233 3.08200 0.78851 
-0.61946 3.08200 0.78851 
-0.59372 3.08200 0.78851 
-0.58085 3.08200 0.78851 
-0.57259 3.10700 0.79490 
-0.54665 3.10700 0.79490 
-0.45217 3.08200 0.78851 
-0.39757 3.05800 0.78237 
-0.33100 3.03300 0.77597 
-0.27813 3.00900 0.76983 
-0.26557 3.00900 0.76983 
-0.15498 3.05800 0.78237 
-0.10472 3.08200 0.78851 
-0.05283 3.05800 0.78237 
0.01083 3.00900 0.76983 
0.04815 2.98600 0.76394 
0.09802 2.98600 0.76394 
0.11049 2.98600 0.76394 
0.25153 3.03300 0.77597 
0.27686 3.03300 0.77597 
0.29980 3.00900 0.76983 
0.34738 2.98600 0.76394 
0.38182 2.96300 0.75806 
0.48079 2.96300 0.75806 
0.50553 2.96300 0.75806 
0.51790 2.96300 0.75806 
1.02187 4.71900 1.20732 
1.75439 6.47800 1.65735 
1.74930 6.26600 1.60311 
1.10071 3.47500 0.88905 
0.97191 2.71100 0.69359 
1.28934 3.47500 0.88905 
2.30442 5.88000 1.50435 
2.57449 5.88000 1.50435 
2.16841 4.44400 1.13696 
2.19167 4.34300 1.11112 
2.46023 4.71900 1.20732 
3.44165 6.06700 1.55220 
3.32946 5.62100 1.43809 
3.30249 5.46000 1.39690 
3.41966 5.53900 1.41711 
3.46591 5.53900 1.41711 
3.61110 5.62100 1.43809 
3.08842 4.02300 1.02925 
3.05760 3.94000 1.00802 
3.04285 3.90000 0.99778 
3.15631 3.94000 1.00802 
3.18921 3.94000 1.00802 
3.05143 3.67500 0.94022 
2.92407 3.35300 0.85784 
2.90100 3.29500 0.84300 
2.76609 2.98600 0.76394 
2.80634 2.87400 0.73529 
2.86311 2.89500 0.74066 
-1.52111 1.64000 0.41273 
-1.49416 1.63300 0.41097 
-1.44953 1.67600 0.42179 
-1.42561 1.70600 0.42934 
-1.41449 1.74500 0.43916 
-1.39669 1.77800 0.44746 
-1.37566 1.82900 0.46030 
-1.35529 1.86400 0.46911 
-1.35338 1.88300 0.47389 
-1.34869 1.98000 0.49830 
-1.34529 2.01200 0.50635 
-1.32665 2.02200 0.50887 
-1.28650 2.06600 0.51994 
-1.28137 2.10000 0.52850 
-1.26328 2.15900 0.54335 
-1.24040 2.37400 0.59746 
-1.23049 2.37400 0.59746 
-1.22829 2.38900 0.60123 
-1.17659 2.58200 0.64980 
-1.13832 2.75000 0.69208 
-1.13969 2.81000 0.70718 
-1.01838 3.08200 0.77564 
-1.00069 3.10700 0.78193 
-0.99106 3.15900 0.79502 
-0.90040 3.21200 0.80835 
-0.42989 3.10700 0.78193 
-0.41356 3.08200 0.77564 
-0.33100 3.03300 0.76331 
-0.31834 3.03300 0.76331 
-0.26769 3.03300 0.76331 
-0.19170 3.03300 0.76331 
-0.16775 3.05800 0.76960 
-0.10472 3.08200 0.77564 
-0.07898 3.08200 0.77564 
0.03569 2.98600 0.75148 
0.18821 3.03300 0.76331 
0.25153 3.03300 0.76331 
0.26420 3.03300 0.76331 
0.35984 2.98600 0.75148 
0.43130 2.96300 0.74569 
0.46842 2.96300 0.74569 
1.67739 6.82500 1.71763 
1.73188 6.70500 1.68743 
1.72111 6.16500 1.55153 
1.02353 2.79000 0.70215 
1.29184 3.44300 0.86649 
2.37808 5.88000 1.47980 
2.51134 5.79100 1.45740 
2.37997 5.23600 1.31773 
2.33761 5.09600 1.28250 
3.00337 5.53900 1.39398 
3.09477 5.62100 1.41462 
3.28647 5.88000 1.47980 
3.37640 5.62100 1.41462 
3.46591 5.53900 1.39398 
3.51217 5.53900 1.39398 
3.53529 5.53900 1.39398 
3.15430 4.15400 1.04543 
3.04285 3.90000 0.98150 
2.77484 3.00900 0.75727 
2.73015 2.89500 0.72858 
2.74223 2.89500 0.72858 
2.75432 2.89500 0.72858 
2.75834 2.87400 0.72329 
2.86149 2.91800 0.73436 
-1.57621 1.66200 0.41133 
-1.52111 1.64000 0.40589 
-1.51426 1.64000 0.40589 
-1.50098 1.63300 0.40415 
-1.49416 1.63300 0.40415 
-1.47283 1.65500 0.40960 
-1.45653 1.67600 0.41480 
-1.42514 1.71400 0.42420 
-1.42251 1.73700 0.42989 
-1.40540 1.76100 0.43583 
-1.36533 1.84600 0.45687 
-1.35529 1.86400 0.46132 
-1.35338 1.88300 0.46603 
-1.35268 1.95000 0.48261 
-1.35144 1.96000 0.48508 
-1.35011 1.97000 0.48756 
-1.31689 2.03300 0.50315 
-1.31548 2.04400 0.50587 
-1.30694 2.04400 0.50587 
-1.28468 2.07700 0.51404 
-1.28137 2.10000 0.51973 
-1.27988 2.11200 0.52270 
-1.27419 2.14700 0.53136 
-1.26523 2.14700 0.53136 
-1.27231 2.22200 0.54993 
-1.21832 2.38900 0.59126 
-1.17756 2.51500 0.62244 
-1.14803 2.69200 0.66625 
-1.11765 2.87400 0.71129 
-1.11877 2.94000 0.72763 
-1.10277 2.96300 0.73332 
-1.08640 2.98600 0.73901 
-1.05284 3.03300 0.75064 
-0.99599 3.13300 0.77539 
-0.93273 3.18500 0.78826 
-0.83278 3.15900 0.78183 
-0.69667 3.08200 0.76277 
-0.67848 3.05800 0.75683 
-0.45965 3.13300 0.77539 
-0.37496 3.08200 0.76277 
-0.28035 3.03300 0.75064 
-0.15498 3.05800 0.75683 
0.02340 3.00900 0.74470 
0.06062 2.98600 0.73901 
0.41893 2.96300 0.73332 
1.28302 5.70500 1.41194 
1.61990 6.70500 1.65943 
1.69537 6.16500 1.52579 
0.82528 2.30200 0.56973 
0.94722 2.58200 0.63902 
1.54305 4.02300 0.99566 
2.32897 5.88000 1.45525 
2.44022 5.97200 1.47802 
2.46298 5.79100 1.43322 
2.48716 5.79100 1.43322 
2.28862 4.90000 1.21271 
2.62184 5.02900 1.24464 
3.39368 5.46000 1.35130 
3.05618 3.98100 0.98526 
3.01028 3.90000 0.96522 
2.98199 3.82200 0.94591 
3.09302 3.86100 0.95556 
3.02425 3.60600 0.89245 
2.95791 3.47500 0.86003 
2.92407 3.35300 0.82984 
2.93807 3.35300 0.82984 
2.78431 3.03300 0.75064 
2.76402 2.91800 0.72218 
2.82494 2.91800 0.72218 
2.97804 2.98600 0.73901 
-1.57621 1.66200 0.40439 
-1.54135 1.64700 0.40074 
-1.51426 1.64000 0.39904 
-1.47283 1.65500 0.40269 
-1.45653 1.67600 0.40780 
-1.42460 1.72200 0.41899 
-1.38409 1.82000 0.44284 
-1.37303 1.84600 0.44916 
-1.34629 2.00100 0.48688 
-1.29335 2.07700 0.50537 
-1.00907 3.13300 0.76231 
-0.97262 3.18500 0.77496 
-0.91943 3.18500 0.77496 
-0.81285 3.13300 0.76231 
-0.79313 3.10700 0.75598 
-0.66026 3.03300 0.73798 
-0.65294 3.05800 0.74406 
-0.59854 3.10700 0.75598 
-0.50303 3.15900 0.76864 
-0.43709 3.15900 0.76864 
-0.13046 3.08200 0.74990 
-0.05325 3.08200 0.74990 
-0.01441 3.03300 0.73798 
0.02340 3.00900 0.73214 
0.18821 3.03300 0.73798 
0.36944 2.96300 0.72095 
0.38182 2.96300 0.72095 
0.42795 2.94000 0.71535 
0.48933 2.94000 0.71535 
0.51790 2.96300 0.72095 
0.53439 2.98600 0.72654 
1.53801 6.47800 1.57620 
1.59212 6.59000 1.60345 
1.69698 6.26600 1.52462 
0.73083 2.24800 0.54697 
0.73660 2.20900 0.53749 
0.75147 2.17200 0.52848 
0.80592 2.24800 0.54697 
1.74364 4.49700 1.09419 
2.08025 5.30800 1.29152 
2.32897 5.88000 1.43070 
2.49786 5.70500 1.38812 
2.30687 5.02900 1.22364 
2.23537 4.66100 1.13410 
2.30466 4.60500 1.12047 
2.60085 5.02900 1.22364 
3.36012 5.88000 1.43070 
3.38467 5.88000 1.43070 
3.38180 5.79100 1.40904 
3.43016 5.79100 1.40904 
3.36830 5.38300 1.30977 
3.34190 5.23600 1.27400 
3.31815 5.16500 1.25673 
3.33965 4.49700 1.09419 
2.98199 3.82200 0.92995 
2.98394 3.78400 0.92071 
3.15683 3.90000 0.94893 
3.01065 3.57200 0.86913 
2.93524 3.38200 0.82290 
2.91266 3.32400 0.80878 
2.91476 3.29500 0.80173 
2.88157 3.21200 0.78153 
2.83686 3.13300 0.76231 
2.82629 3.10700 0.75598 
2.78431 3.03300 0.73798 
2.77484 3.00900 0.73214 
2.74803 2.94000 0.71535 
2.73965 2.91800 0.71000 
2.91571 2.98600 0.72654 
3.06262 3.05800 0.74406 
-1.45741 1.66900 0.39913 
-1.45653 1.67600 0.40080 
-1.43535 1.68400 0.40271 
-1.42686 1.69900 0.40630 
-1.41849 1.70600 0.40797 
-1.41596 1.72900 0.41347 
-1.39237 1.81100 0.43308 
-1.35962 1.96000 0.46872 
-1.35833 1.97000 0.47111 
-1.34629 2.00100 0.47852 
-1.29682 2.05500 0.49143 
-1.29014 2.10000 0.50220 
-1.28137 2.10000 0.50220 
-1.27768 2.12300 0.50770 
-1.27419 2.14700 0.51344 
-1.26182 2.17200 0.51941 
-1.27779 2.31600 0.55385 
-1.26211 2.35900 0.56413 
-1.18551 2.46600 0.58972 
-1.17448 2.53100 0.60527 
-1.14323 2.79000 0.66720 
-1.12258 2.91800 0.69781 
-0.89134 3.13300 0.74923 
-0.86517 3.13300 0.74923 
-0.75509 3.05800 0.73129 
-0.64017 3.05800 0.73129 
-0.61946 3.08200 0.73703 
-0.59854 3.10700 0.74301 
-0.55579 3.15900 0.75545 
-0.46347 3.15900 0.75545 
-0.42390 3.15900 0.75545 
-0.39424 3.13300 0.74923 
-0.29543 3.05800 0.73129 
-0.28266 3.05800 0.73129 
-0.24236 3.03300 0.72531 
-0.19328 3.05800 0.73129 
-0.16906 3.08200 0.73703 
-0.09260 3.10700 0.74301 
0.21354 3.03300 0.72531 
0.28504 2.98600 0.71407 
0.30997 2.98600 0.71407 
0.41257 2.91800 0.69781 
0.44912 2.91800 0.69781 
0.46130 2.91800 0.69781 
0.50161 2.94000 0.70307 
1.67466 6.59000 1.57594 
1.69855 6.37000 1.52333 
1.64309 6.06700 1.45087 
0.75147 2.17200 0.51941 
1.37007 3.57200 0.85421 
2.25966 5.70500 1.36430 
2.50437 6.06700 1.45087 
2.27986 4.83800 1.15696 
3.33789 5.97200 1.42815 
3.43763 5.97200 1.42815 
3.47852 5.79100 1.38487 
3.45068 5.70500 1.36430 
3.23048 4.96400 1.18710 
3.87243 5.46000 1.30571 
3.67810 5.09600 1.21866 
3.15430 4.15400 0.99339 
3.06178 3.82200 0.91400 
3.11121 3.74700 0.89606 
2.93807 3.35300 0.80184 
2.80057 2.91800 0.69781 
2.97426 3.03300 0.72531 
3.02432 3.05800 0.73129 
3.03708 3.05800 0.73129 
3.07379 3.08200 0.73703 
3.12467 3.10700 0.74301 
-1.49416 1.63300 0.38370 
-1.46438 1.66900 0.39216 
-1.44253 1.67600 0.39380 
-1.44239 1.68400 0.39568 
-1.42832 1.68400 0.39568 
-1.41741 1.72200 0.40461 
-1.36775 1.89200 0.44455 
-1.36553 1.91100 0.44902 
-1.36299 1.93000 0.45348 
-1.33509 2.02200 0.47510 
-1.30540 2.05500 0.48285 
-1.27417 2.27500 0.53455 
-1.27245 2.28900 0.53784 
-1.27779 2.31600 0.54418 
-1.24040 2.37400 0.55781 
-1.22829 2.38900 0.56133 
-1.20331 2.41900 0.56838 
-1.18805 2.45000 0.57567 
-1.14144 2.73000 0.64146 
-1.12457 2.83100 0.66519 
-1.12965 2.87400 0.67529 
-1.07817 3.03300 0.71265 
-1.02664 3.10700 0.73004 
-0.96468 3.15900 0.74226 
-0.75509 3.05800 0.71852 
-0.73625 3.03300 0.71265 
-0.67293 3.03300 0.71265 
-0.63494 3.03300 0.71265 
-0.61463 3.05800 0.71852 
-0.55579 3.15900 0.74226 
-0.28266 3.05800 0.71852 
-0.26989 3.05800 0.71852 
-0.25712 3.05800 0.71852 
-0.21882 3.05800 0.71852 
-0.19328 3.05800 0.71852 
-0.16906 3.08200 0.72416 
-0.13046 3.08200 0.72416 
-0.06665 3.10700 0.73004 
0.04891 3.03300 0.71265 
0.08622 3.00900 0.70701 
0.31996 2.96300 0.69620 
0.36383 2.91800 0.68563 
0.50161 2.94000 0.69080 
0.57281 3.05800 0.71852 
0.92232 4.34300 1.02046 
1.51237 6.37000 1.49673 
1.40139 5.09600 1.19738 
0.91497 2.46600 0.57942 
2.42837 6.06700 1.42554 
2.42518 5.53900 1.30147 
2.27706 4.96400 1.16637 
2.29149 4.77800 1.12267 
2.55885 5.02900 1.18164 
2.74514 5.30800 1.24720 
2.84654 5.46000 1.28291 
3.39099 6.06700 1.42554 
3.41966 5.53900 1.30147 
3.18883 4.90000 1.15133 
3.35677 5.02900 1.18164 
3.46911 5.16500 1.21360 
3.95091 5.70500 1.34048 
3.89523 5.46000 1.28291 
3.67174 5.02900 1.18164 
3.24268 4.29400 1.00894 
3.10445 4.06600 0.95537 
2.99974 3.78400 0.88911 
3.06178 3.82200 0.89804 
3.17312 3.90000 0.91637 
3.15751 3.86100 0.90720 
3.14157 3.82200 0.89804 
3.09682 3.71100 0.87196 
2.80963 3.03300 0.71265 
2.79714 2.94000 0.69080 
-1.45741 1.66900 0.38519 
-1.44953 1.67600 0.38680 
-1.41976 1.69900 0.39211 
-1.41849 1.70600 0.39373 
-1.41741 1.72200 0.39742 
-1.39428 1.79400 0.41404 
-1.39094 1.82900 0.42211 
-1.37351 1.91100 0.44104 
-1.37104 1.93000 0.44542 
-1.36656 1.97000 0.45466 
-1.35369 2.01200 0.46435 
-1.31548 2.04400 0.47173 
-1.25427 2.15900 0.49828 
-1.26487 2.20900 0.50982 
-1.25031 2.37400 0.54790 
-1.21593 2.40400 0.55482 
-1.20061 2.43400 0.56174 
-1.18551 2.46600 0.56913 
-1.14291 2.65400 0.61252 
-1.13679 2.69200 0.62129 
-1.14144 2.73000 0.63006 
-1.12796 2.81000 0.64852 
-1.12258 2.91800 0.67345 
-1.09477 3.00900 0.69445 
-1.06985 3.08200 0.71130 
-1.05259 3.10700 0.71706 
-1.02215 3.13300 0.72307 
-0.99106 3.15900 0.72907 
-0.89691 3.10700 0.71706 
-0.78062 3.05800 0.70576 
-0.61463 3.05800 0.70576 
-0.60659 3.08200 0.71130 
-0.57738 3.13300 0.72307 
-0.53377 3.18500 0.73507 
-0.49388 3.18500 0.73507 
-0.45398 3.18500 0.73507 
-0.41070 3.15900 0.72907 
-0.26989 3.05800 0.70576 
-0.15619 3.08200 0.71130 
-0.14333 3.08200 0.71130 
-0.13151 3.10700 0.71706 
-0.04038 3.08200 0.71130 
0.03625 3.03300 0.69999 
0.08622 3.00900 0.69445 
0.09878 3.00900 0.69445 
0.18821 3.03300 0.69999 
0.22621 3.03300 0.69999 
0.38820 2.91800 0.67345 
0.42475 2.91800 0.67345 
0.43694 2.91800 0.67345 
0.57281 3.05800 0.70576 
0.70724 3.53900 0.81677 
1.26413 5.62100 1.29727 
1.61963 6.59000 1.52091 
0.73660 2.20900 0.50982 
1.00293 2.67300 0.61690 
2.46760 6.16500 1.42282 
2.53419 6.26600 1.44613 
2.30456 5.16500 1.19203 
2.30908 4.90000 1.13087 
2.35000 4.90000 1.13087 
2.41137 4.90000 1.13087 
2.84654 5.46000 1.26011 
3.44165 6.06700 1.40020 
3.46698 6.06700 1.40020 
3.55653 5.88000 1.35705 
3.32137 5.30800 1.22503 
3.53866 5.23600 1.20842 
3.95158 5.53900 1.27835 
3.52838 4.77800 1.10272 
3.02986 3.82200 0.88208 
3.04582 3.82200 0.88208 
3.15751 3.86100 0.89108 
3.01239 3.53900 0.81677 
3.00144 3.47500 0.80200 
2.98818 3.44300 0.79461 
2.95207 3.35300 0.77384 
2.91932 3.23900 0.74753 
2.87359 3.15900 0.72907 
2.80665 2.96300 0.68383 
2.80941 2.94000 0.67852 
2.92560 3.00900 0.69445 
3.02231 3.08200 0.71130 
3.20311 3.18500 0.73507 
-1.54165 1.64000 0.37165 
-1.52143 1.63300 0.37006 
-1.48665 1.65500 0.37505 
-1.45741 1.66900 0.37822 
-1.45653 1.67600 0.37981 
-1.41849 1.70600 0.38660 
-1.41365 1.75300 0.39726 
-1.39375 1.80300 0.40859 
-1.39237 1.81100 0.41040 
-1.36780 1.96000 0.44416 
-1.36450 1.99100 0.45119 
-1.33689 2.01200 0.45595 
-1.26688 2.26200 0.51260 
-1.27633 2.33100 0.52824 
-1.22829 2.38900 0.54138 
-1.17756 2.51500 0.56994 
-1.16020 2.61800 0.59328 
-1.11133 2.98600 0.67667 
-1.07817 3.03300 0.68732 
-1.06985 3.08200 0.69843 
-1.05259 3.10700 0.70409 
-1.03523 3.13300 0.70998 
-0.93058 3.13300 0.70998 
-0.85109 3.08200 0.69843 
-0.79962 3.08200 0.69843 
-0.78062 3.05800 0.69299 
-0.67293 3.03300 0.68732 
-0.64760 3.03300 0.68732 
-0.55579 3.15900 0.71588 
-0.53377 3.18500 0.72177 
-0.42390 3.15900 0.71588 
-0.32348 3.08200 0.69843 
-0.19480 3.08200 0.69843 
-0.15619 3.08200 0.69843 
-0.10557 3.10700 0.70409 
-0.09260 3.10700 0.70409 
-0.06665 3.10700 0.70409 
0.12490 3.03300 0.68732 
0.17555 3.03300 0.68732 
0.20088 3.03300 0.68732 
0.35165 2.91800 0.66126 
0.38514 2.89500 0.65605 
0.42140 2.89500 0.65605 
0.46975 2.89500 0.65605 
0.51388 2.94000 0.66625 
0.60990 3.18500 0.72177 
0.77200 3.78400 0.85751 
1.36800 5.97200 1.35334 
1.48768 6.26600 1.41997 
1.56506 6.47800 1.46801 
1.32703 4.90000 1.11041 
0.73829 2.53100 0.57356 
0.72660 2.23500 0.50648 
0.74650 2.18400 0.49493 
0.75147 2.17200 0.49221 
2.60285 6.37000 1.44354 
2.61268 6.26600 1.41997 
2.35688 5.38300 1.21987 
2.27706 4.96400 1.12492 
2.29778 4.96400 1.12492 
2.31851 4.96400 1.12492 
2.35996 4.96400 1.12492 
2.50783 5.09600 1.15483 
2.60648 5.16500 1.17047 
2.76145 5.38300 1.21987 
2.91086 5.53900 1.25522 
3.36282 5.97200 1.35334 
3.38776 5.97200 1.35334 
3.46698 6.06700 1.37487 
3.60021 6.16500 1.39708 
3.56831 6.06700 1.37487 
3.49832 5.70500 1.29284 
3.20999 5.09600 1.15483 
3.97473 5.70500 1.29284 
3.88524 5.38300 1.21987 
3.33740 4.44400 1.00708 
3.27968 4.34300 0.98419 
3.01028 3.90000 0.88380 
3.08132 3.71100 0.84097 
3.09682 3.71100 0.84097 
3.08212 3.67500 0.83281 
3.06796 3.64000 0.82488 
3.02717 3.53900 0.80199 
3.00144 3.47500 0.78749 
2.94228 3.29500 0.74670 
2.89724 3.18500 0.72177 
2.88919 3.13300 0.70998 
3.24368 3.21200 0.72789 
-1.48665 1.65500 0.36814 
-1.45653 1.67600 0.37281 
-1.42832 1.68400 0.37459 
-1.41798 1.71400 0.38126 
-1.40800 1.73700 0.38638 
-1.40633 1.75300 0.38994 
-1.40540 1.76100 0.39172 
-1.39552 1.78600 0.39728 
-1.39169 1.82000 0.40484 
-1.37267 1.92100 0.42731 
-1.37478 1.97000 0.43821 
-1.28650 2.06600 0.45956 
-1.24824 2.38900 0.53141 
-1.20061 2.43400 0.54142 
-1.19045 2.43400 0.54142 
-1.18551 2.46600 0.54854 
-1.18003 2.49800 0.55565 
-1.16020 2.61800 0.58235 
-1.13993 2.67300 0.59458 
-1.08706 3.05800 0.68022 
-1.06985 3.08200 0.68556 
-1.03523 3.13300 0.69690 
-1.01744 3.15900 0.70269 
-0.89691 3.10700 0.69112 
-0.74232 3.05800 0.68022 
-0.71092 3.03300 0.67466 
-0.61463 3.05800 0.68022 
-0.59854 3.10700 0.69112 
-0.45027 3.15900 0.70269 
-0.43709 3.15900 0.70269 
-0.32348 3.08200 0.68556 
-0.28035 3.03300 0.67466 
-0.26769 3.03300 0.67466 
-0.25712 3.05800 0.68022 
0.20088 3.03300 0.67466 
0.22442 3.00900 0.66932 
0.31510 2.91800 0.64908 
0.32728 2.91800 0.64908 
0.39723 2.89500 0.64396 
0.42140 2.89500 0.64396 
0.55107 3.00900 0.66932 
1.02187 4.71900 1.04969 
1.26413 5.62100 1.25033 
1.48768 6.26600 1.39381 
1.56556 6.37000 1.41694 
1.59216 6.37000 1.41694 
1.56709 6.06700 1.34954 
0.69942 2.33100 0.51851 
0.70459 2.31600 0.51517 
0.71549 2.28900 0.50916 
0.72061 2.27500 0.50605 
0.74650 2.18400 0.48581 
0.77386 2.18400 0.48581 
0.78298 2.18400 0.48581 
2.57625 6.37000 1.41694 
2.21488 4.96400 1.10419 
2.23561 4.96400 1.10419 
2.24770 4.90000 1.08995 
2.26816 4.90000 1.08995 
2.52911 5.09600 1.13355 
2.72297 5.30800 1.18071 
2.82375 5.46000 1.21452 
3.49231 6.06700 1.34954 
3.57447 6.16500 1.37134 
3.53866 5.23600 1.16469 
3.73564 5.46000 1.21452 
4.08301 5.79100 1.28815 
3.54833 4.77800 1.06282 
3.48090 4.66100 1.03679 
3.08842 4.02300 0.89487 
3.04115 3.94000 0.87641 
2.99795 3.82200 0.85016 
3.02717 3.53900 0.78721 
3.00144 3.47500 0.77298 
2.96348 3.38200 0.75229 
2.89997 3.15900 0.70269 
2.80941 2.94000 0.65397 
3.07278 3.10700 0.69112 
3.24368 3.21200 0.71448 
-1.50780 1.63300 0.35642 
-1.47974 1.65500 0.36123 
-1.42832 1.68400 0.36756 
-1.41976 1.69900 0.37083 
-1.40720 1.74500 0.38087 
-1.40633 1.75300 0.38262 
-1.39805 1.76100 0.38436 
-1.38806 1.78600 0.38982 
-1.38330 1.82900 0.39920 
-1.35369 2.01200 0.43915 
-1.33689 2.01200 0.43915 
-1.30694 2.04400 0.44613 
-1.28468 2.07700 0.45333 
-1.25108 2.12300 0.46337 
-1.27421 2.34500 0.51183 
-1.24824 2.38900 0.52143 
-1.21593 2.40400 0.52471 
-1.18003 2.49800 0.54522 
-1.11515 2.96300 0.64672 
-1.09887 2.98600 0.65174 
-1.03523 3.13300 0.68382 
-1.00425 3.15900 0.68950 
-0.99106 3.15900 0.68950 
-0.67848 3.05800 0.66745 
-0.40732 3.13300 0.68382 
-0.36503 3.10700 0.67815 
-0.24435 3.05800 0.66745 
-0.18193 3.08200 0.67269 
0.02378 3.05800 0.66745 
0.03655 3.05800 0.66745 
0.06158 3.03300 0.66199 
0.44558 2.89500 0.63187 
0.46975 2.89500 0.63187 
0.53439 2.98600 0.65174 
1.34693 5.88000 1.28339 
1.54000 6.26600 1.36764 
1.47359 5.70500 1.24520 
0.72738 2.20900 0.48215 
0.78764 2.19700 0.47953 
2.46298 5.79100 1.26397 
2.30188 5.30800 1.15855 
2.26143 5.16500 1.12733 
2.18632 4.90000 1.06949 
2.17886 4.83800 1.05596 
2.25159 4.77800 1.04287 
2.40142 4.96400 1.08346 
2.86934 5.46000 1.19172 
3.38776 5.97200 1.30347 
3.57447 6.16500 1.34560 
3.34582 5.38300 1.17492 
3.12828 4.83800 1.05596 
3.14848 4.83800 1.05596 
3.29266 4.96400 1.08346 
3.35677 5.02900 1.09765 
3.49068 5.16500 1.12733 
3.48090 4.66100 1.01733 
3.37720 4.49700 0.98153 
3.31744 4.39300 0.95883 
3.02656 3.90000 0.85123 
3.06583 3.71100 0.80998 
3.05277 3.64000 0.79448 
3.03931 3.60600 0.78706 
3.01239 3.53900 0.77244 
3.00144 3.47500 0.75847 
2.95429 3.32400 0.72551 
2.93091 3.26700 0.71307 
2.80350 2.98600 0.65174 
2.80665 2.96300 0.64672 
2.81902 2.96300 0.64672 
-1.44253 1.67600 0.35881 
-1.39992 1.74500 0.37358 
-1.37864 1.86400 0.39906 
-1.37565 1.89200 0.40506 
-1.36450 1.99100 0.42625 
-1.25342 2.11200 0.45216 
-1.27006 2.30200 0.49283 
-1.26211 2.35900 0.50504 
-1.22351 2.41900 0.51788 
-1.21078 2.43400 0.52109 
-1.18284 2.48200 0.53137 
-1.17448 2.53100 0.54186 
-1.16884 2.56500 0.54914 
-1.16308 2.60000 0.55663 
-1.13993 2.67300 0.57226 
-1.12100 2.85200 0.61058 
-1.09887 2.98600 0.63927 
-1.09477 3.00900 0.64419 
-1.09084 3.03300 0.64933 
-1.07817 3.03300 0.64933 
-0.97787 3.15900 0.67631 
-0.90989 3.10700 0.66517 
-0.88394 3.10700 0.66517 
-0.84502 3.10700 0.66517 
-0.81907 3.10700 0.66517 
-0.77388 3.08200 0.65982 
-0.56430 3.13300 0.67074 
-0.52941 3.15900 0.67631 
-0.48984 3.15900 0.67631 
-0.46347 3.15900 0.67631 
-0.43349 3.13300 0.67074 
-0.22054 3.08200 0.65982 
-0.07962 3.10700 0.66517 
0.12490 3.03300 0.64933 
0.13756 3.03300 0.64933 
0.15022 3.03300 0.64933 
0.26010 2.98600 0.63927 
0.28065 2.94000 0.62942 
0.32470 2.89500 0.61979 
0.34888 2.89500 0.61979 
0.36096 2.89500 0.61979 
0.38514 2.89500 0.61979 
0.46975 2.89500 0.61979 
0.49785 2.91800 0.62471 
1.34693 5.88000 1.25884 
1.48944 6.16500 1.31986 
0.69552 2.41900 0.51788 
0.70593 2.28900 0.49005 
0.93126 2.48200 0.53137 
2.49009 5.97200 1.27854 
2.13807 4.66100 0.99787 
2.27154 4.77800 1.02292 
2.35000 4.90000 1.04904 
2.50783 5.09600 1.09100 
2.86934 5.46000 1.16893 
3.11583 5.79100 1.23979 
3.33789 5.97200 1.27854 
3.46698 6.06700 1.29888 
3.39368 5.46000 1.16893 
3.16830 4.96400 1.06274 
3.14791 4.90000 1.04904 
3.29266 4.96400 1.06274 
3.63165 5.30800 1.13638 
3.93968 5.62100 1.20339 
3.01242 3.86100 0.82660 
3.09454 3.78400 0.81011 
3.01358 3.50600 0.75060 
2.96348 3.38200 0.72405 
2.91932 3.23900 0.69343 
2.87818 3.10700 0.66517 
2.84556 3.05800 0.65468 
2.96160 3.03300 0.64933 
3.03518 3.08200 0.65982 
-1.50780 1.63300 0.34279 
-1.49372 1.64000 0.34426 
-1.49322 1.64700 0.34573 
-1.47832 1.66900 0.35035 
-1.40075 1.73700 0.36462 
-1.37973 1.85500 0.38939 
-1.37498 1.90200 0.39925 
-1.37910 1.93000 0.40513 
