ply
format ascii 1.0
comment pointcloud saved from Realsense Viewer
element vertex 1822
property float32 x
property float32 y
property float32 z
end_header
5.5479 -0.5561 -7.963 
5.6996 -0.567902 -8.132 
5.98808 -0.593113 -8.493 
6.16042 -0.606591 -8.686 
6.49204 -0.635503 -9.1 
7.03235 -0.684388 -9.8 
7.25948 -0.702405 -10.058 
7.30148 -0.702405 -10.058 
7.34347 -0.702405 -10.058 
7.5852 -0.721401 -10.33 
7.62833 -0.721401 -10.33 
7.67146 -0.721401 -10.33 
7.51146 -0.702405 -10.058 
7.55345 -0.702405 -10.058 
7.40062 -0.684388 -9.8 
7.44153 -0.684388 -9.8 
7.48245 -0.684388 -9.8 
7.72144 -0.702405 -10.058 
8.1949 -0.741443 -10.617 
8.01651 -0.721401 -10.33 
8.05964 -0.721401 -10.33 
8.32789 -0.741443 -10.617 
8.1459 -0.721401 -10.33 
7.97341 -0.702405 -10.058 
8.01541 -0.702405 -10.058 
7.85072 -0.684388 -9.8 
7.69435 -0.667278 -9.555 
7.19434 -0.620698 -8.888 
7.23145 -0.620698 -8.888 
7.26856 -0.620698 -8.888 
7.13964 -0.606591 -8.686 
7.1759 -0.606591 -8.686 
7.3799 -0.620698 -8.888 
7.59392 -0.635503 -9.1 
7.8181 -0.651006 -9.322 
7.85702 -0.651006 -9.322 
8.0933 -0.667278 -9.555 
8.1332 -0.667278 -9.555 
8.38266 -0.684388 -9.8 
8.42358 -0.684388 -9.8 
8.68734 -0.702405 -10.058 
8.50541 -0.684388 -9.8 
7.93588 -0.635503 -9.1 
7.78811 -0.620698 -8.888 
7.82522 -0.620698 -8.888 
7.68364 -0.606591 -8.686 
7.38484 -0.580263 -8.309 
7.26148 -0.567902 -8.132 
7.14382 -0.5561 -7.963 
7.03016 -0.544717 -7.8 
7.21032 -0.5561 -7.963 
7.24357 -0.5561 -7.963 
7.27682 -0.5561 -7.963 
7.31006 -0.5561 -7.963 
7.34331 -0.5561 -7.963 
7.37656 -0.5561 -7.963 
7.40981 -0.5561 -7.963 
7.2907 -0.544717 -7.8 
7.32327 -0.544717 -7.8 
7.35584 -0.544717 -7.8 
7.3884 -0.544717 -7.8 
7.42097 -0.544717 -7.8 
7.45354 -0.544717 -7.8 
7.48611 -0.544717 -7.8 
7.6758 -0.5561 -7.963 
8.40899 -0.606591 -8.686 
8.64166 -0.620698 -8.888 
9.33006 -0.667278 -9.555 
11.0233 -0.785021 -11.241 
12.5465 -0.889704 -12.74 
14.5381 -1.02658 -14.7 
18.0755 -1.27101 -18.2 
19.0591 -1.33456 -19.11 
22.517 -1.57011 -22.483 
24.0238 -1.66823 -23.888 
29.6899 -2.05316 -29.4 
-2.27558 -0.266883 -3.606 
-2.28184 -0.269399 -3.64 
-2.28843 -0.27199 -3.675 
-2.29536 -0.274654 -3.711 
-2.29311 -0.280057 -3.784 
-2.30018 -0.282869 -3.822 
-2.28422 -0.282869 -3.822 
-2.26826 -0.282869 -3.822 
-2.25231 -0.282869 -3.822 
-2.21411 -0.280057 -3.784 
-2.22039 -0.282869 -3.822 
-2.20443 -0.282869 -3.822 
-2.18847 -0.282869 -3.822 
-2.17251 -0.282869 -3.822 
-2.15656 -0.282869 -3.822 
-2.1406 -0.282869 -3.822 
-2.12464 -0.282869 -3.822 
-2.1302 -0.285756 -3.861 
-2.11408 -0.285756 -3.861 
-2.11915 -0.288642 -3.9 
-2.12443 -0.291603 -3.94 
-2.12992 -0.294637 -3.981 
-2.15842 -0.300928 -4.066 
-2.16461 -0.304185 -4.11 
-2.19448 -0.310846 -4.2 
-2.2013 -0.314324 -4.247 
-1.70012 -0.259482 -3.506 
-1.70134 -0.261924 -3.539 
-1.7185 -0.266883 -3.606 
-1.73603 -0.27199 -3.675 
-1.77173 -0.280057 -3.784 
-1.79166 -0.285756 -3.861 
-1.83072 -0.294637 -3.981 
-1.87288 -0.304185 -4.11 
-1.91758 -0.314324 -4.247 
-1.9929 -0.332827 -4.497 
-2.04612 -0.344965 -4.661 
-1.61515 -0.300928 -4.066 
-1.63277 -0.307441 -4.154 
-1.63331 -0.310846 -4.2 
-1.63385 -0.314324 -4.247 
-1.67168 -0.32513 -4.393 
-1.69248 -0.332827 -4.497 
-1.69343 -0.336749 -4.55 
-1.71528 -0.344965 -4.661 
-1.69582 -0.344965 -4.661 
-1.65621 -0.34082 -4.605 
-1.56163 -0.32513 -4.393 
-1.47548 -0.310846 -4.2 
-1.3965 -0.297746 -4.023 
-1.25721 -0.274654 -3.711 
-1.1952 -0.264367 -3.572 
-1.14824 -0.257188 -3.475 
-1.1135 -0.252599 -3.413 
-1.08927 -0.250305 -3.382 
-1.06593 -0.248158 -3.353 
-1.04283 -0.246012 -3.324 
-1.02895 -0.246012 -3.324 
-1.00621 -0.243866 -3.295 
-0.992456 -0.243866 -3.295 
-0.978698 -0.243866 -3.295 
-0.964941 -0.243866 -3.295 
-0.951183 -0.243866 -3.295 
-0.937425 -0.243866 -3.295 
-0.923667 -0.243866 -3.295 
-0.909909 -0.243866 -3.295 
-0.896152 -0.243866 -3.295 
-0.882394 -0.243866 -3.295 
-0.868636 -0.243866 -3.295 
-0.854878 -0.243866 -3.295 
-0.84112 -0.243866 -3.295 
-0.827363 -0.243866 -3.295 
-0.813605 -0.243866 -3.295 
-0.799847 -0.243866 -3.295 
-0.786089 -0.243866 -3.295 
-0.772331 -0.243866 -3.295 
-0.758574 -0.243866 -3.295 
-0.744816 -0.243866 -3.295 
-0.731058 -0.243866 -3.295 
-0.7173 -0.243866 -3.295 
-0.703542 -0.243866 -3.295 
-0.689785 -0.243866 -3.295 
-0.676027 -0.243866 -3.295 
-0.662269 -0.243866 -3.295 
-0.643 -0.241793 -3.267 
-0.629359 -0.241793 -3.267 
-0.615719 -0.241793 -3.267 
-0.602078 -0.241793 -3.267 
-0.583394 -0.239721 -3.239 
-0.56987 -0.239721 -3.239 
-0.556346 -0.239721 -3.239 
-0.27813 -0.222699 -3.009 
-0.265567 -0.222699 -3.009 
-0.253003 -0.222699 -3.009 
-0.240439 -0.222699 -3.009 
-0.227876 -0.222699 -3.009 
-0.215312 -0.222699 -3.009 
-0.202748 -0.222699 -3.009 
-0.191702 -0.224475 -3.033 
-0.179038 -0.224475 -3.033 
-0.166374 -0.224475 -3.033 
-0.15371 -0.224475 -3.033 
-0.141046 -0.224475 -3.033 
-0.129441 -0.226325 -3.058 
-0.117588 -0.228101 -3.082 
-0.10472 -0.228101 -3.082 
-0.0918511 -0.228101 -3.082 
-0.0789826 -0.228101 -3.082 
-0.0661142 -0.228101 -3.082 
-0.0532457 -0.228101 -3.082 
-0.0403773 -0.228101 -3.082 
-0.0275088 -0.228101 -3.082 
-0.0146404 -0.228101 -3.082 
-0.00177193 -0.228101 -3.082 
0.0110965 -0.228101 -3.082 
0.023965 -0.228101 -3.082 
0.0368334 -0.228101 -3.082 
0.0497019 -0.228101 -3.082 
0.0625703 -0.228101 -3.082 
0.0754388 -0.228101 -3.082 
0.0883072 -0.228101 -3.082 
0.101176 -0.228101 -3.082 
0.114044 -0.228101 -3.082 
0.127942 -0.229952 -3.107 
0.142094 -0.231876 -3.133 
0.156463 -0.2338 -3.159 
0.17105 -0.235725 -3.185 
0.185911 -0.237723 -3.212 
0.200998 -0.239721 -3.239 
0.214522 -0.239721 -3.239 
0.230017 -0.241793 -3.267 
0.243658 -0.241793 -3.267 
0.257299 -0.241793 -3.267 
0.27094 -0.241793 -3.267 
0.28458 -0.241793 -3.267 
0.298221 -0.241793 -3.267 
0.311862 -0.241793 -3.267 
0.325503 -0.241793 -3.267 
0.339144 -0.241793 -3.267 
0.349761 -0.239721 -3.239 
0.363285 -0.239721 -3.239 
0.373668 -0.237723 -3.212 
0.38708 -0.237723 -3.212 
0.397124 -0.235725 -3.185 
0.410423 -0.235725 -3.185 
0.423721 -0.235725 -3.185 
0.433452 -0.2338 -3.159 
0.446642 -0.2338 -3.159 
0.459832 -0.2338 -3.159 
0.473022 -0.2338 -3.159 
0.486212 -0.2338 -3.159 
0.499402 -0.2338 -3.159 
0.512592 -0.2338 -3.159 
0.525782 -0.2338 -3.159 
0.538972 -0.2338 -3.159 
0.552162 -0.2338 -3.159 
0.565352 -0.2338 -3.159 
0.578542 -0.2338 -3.159 
0.591732 -0.2338 -3.159 
0.604922 -0.2338 -3.159 
0.613024 -0.231876 -3.133 
0.626106 -0.231876 -3.133 
0.639187 -0.231876 -3.133 
0.652269 -0.231876 -3.133 
0.66535 -0.231876 -3.133 
0.672801 -0.229952 -3.107 
0.685774 -0.229952 -3.107 
0.698747 -0.229952 -3.107 
0.71172 -0.229952 -3.107 
0.724693 -0.229952 -3.107 
0.737665 -0.229952 -3.107 
0.750638 -0.229952 -3.107 
0.763611 -0.229952 -3.107 
0.776584 -0.229952 -3.107 
0.789557 -0.229952 -3.107 
0.796072 -0.228101 -3.082 
0.808941 -0.228101 -3.082 
0.815409 -0.226325 -3.058 
0.828178 -0.226325 -3.058 
0.834071 -0.224475 -3.033 
0.846735 -0.224475 -3.033 
0.852598 -0.222699 -3.009 
0.865162 -0.222699 -3.009 
0.871017 -0.220996 -2.986 
0.883484 -0.220996 -2.986 
0.895952 -0.220996 -2.986 
0.901422 -0.219294 -2.963 
0.9067 -0.217592 -2.94 
0.912099 -0.215964 -2.918 
0.924283 -0.215964 -2.918 
0.929086 -0.214261 -2.895 
0.934346 -0.212707 -2.874 
0.939102 -0.211079 -2.852 
0.95101 -0.211079 -2.852 
0.955828 -0.209525 -2.831 
0.967648 -0.209525 -2.831 
0.972203 -0.20797 -2.81 
0.983936 -0.20797 -2.81 
0.995669 -0.20797 -2.81 
1.00023 -0.20649 -2.79 
1.01188 -0.20649 -2.79 
1.01619 -0.20501 -2.77 
1.02776 -0.20501 -2.77 
1.03182 -0.20353 -2.75 
1.0433 -0.20353 -2.75 
1.04711 -0.20205 -2.73 
1.05851 -0.20205 -2.73 
1.06991 -0.20205 -2.73 
1.07378 -0.200643 -2.711 
1.0775 -0.199237 -2.692 
1.08874 -0.199237 -2.692 
1.09221 -0.197831 -2.673 
1.10338 -0.197831 -2.673 
1.10661 -0.196425 -2.654 
1.11012 -0.195093 -2.636 
1.12112 -0.195093 -2.636 
1.1244 -0.19376 -2.618 
1.13533 -0.19376 -2.618 
1.13838 -0.192428 -2.6 
1.14923 -0.192428 -2.6 
1.16009 -0.192428 -2.6 
1.16284 -0.191096 -2.582 
1.17362 -0.191096 -2.582 
1.1844 -0.191096 -2.582 
1.18731 -0.189838 -2.565 
1.19802 -0.189838 -2.565 
1.20873 -0.189838 -2.565 
1.21944 -0.189838 -2.565 
1.23015 -0.189838 -2.565 
1.24086 -0.189838 -2.565 
1.25157 -0.189838 -2.565 
1.25391 -0.18858 -2.548 
1.26455 -0.18858 -2.548 
1.27519 -0.18858 -2.548 
1.27725 -0.187321 -2.531 
1.28782 -0.187321 -2.531 
1.29018 -0.186137 -2.515 
1.30068 -0.186137 -2.515 
1.31118 -0.186137 -2.515 
1.31275 -0.184879 -2.498 
1.32318 -0.184879 -2.498 
1.32507 -0.183695 -2.482 
1.33543 -0.183695 -2.482 
1.34579 -0.183695 -2.482 
1.35616 -0.183695 -2.482 
1.36652 -0.183695 -2.482 
1.36801 -0.182511 -2.466 
1.3783 -0.182511 -2.466 
1.37959 -0.181327 -2.45 
1.38982 -0.181327 -2.45 
1.40005 -0.181327 -2.45 
1.41028 -0.181327 -2.45 
1.41123 -0.180142 -2.434 
1.4214 -0.180142 -2.434 
1.42274 -0.179032 -2.419 
1.42395 -0.177922 -2.404 
1.43399 -0.177922 -2.404 
1.44403 -0.177922 -2.404 
1.44499 -0.176812 -2.389 
1.4641 -0.177922 -2.404 
1.47414 -0.177922 -2.404 
1.49344 -0.179032 -2.419 
1.51286 -0.180142 -2.434 
1.54305 -0.182511 -2.466 
1.59471 -0.186137 -2.515 
1.61542 -0.187321 -2.531 
1.74163 -0.200643 -2.711 
1.81696 -0.20797 -2.81 
1.89898 -0.215964 -2.918 
2.46977 -0.277319 -3.747 
4.27846 -0.471449 -6.37 
4.37805 -0.479442 -6.478 
4.55946 -0.496243 -6.705 
4.75439 -0.514301 -6.949 
4.96376 -0.533692 -7.211 
5.18985 -0.554637 -7.494 
5.43434 -0.577285 -7.8 
5.58115 -0.589348 -7.963 
5.85835 -0.614956 -8.309 
6.02354 -0.628574 -8.493 
6.49204 -0.673499 -9.1 
6.85654 -0.707174 -9.555 
7.25948 -0.744401 -10.058 
7.30148 -0.744401 -10.058 
7.34347 -0.744401 -10.058 
7.38547 -0.744401 -10.058 
7.62833 -0.764532 -10.33 
7.67146 -0.764532 -10.33 
7.51146 -0.744401 -10.058 
7.3597 -0.725306 -9.8 
7.2156 -0.707174 -9.555 
7.2555 -0.707174 -9.555 
7.29539 -0.707174 -9.555 
7.72144 -0.744401 -10.058 
7.97338 -0.764532 -10.33 
8.01651 -0.764532 -10.33 
8.05964 -0.764532 -10.33 
8.32789 -0.785773 -10.617 
8.37222 -0.785773 -10.617 
8.18904 -0.764532 -10.33 
8.23217 -0.764532 -10.33 
8.0574 -0.744401 -10.058 
7.69435 -0.707174 -9.555 
7.54564 -0.689929 -9.322 
7.40394 -0.673499 -9.1 
7.44194 -0.673499 -9.1 
7.47993 -0.673499 -9.1 
7.51793 -0.673499 -9.1 
7.74026 -0.689929 -9.322 
7.77918 -0.689929 -9.322 
8.01351 -0.707174 -9.555 
8.2599 -0.725306 -9.8 
8.30082 -0.725306 -9.8 
8.34174 -0.725306 -9.8 
8.83601 -0.764532 -10.33 
8.87914 -0.764532 -10.33 
8.92227 -0.764532 -10.33 
8.9654 -0.764532 -10.33 
8.33267 -0.707174 -9.555 
8.1684 -0.689929 -9.322 
8.01187 -0.673499 -9.1 
7.68364 -0.642858 -8.686 
7.71991 -0.642858 -8.686 
7.58384 -0.628574 -8.493 
7.14382 -0.589348 -7.963 
7.03016 -0.577285 -7.8 
7.21032 -0.589348 -7.963 
7.24357 -0.589348 -7.963 
7.27682 -0.589348 -7.963 
7.31006 -0.589348 -7.963 
7.34331 -0.589348 -7.963 
7.37656 -0.589348 -7.963 
7.40981 -0.589348 -7.963 
7.44306 -0.589348 -7.963 
7.32327 -0.577285 -7.8 
7.35584 -0.577285 -7.8 
7.3884 -0.577285 -7.8 
7.57605 -0.589348 -7.963 
7.6093 -0.589348 -7.963 
7.48611 -0.577285 -7.8 
7.6758 -0.589348 -7.963 
8.60454 -0.657808 -8.888 
8.84778 -0.673499 -9.1 
9.5693 -0.725306 -9.8 
11.0233 -0.831956 -11.241 
12.9788 -0.975389 -13.179 
15.1196 -1.13148 -15.288 
18.0755 -1.347 -18.2 
20.0624 -1.4888 -20.116 
22.517 -1.66399 -22.483 
24.0238 -1.76797 -23.888 
29.6899 -2.17592 -29.4 
-2.24808 -0.276701 -3.539 
-2.2333 -0.276701 -3.539 
-2.26052 -0.281939 -3.606 
-2.26664 -0.284598 -3.64 
-2.2424 -0.287334 -3.675 
-2.22706 -0.287334 -3.675 
-2.23338 -0.290149 -3.711 
-2.21788 -0.290149 -3.711 
-2.20239 -0.290149 -3.711 
-2.16568 -0.287334 -3.675 
-2.15033 -0.287334 -3.675 
-2.13499 -0.287334 -3.675 
-2.11965 -0.287334 -3.675 
-2.1043 -0.287334 -3.675 
-2.08896 -0.287334 -3.675 
-2.09393 -0.290149 -3.711 
-2.07843 -0.290149 -3.711 
-2.06294 -0.290149 -3.711 
-2.0673 -0.292964 -3.747 
-2.07192 -0.295857 -3.784 
-2.05612 -0.295857 -3.784 
-2.06081 -0.298828 -3.822 
-2.06572 -0.301877 -3.861 
-2.0703 -0.304926 -3.9 
-2.09667 -0.311259 -3.981 
-2.102 -0.314543 -4.023 
-1.69959 -0.271697 -3.475 
-1.68508 -0.271697 -3.475 
-1.68548 -0.274121 -3.506 
-1.70229 -0.279281 -3.572 
-1.7195 -0.284598 -3.64 
-1.73755 -0.290149 -3.711 
-1.77356 -0.298828 -3.822 
-1.81187 -0.308054 -3.94 
-1.85283 -0.317905 -4.066 
-1.94279 -0.339563 -4.343 
-1.96942 -0.34746 -4.444 
-1.58155 -0.308054 -3.94 
-1.59807 -0.314543 -4.023 
-1.61547 -0.321345 -4.11 
-1.63331 -0.328382 -4.2 
-1.65194 -0.335732 -4.294 
-1.67168 -0.343472 -4.393 
-1.69248 -0.351603 -4.497 
-1.7139 -0.360047 -4.605 
-1.73662 -0.368961 -4.719 
-1.71692 -0.368961 -4.719 
-1.67636 -0.364426 -4.661 
-1.57975 -0.34746 -4.444 
-1.47548 -0.328382 -4.2 
-1.18416 -0.276701 -3.539 
-1.14824 -0.271697 -3.475 
-1.1135 -0.26685 -3.413 
-1.08927 -0.264426 -3.382 
-1.06593 -0.262158 -3.353 
-1.04283 -0.259891 -3.324 
-1.02895 -0.259891 -3.324 
-1.00621 -0.257624 -3.295 
-0.992456 -0.257624 -3.295 
-0.978698 -0.257624 -3.295 
-0.964941 -0.257624 -3.295 
-0.951183 -0.257624 -3.295 
-0.937425 -0.257624 -3.295 
-0.923667 -0.257624 -3.295 
-0.909909 -0.257624 -3.295 
-0.896152 -0.257624 -3.295 
-0.882394 -0.257624 -3.295 
-0.868636 -0.257624 -3.295 
-0.854878 -0.257624 -3.295 
-0.84112 -0.257624 -3.295 
-0.827363 -0.257624 -3.295 
-0.813605 -0.257624 -3.295 
-0.799847 -0.257624 -3.295 
-0.786089 -0.257624 -3.295 
-0.772331 -0.257624 -3.295 
-0.758574 -0.257624 -3.295 
-0.744816 -0.257624 -3.295 
-0.731058 -0.257624 -3.295 
-0.7173 -0.257624 -3.295 
-0.703542 -0.257624 -3.295 
-0.689785 -0.257624 -3.295 
-0.676027 -0.257624 -3.295 
-0.656641 -0.255434 -3.267 
-0.643 -0.255434 -3.267 
-0.629359 -0.255434 -3.267 
-0.615719 -0.255434 -3.267 
-0.596917 -0.253245 -3.239 
-0.583394 -0.253245 -3.239 
-0.56987 -0.253245 -3.239 
-0.551708 -0.251134 -3.212 
-0.538297 -0.251134 -3.212 
-0.27813 -0.235262 -3.009 
-0.265567 -0.235262 -3.009 
-0.253003 -0.235262 -3.009 
-0.240439 -0.235262 -3.009 
-0.227876 -0.235262 -3.009 
-0.215312 -0.235262 -3.009 
-0.202748 -0.235262 -3.009 
-0.191702 -0.237139 -3.033 
-0.179038 -0.237139 -3.033 
-0.166374 -0.237139 -3.033 
-0.15371 -0.237139 -3.033 
-0.141046 -0.237139 -3.033 
-0.129441 -0.239093 -3.058 
-0.116672 -0.239093 -3.058 
-0.103904 -0.239093 -3.058 
-0.0911358 -0.239093 -3.058 
-0.0789826 -0.24097 -3.082 
-0.0661142 -0.24097 -3.082 
-0.0532457 -0.24097 -3.082 
-0.0403773 -0.24097 -3.082 
-0.0275088 -0.24097 -3.082 
-0.0146404 -0.24097 -3.082 
-0.00177193 -0.24097 -3.082 
0.0110965 -0.24097 -3.082 
0.023965 -0.24097 -3.082 
0.0368334 -0.24097 -3.082 
0.0497019 -0.24097 -3.082 
0.0630779 -0.242925 -3.107 
0.0754388 -0.24097 -3.082 
0.0890236 -0.242925 -3.107 
0.101996 -0.242925 -3.107 
0.114969 -0.242925 -3.107 
0.127942 -0.242925 -3.107 
0.142094 -0.244957 -3.133 
0.156463 -0.24699 -3.159 
0.169653 -0.24699 -3.159 
0.185911 -0.251134 -3.212 
0.199322 -0.251134 -3.212 
0.214522 -0.253245 -3.239 
0.228046 -0.253245 -3.239 
0.243658 -0.255434 -3.267 
0.257299 -0.255434 -3.267 
0.27094 -0.255434 -3.267 
0.28458 -0.255434 -3.267 
0.300777 -0.257624 -3.295 
0.311862 -0.255434 -3.267 
0.325503 -0.255434 -3.267 
0.339144 -0.255434 -3.267 
0.349761 -0.253245 -3.239 
0.363285 -0.253245 -3.239 
0.373668 -0.251134 -3.212 
0.38708 -0.251134 -3.212 
0.400491 -0.251134 -3.212 
0.410423 -0.249023 -3.185 
0.423721 -0.249023 -3.185 
0.43702 -0.249023 -3.185 
0.446642 -0.24699 -3.159 
0.459832 -0.24699 -3.159 
0.473022 -0.24699 -3.159 
0.486212 -0.24699 -3.159 
0.499402 -0.24699 -3.159 
0.512592 -0.24699 -3.159 
0.525782 -0.24699 -3.159 
0.538972 -0.24699 -3.159 
0.552162 -0.24699 -3.159 
0.565352 -0.24699 -3.159 
0.578542 -0.24699 -3.159 
0.586862 -0.244957 -3.133 
0.599943 -0.244957 -3.133 
0.613024 -0.244957 -3.133 
0.626106 -0.244957 -3.133 
0.639187 -0.244957 -3.133 
0.652269 -0.244957 -3.133 
0.66535 -0.244957 -3.133 
0.672801 -0.242925 -3.107 
0.685774 -0.242925 -3.107 
0.698747 -0.242925 -3.107 
0.71172 -0.242925 -3.107 
0.724693 -0.242925 -3.107 
0.737665 -0.242925 -3.107 
0.750638 -0.242925 -3.107 
0.763611 -0.242925 -3.107 
0.776584 -0.242925 -3.107 
0.789557 -0.242925 -3.107 
0.80253 -0.242925 -3.107 
0.808941 -0.24097 -3.082 
0.821809 -0.24097 -3.082 
0.828178 -0.239093 -3.058 
0.840946 -0.239093 -3.058 
0.846735 -0.237139 -3.033 
0.859399 -0.237139 -3.033 
0.865162 -0.235262 -3.009 
0.877726 -0.235262 -3.009 
0.883484 -0.233464 -2.986 
0.895952 -0.233464 -2.986 
0.901422 -0.231666 -2.963 
0.9067 -0.229867 -2.94 
0.918976 -0.229867 -2.94 
0.924283 -0.228147 -2.918 
0.929086 -0.226349 -2.895 
0.941173 -0.226349 -2.895 
0.946346 -0.224707 -2.874 
0.95101 -0.222987 -2.852 
0.962918 -0.222987 -2.852 
0.967648 -0.221345 -2.831 
0.979469 -0.221345 -2.831 
0.983936 -0.219703 -2.81 
0.995669 -0.219703 -2.81 
1.00023 -0.21814 -2.79 
1.01188 -0.21814 -2.79 
1.01619 -0.216576 -2.77 
1.02776 -0.216576 -2.77 
1.03182 -0.215012 -2.75 
1.0433 -0.215012 -2.75 
1.05478 -0.215012 -2.75 
1.05851 -0.213448 -2.73 
1.06246 -0.211963 -2.711 
1.07378 -0.211963 -2.711 
1.0775 -0.210477 -2.692 
1.08874 -0.210477 -2.692 
1.09221 -0.208992 -2.673 
1.09553 -0.207506 -2.654 
1.10661 -0.207506 -2.654 
1.11012 -0.206099 -2.636 
1.12112 -0.206099 -2.636 
1.1244 -0.204691 -2.618 
1.13533 -0.204691 -2.618 
1.14626 -0.204691 -2.618 
1.14923 -0.203284 -2.6 
1.15206 -0.201877 -2.582 
1.17095 -0.203284 -2.6 
1.17362 -0.201877 -2.582 
1.1844 -0.201877 -2.582 
1.19518 -0.201877 -2.582 
1.19802 -0.200548 -2.565 
1.21674 -0.201877 -2.582 
1.22752 -0.201877 -2.582 
1.2383 -0.201877 -2.582 
1.24086 -0.200548 -2.565 
1.25157 -0.200548 -2.565 
1.26228 -0.200548 -2.565 
1.27299 -0.200548 -2.565 
1.27519 -0.199218 -2.548 
1.28583 -0.199218 -2.548 
1.28782 -0.197889 -2.531 
1.29839 -0.197889 -2.531 
1.30068 -0.196638 -2.515 
1.31118 -0.196638 -2.515 
1.32168 -0.196638 -2.515 
1.32318 -0.195309 -2.498 
1.32507 -0.194058 -2.482 
1.33543 -0.194058 -2.482 
1.34579 -0.194058 -2.482 
1.35616 -0.194058 -2.482 
1.36652 -0.194058 -2.482 
1.36801 -0.192807 -2.466 
1.3783 -0.192807 -2.466 
1.37959 -0.191556 -2.45 
1.38982 -0.191556 -2.45 
1.40005 -0.191556 -2.45 
1.41028 -0.191556 -2.45 
1.41123 -0.190305 -2.434 
1.4214 -0.190305 -2.434 
1.42274 -0.189132 -2.419 
1.43284 -0.189132 -2.419 
1.43399 -0.18796 -2.404 
1.44403 -0.18796 -2.404 
1.45406 -0.18796 -2.404 
1.4641 -0.18796 -2.404 
1.47414 -0.18796 -2.404 
1.49344 -0.189132 -2.419 
1.51286 -0.190305 -2.434 
1.54305 -0.192807 -2.466 
1.58393 -0.195309 -2.498 
1.61542 -0.197889 -2.531 
1.72942 -0.210477 -2.692 
1.81696 -0.219703 -2.81 
1.88401 -0.226349 -2.895 
2.46977 -0.292964 -3.747 
2.88074 -0.339563 -4.343 
4.20861 -0.489915 -6.266 
4.37805 -0.50649 -6.478 
4.55946 -0.524239 -6.705 
4.75439 -0.543316 -6.949 
4.96376 -0.563801 -7.211 
5.18985 -0.585927 -7.494 
5.43434 -0.609852 -7.8 
5.58115 -0.622597 -7.963 
5.73355 -0.63581 -8.132 
5.89304 -0.649649 -8.309 
6.19669 -0.679125 -8.686 
6.68934 -0.728852 -9.322 
7.07327 -0.766225 -9.8 
7.11419 -0.766225 -9.8 
7.34347 -0.786397 -10.058 
7.38547 -0.786397 -10.058 
7.62833 -0.807664 -10.33 
7.67146 -0.807664 -10.33 
7.31878 -0.766225 -9.8 
7.1757 -0.747069 -9.555 
7.03965 -0.728852 -9.322 
7.07857 -0.728852 -9.322 
7.29539 -0.747069 -9.555 
7.33529 -0.747069 -9.555 
7.76343 -0.786397 -10.058 
7.80543 -0.786397 -10.058 
7.84742 -0.786397 -10.058 
8.10277 -0.807664 -10.33 
7.93141 -0.786397 -10.058 
8.18904 -0.807664 -10.33 
8.01541 -0.786397 -10.058 
7.85072 -0.766225 -9.8 
7.69435 -0.747069 -9.555 
7.36594 -0.711495 -9.1 
7.58456 -0.728852 -9.322 
7.44194 -0.711495 -9.1 
7.66241 -0.728852 -9.322 
7.70133 -0.728852 -9.322 
7.93372 -0.747069 -9.555 
8.17807 -0.766225 -9.8 
8.43536 -0.786397 -10.058 
8.47736 -0.786397 -10.058 
8.74974 -0.807664 -10.33 
9.03717 -0.830103 -10.617 
9.0815 -0.830103 -10.617 
9.38627 -0.853793 -10.92 
9.43187 -0.853793 -10.92 
9.21449 -0.830103 -10.617 
8.77133 -0.786397 -10.058 
8.37257 -0.747069 -9.555 
8.41247 -0.747069 -9.555 
8.04987 -0.711495 -9.1 
7.71991 -0.679125 -8.686 
7.58384 -0.664035 -8.493 
7.29544 -0.63581 -8.132 
7.17707 -0.622597 -7.963 
7.21032 -0.622597 -7.963 
7.24357 -0.622597 -7.963 
7.27682 -0.622597 -7.963 
7.31006 -0.622597 -7.963 
7.34331 -0.622597 -7.963 
7.37656 -0.622597 -7.963 
7.40981 -0.622597 -7.963 
7.44306 -0.622597 -7.963 
7.32327 -0.609852 -7.8 
7.35584 -0.609852 -7.8 
7.3884 -0.609852 -7.8 
7.57605 -0.622597 -7.963 
7.6093 -0.622597 -7.963 
7.48611 -0.609852 -7.8 
7.6758 -0.622597 -7.963 
8.60454 -0.694919 -8.888 
9.06363 -0.728852 -9.322 
9.5693 -0.766225 -9.8 
11.0233 -0.878891 -11.241 
12.9788 -1.03042 -13.179 
15.1196 -1.19531 -15.288 
18.9793 -1.49414 -19.11 
20.0624 -1.57279 -20.116 
22.517 -1.75786 -22.483 
25.6249 -1.99218 -25.48 
29.6899 -2.29867 -29.4 
-2.24175 -0.28876 -3.506 
-2.22711 -0.28876 -3.506 
-2.2333 -0.291478 -3.539 
-2.23921 -0.294196 -3.572 
-2.19447 -0.294196 -3.572 
-2.2003 -0.296996 -3.606 
-2.18524 -0.296996 -3.606 
-2.17019 -0.296996 -3.606 
-2.15513 -0.296996 -3.606 
-2.1199 -0.294196 -3.572 
-2.10498 -0.294196 -3.572 
-2.09007 -0.294196 -3.572 
-2.07515 -0.294196 -3.572 
-2.06024 -0.294196 -3.572 
-2.04532 -0.294196 -3.572 
-2.03041 -0.294196 -3.572 
-2.01549 -0.294196 -3.572 
-2.01962 -0.296996 -3.606 
-2.00457 -0.296996 -3.606 
-2.00827 -0.299796 -3.64 
-2.01223 -0.302679 -3.675 
-1.99689 -0.302679 -3.675 
-2.00096 -0.305644 -3.711 
-2.00472 -0.308609 -3.747 
-1.98908 -0.308609 -3.747 
-1.99292 -0.311656 -3.784 
-1.69832 -0.283571 -3.443 
-1.68394 -0.283571 -3.443 
-1.68508 -0.286206 -3.475 
-1.68548 -0.28876 -3.506 
-1.70229 -0.294196 -3.572 
-1.70344 -0.296996 -3.606 
-1.72069 -0.302679 -3.675 
-1.73876 -0.308609 -3.747 
-1.77554 -0.317998 -3.861 
-1.85572 -0.338506 -4.11 
-1.89985 -0.34979 -4.247 
-1.56596 -0.317998 -3.861 
-1.58155 -0.324505 -3.94 
-1.59807 -0.331341 -4.023 
-1.61547 -0.338506 -4.11 
-1.63331 -0.345919 -4.2 
-1.65194 -0.353661 -4.294 
-1.69109 -0.366015 -4.444 
-1.71242 -0.374745 -4.55 
-1.73474 -0.383887 -4.661 
-1.54385 -0.357696 -4.343 
-1.22164 -0.296996 -3.606 
-1.17312 -0.28876 -3.506 
-1.13766 -0.283571 -3.443 
-1.10339 -0.278547 -3.382 
-1.07993 -0.276158 -3.353 
-1.06593 -0.276158 -3.353 
-1.04283 -0.27377 -3.324 
-1.02895 -0.27377 -3.324 
-1.01507 -0.27377 -3.324 
-0.992456 -0.271381 -3.295 
-0.978698 -0.271381 -3.295 
-0.964941 -0.271381 -3.295 
-0.951183 -0.271381 -3.295 
-0.937425 -0.271381 -3.295 
-0.923667 -0.271381 -3.295 
-0.909909 -0.271381 -3.295 
-0.896152 -0.271381 -3.295 
-0.882394 -0.271381 -3.295 
-0.868636 -0.271381 -3.295 
-0.854878 -0.271381 -3.295 
-0.84112 -0.271381 -3.295 
-0.827363 -0.271381 -3.295 
-0.813605 -0.271381 -3.295 
-0.799847 -0.271381 -3.295 
-0.786089 -0.271381 -3.295 
-0.772331 -0.271381 -3.295 
-0.758574 -0.271381 -3.295 
-0.744816 -0.271381 -3.295 
-0.731058 -0.271381 -3.295 
-0.711205 -0.269075 -3.267 
-0.697564 -0.269075 -3.267 
-0.683923 -0.269075 -3.267 
-0.670282 -0.269075 -3.267 
-0.656641 -0.269075 -3.267 
-0.643 -0.269075 -3.267 
-0.629359 -0.269075 -3.267 
-0.610442 -0.266769 -3.239 
-0.596917 -0.266769 -3.239 
-0.583394 -0.266769 -3.239 
-0.565119 -0.264545 -3.212 
-0.551708 -0.264545 -3.212 
-0.538297 -0.264545 -3.212 
-0.276004 -0.245932 -2.986 
-0.265567 -0.247826 -3.009 
-0.253003 -0.247826 -3.009 
-0.238601 -0.245932 -2.986 
-0.226134 -0.245932 -2.986 
-0.215312 -0.247826 -3.009 
-0.202748 -0.247826 -3.009 
-0.190185 -0.247826 -3.009 
-0.177621 -0.247826 -3.009 
-0.165057 -0.247826 -3.009 
-0.15371 -0.249803 -3.033 
-0.141046 -0.249803 -3.033 
-0.128382 -0.249803 -3.033 
-0.116672 -0.251862 -3.058 
-0.103904 -0.251862 -3.058 
-0.0911358 -0.251862 -3.058 
-0.0783676 -0.251862 -3.058 
-0.0661142 -0.253838 -3.082 
-0.0528311 -0.251862 -3.058 
-0.0400629 -0.251862 -3.058 
-0.0272946 -0.251862 -3.058 
-0.0146404 -0.253838 -3.082 
-0.00177193 -0.253838 -3.082 
0.0110965 -0.253838 -3.082 
0.023965 -0.253838 -3.082 
0.0368334 -0.253838 -3.082 
0.0497019 -0.253838 -3.082 
0.0630779 -0.255897 -3.107 
0.0760507 -0.255897 -3.107 
0.0890236 -0.255897 -3.107 
0.101996 -0.255897 -3.107 
0.114969 -0.255897 -3.107 
0.127942 -0.255897 -3.107 
0.140915 -0.255897 -3.107 
0.156463 -0.26018 -3.159 
0.169653 -0.26018 -3.159 
0.184348 -0.262322 -3.185 
0.199322 -0.264545 -3.212 
0.212733 -0.264545 -3.212 
0.228046 -0.266769 -3.239 
0.243658 -0.269075 -3.267 
0.257299 -0.269075 -3.267 
0.273262 -0.271381 -3.295 
0.287019 -0.271381 -3.295 
0.300777 -0.271381 -3.295 
0.311862 -0.269075 -3.267 
0.325503 -0.269075 -3.267 
0.339144 -0.269075 -3.267 
0.349761 -0.266769 -3.239 
0.363285 -0.266769 -3.239 
0.376809 -0.266769 -3.239 
0.38708 -0.264545 -3.212 
0.400491 -0.264545 -3.212 
0.410423 -0.262322 -3.185 
0.423721 -0.262322 -3.185 
0.43702 -0.262322 -3.185 
0.446642 -0.26018 -3.159 
0.459832 -0.26018 -3.159 
0.473022 -0.26018 -3.159 
0.486212 -0.26018 -3.159 
0.499402 -0.26018 -3.159 
0.512592 -0.26018 -3.159 
0.525782 -0.26018 -3.159 
0.538972 -0.26018 -3.159 
0.552162 -0.26018 -3.159 
0.560699 -0.258039 -3.133 
0.57378 -0.258039 -3.133 
0.586862 -0.258039 -3.133 
0.599943 -0.258039 -3.133 
0.613024 -0.258039 -3.133 
0.626106 -0.258039 -3.133 
0.639187 -0.258039 -3.133 
0.652269 -0.258039 -3.133 
0.659828 -0.255897 -3.107 
0.672801 -0.255897 -3.107 
0.685774 -0.255897 -3.107 
0.698747 -0.255897 -3.107 
0.71172 -0.255897 -3.107 
0.724693 -0.255897 -3.107 
0.737665 -0.255897 -3.107 
0.750638 -0.255897 -3.107 
0.763611 -0.255897 -3.107 
0.776584 -0.255897 -3.107 
0.789557 -0.255897 -3.107 
0.80253 -0.255897 -3.107 
0.815502 -0.255897 -3.107 
0.821809 -0.253838 -3.082 
0.834678 -0.253838 -3.082 
0.840946 -0.251862 -3.058 
0.853714 -0.251862 -3.058 
0.859399 -0.249803 -3.033 
0.872063 -0.249803 -3.033 
0.877726 -0.247826 -3.009 
0.890289 -0.247826 -3.009 
0.895952 -0.245932 -2.986 
0.901422 -0.244037 -2.963 
0.913794 -0.244037 -2.963 
0.918976 -0.242143 -2.94 
0.924283 -0.240331 -2.918 
0.936467 -0.240331 -2.918 
0.941173 -0.238437 -2.895 
0.946346 -0.236707 -2.874 
0.95101 -0.234895 -2.852 
0.955828 -0.233166 -2.831 
0.967648 -0.233166 -2.831 
0.979469 -0.233166 -2.831 
0.983936 -0.231436 -2.81 
0.995669 -0.231436 -2.81 
1.00023 -0.229789 -2.79 
1.01188 -0.229789 -2.79 
1.01619 -0.228142 -2.77 
1.02776 -0.228142 -2.77 
1.03182 -0.226494 -2.75 
1.0433 -0.226494 -2.75 
1.04711 -0.224847 -2.73 
1.05851 -0.224847 -2.73 
1.06246 -0.223282 -2.711 
1.06626 -0.221717 -2.692 
1.0775 -0.221717 -2.692 
1.08105 -0.220152 -2.673 
1.09221 -0.220152 -2.673 
1.09553 -0.218588 -2.654 
1.10661 -0.218588 -2.654 
1.11012 -0.217105 -2.636 
1.11347 -0.215623 -2.618 
1.1244 -0.215623 -2.618 
1.13533 -0.215623 -2.618 
1.14626 -0.215623 -2.618 
1.14923 -0.21414 -2.6 
1.16009 -0.21414 -2.6 
1.17095 -0.21414 -2.6 
1.17362 -0.212658 -2.582 
1.1844 -0.212658 -2.582 
1.19518 -0.212658 -2.582 
1.20596 -0.212658 -2.582 
1.21674 -0.212658 -2.582 
1.22752 -0.212658 -2.582 
1.2383 -0.212658 -2.582 
1.24909 -0.212658 -2.582 
1.25157 -0.211257 -2.565 
1.26228 -0.211257 -2.565 
1.27299 -0.211257 -2.565 
1.2837 -0.211257 -2.565 
1.28583 -0.209857 -2.548 
1.29647 -0.209857 -2.548 
1.29839 -0.208457 -2.531 
1.30068 -0.207139 -2.515 
1.31118 -0.207139 -2.515 
1.32168 -0.207139 -2.515 
1.32318 -0.205739 -2.498 
1.32507 -0.204421 -2.482 
1.33543 -0.204421 -2.482 
1.34579 -0.204421 -2.482 
1.35616 -0.204421 -2.482 
1.36652 -0.204421 -2.482 
1.36801 -0.203104 -2.466 
1.3783 -0.203104 -2.466 
1.37959 -0.201786 -2.45 
1.38982 -0.201786 -2.45 
1.40005 -0.201786 -2.45 
1.41028 -0.201786 -2.45 
1.41123 -0.200468 -2.434 
1.4214 -0.200468 -2.434 
1.42274 -0.199233 -2.419 
1.43284 -0.199233 -2.419 
1.43399 -0.197997 -2.404 
1.44403 -0.197997 -2.404 
1.45406 -0.197997 -2.404 
1.4641 -0.197997 -2.404 
1.47414 -0.197997 -2.404 
1.49344 -0.199233 -2.419 
1.52281 -0.201786 -2.45 
1.54305 -0.203104 -2.466 
1.60486 -0.208457 -2.531 
1.64797 -0.212658 -2.582 
1.75383 -0.224847 -2.73 
1.85834 -0.236707 -2.874 
1.9582 -0.247826 -3.009 
2.54491 -0.317998 -3.861 
2.94774 -0.366015 -4.444 
3.44755 -0.425398 -5.165 
4.07495 -0.499688 -6.067 
4.23477 -0.516078 -6.266 
4.48126 -0.542763 -6.59 
4.75439 -0.572331 -6.949 
4.87221 -0.582955 -7.078 
5.09013 -0.605358 -7.35 
5.22114 -0.617218 -7.494 
5.35757 -0.629572 -7.644 
5.49947 -0.64242 -7.8 
5.76751 -0.669764 -8.132 
6.059 -0.699497 -8.493 
6.23296 -0.715393 -8.686 
6.56803 -0.74949 -9.1 
6.76719 -0.767775 -9.322 
6.97623 -0.786965 -9.555 
7.19602 -0.807143 -9.8 
7.42747 -0.828393 -10.058 
7.27786 -0.807143 -9.8 
7.13581 -0.786965 -9.555 
7.00072 -0.767775 -9.322 
6.872 -0.74949 -9.1 
6.91 -0.74949 -9.1 
7.11749 -0.767775 -9.322 
7.15641 -0.767775 -9.322 
7.56429 -0.807143 -9.8 
7.41508 -0.786965 -9.555 
7.64613 -0.807143 -9.8 
7.88942 -0.828393 -10.058 
7.72796 -0.807143 -9.8 
7.97341 -0.828393 -10.058 
7.8098 -0.807143 -9.8 
7.65445 -0.786965 -9.555 
7.69435 -0.786965 -9.555 
7.54564 -0.767775 -9.322 
7.58456 -0.767775 -9.322 
7.62349 -0.767775 -9.322 
7.66241 -0.767775 -9.322 
7.89382 -0.786965 -9.555 
7.93372 -0.786965 -9.555 
8.17807 -0.807143 -9.8 
8.66348 -0.850795 -10.33 
8.70661 -0.850795 -10.33 
8.74974 -0.850795 -10.33 
9.03717 -0.874433 -10.617 
9.34068 -0.899388 -10.92 
9.38627 -0.899388 -10.92 
9.70912 -0.925826 -11.241 
9.21449 -0.874433 -10.617 
8.54633 -0.807143 -9.8 
8.37257 -0.786965 -9.555 
8.20733 -0.767775 -9.322 
8.04987 -0.74949 -9.1 
7.71991 -0.715393 -8.686 
7.58384 -0.699497 -8.493 
7.14382 -0.655845 -7.963 
7.03016 -0.64242 -7.8 
6.92147 -0.629572 -7.644 
7.24357 -0.655845 -7.963 
7.12786 -0.64242 -7.8 
7.16043 -0.64242 -7.8 
7.193 -0.64242 -7.8 
7.22556 -0.64242 -7.8 
7.25813 -0.64242 -7.8 
7.2907 -0.64242 -7.8 
7.32327 -0.64242 -7.8 
7.35584 -0.64242 -7.8 
7.3884 -0.64242 -7.8 
7.42097 -0.64242 -7.8 
7.45354 -0.64242 -7.8 
7.48611 -0.64242 -7.8 
7.51868 -0.64242 -7.8 
8.22214 -0.699497 -8.493 
8.64166 -0.73203 -8.888 
9.10255 -0.767775 -9.322 
10.4114 -0.874433 -10.617 
12.1417 -1.01544 -12.329 
14.5381 -1.21072 -14.7 
18.0755 -1.49898 -18.2 
19.0591 -1.57393 -19.11 
22.517 -1.85174 -22.483 
25.6249 -2.09857 -25.48 
32.1641 -2.62322 -31.85 
-2.32075 -0.312052 -3.606 
-2.30569 -0.312052 -3.606 
-2.31223 -0.314994 -3.64 
-2.29704 -0.314994 -3.64 
-2.27309 -0.318023 -3.675 
-2.25775 -0.318023 -3.675 
-2.22105 -0.314994 -3.64 
-2.20585 -0.314994 -3.64 
-2.19065 -0.314994 -3.64 
-2.15513 -0.312052 -3.606 
-2.14007 -0.312052 -3.606 
-2.10498 -0.30911 -3.572 
-2.09007 -0.30911 -3.572 
-2.07515 -0.30911 -3.572 
-2.06024 -0.30911 -3.572 
-2.04532 -0.30911 -3.572 
-2.03041 -0.30911 -3.572 
-2.03468 -0.312052 -3.606 
-2.01962 -0.312052 -3.606 
-2.00457 -0.312052 -3.606 
-1.98951 -0.312052 -3.606 
-1.97445 -0.312052 -3.606 
-1.9594 -0.312052 -3.606 
-1.94434 -0.312052 -3.606 
-1.92928 -0.312052 -3.606 
-1.91423 -0.312052 -3.606 
-1.79378 -0.312052 -3.606 
-1.76195 -0.30911 -3.572 
-1.74704 -0.30911 -3.572 
-1.73212 -0.30911 -3.572 
-1.73355 -0.312052 -3.606 
-1.7185 -0.312052 -3.606 
-1.7195 -0.314994 -3.64 
-1.72069 -0.318023 -3.675 
-1.73876 -0.324254 -3.747 
-1.79541 -0.340955 -3.94 
-1.83585 -0.351859 -4.066 
-1.59806 -0.337494 -3.9 
-1.58178 -0.337494 -3.9 
-1.58155 -0.340955 -3.94 
-1.59807 -0.348138 -4.023 
-1.61547 -0.355667 -4.11 
-1.63331 -0.363455 -4.2 
-1.65194 -0.37159 -4.294 
-1.67168 -0.380157 -4.393 
-1.71242 -0.393743 -4.55 
-1.67636 -0.403349 -4.661 
-1.23316 -0.314994 -3.64 
-1.18416 -0.306254 -3.539 
-1.14824 -0.300716 -3.475 
-1.1135 -0.295351 -3.413 
-1.08927 -0.292668 -3.382 
-1.06593 -0.290158 -3.353 
-1.05193 -0.290158 -3.353 
-1.02895 -0.287649 -3.324 
-1.01507 -0.287649 -3.324 
-1.00119 -0.287649 -3.324 
-0.987312 -0.287649 -3.324 
-0.964941 -0.285139 -3.295 
-0.951183 -0.285139 -3.295 
-0.937425 -0.285139 -3.295 
-0.923667 -0.285139 -3.295 
-0.909909 -0.285139 -3.295 
-0.896152 -0.285139 -3.295 
-0.882394 -0.285139 -3.295 
-0.868636 -0.285139 -3.295 
-0.854878 -0.285139 -3.295 
-0.84112 -0.285139 -3.295 
-0.827363 -0.285139 -3.295 
-0.813605 -0.285139 -3.295 
-0.799847 -0.285139 -3.295 
-0.786089 -0.285139 -3.295 
-0.772331 -0.285139 -3.295 
-0.758574 -0.285139 -3.295 
-0.744816 -0.285139 -3.295 
-0.731058 -0.285139 -3.295 
-0.711205 -0.282716 -3.267 
-0.697564 -0.282716 -3.267 
-0.683923 -0.282716 -3.267 
-0.670282 -0.282716 -3.267 
-0.656641 -0.282716 -3.267 
-0.643 -0.282716 -3.267 
-0.629359 -0.282716 -3.267 
-0.610442 -0.280293 -3.239 
-0.596917 -0.280293 -3.239 
-0.583394 -0.280293 -3.239 
-0.565119 -0.277957 -3.212 
-0.551708 -0.277957 -3.212 
-0.538297 -0.277957 -3.212 
-0.524885 -0.277957 -3.212 
-0.27813 -0.26039 -3.009 
-0.265567 -0.26039 -3.009 
-0.253003 -0.26039 -3.009 
-0.240439 -0.26039 -3.009 
-0.226134 -0.258399 -2.986 
-0.215312 -0.26039 -3.009 
-0.202748 -0.26039 -3.009 
-0.190185 -0.26039 -3.009 
-0.177621 -0.26039 -3.009 
-0.165057 -0.26039 -3.009 
-0.15371 -0.262466 -3.033 
-0.141046 -0.262466 -3.033 
-0.129441 -0.26463 -3.058 
-0.116672 -0.26463 -3.058 
-0.103904 -0.26463 -3.058 
-0.0911358 -0.26463 -3.058 
-0.0783676 -0.26463 -3.058 
-0.0661142 -0.266707 -3.082 
-0.0532457 -0.266707 -3.082 
-0.0400629 -0.26463 -3.058 
-0.0275088 -0.266707 -3.082 
-0.0146404 -0.266707 -3.082 
-0.00177193 -0.266707 -3.082 
0.0110965 -0.266707 -3.082 
0.0241594 -0.26887 -3.107 
0.0371322 -0.26887 -3.107 
0.0501051 -0.26887 -3.107 
0.0630779 -0.26887 -3.107 
0.0760507 -0.26887 -3.107 
0.0890236 -0.26887 -3.107 
0.101996 -0.26887 -3.107 
0.114969 -0.26887 -3.107 
0.127942 -0.26887 -3.107 
0.140915 -0.26887 -3.107 
0.156463 -0.27337 -3.159 
0.169653 -0.27337 -3.159 
0.184348 -0.27562 -3.185 
0.197647 -0.27562 -3.185 
0.212733 -0.277957 -3.212 
0.228046 -0.280293 -3.239 
0.243658 -0.282716 -3.267 
0.257299 -0.282716 -3.267 
0.273262 -0.285139 -3.295 
0.287019 -0.285139 -3.295 
0.300777 -0.285139 -3.295 
0.314535 -0.285139 -3.295 
0.328293 -0.285139 -3.295 
0.339144 -0.282716 -3.267 
0.352785 -0.282716 -3.267 
0.366426 -0.282716 -3.267 
0.376809 -0.280293 -3.239 
0.390333 -0.280293 -3.239 
0.400491 -0.277957 -3.212 
0.413902 -0.277957 -3.212 
0.427313 -0.277957 -3.212 
0.43702 -0.27562 -3.185 
0.450318 -0.27562 -3.185 
0.459832 -0.27337 -3.159 
0.473022 -0.27337 -3.159 
0.486212 -0.27337 -3.159 
0.499402 -0.27337 -3.159 
0.512592 -0.27337 -3.159 
0.525782 -0.27337 -3.159 
0.534536 -0.27112 -3.133 
0.547617 -0.27112 -3.133 
0.560699 -0.27112 -3.133 
0.57378 -0.27112 -3.133 
0.586862 -0.27112 -3.133 
0.599943 -0.27112 -3.133 
0.613024 -0.27112 -3.133 
0.62091 -0.26887 -3.107 
0.633883 -0.26887 -3.107 
0.646856 -0.26887 -3.107 
0.659828 -0.26887 -3.107 
0.672801 -0.26887 -3.107 
0.685774 -0.26887 -3.107 
0.698747 -0.26887 -3.107 
0.71172 -0.26887 -3.107 
0.724693 -0.26887 -3.107 
0.737665 -0.26887 -3.107 
0.750638 -0.26887 -3.107 
0.763611 -0.26887 -3.107 
0.776584 -0.26887 -3.107 
0.789557 -0.26887 -3.107 
0.80253 -0.26887 -3.107 
0.815502 -0.26887 -3.107 
0.828475 -0.26887 -3.107 
0.834678 -0.266707 -3.082 
0.840946 -0.26463 -3.058 
0.853714 -0.26463 -3.058 
0.866482 -0.26463 -3.058 
0.872063 -0.262466 -3.033 
0.877726 -0.26039 -3.009 
0.890289 -0.26039 -3.009 
0.902853 -0.26039 -3.009 
0.908419 -0.258399 -2.986 
0.913794 -0.256409 -2.963 
0.918976 -0.254419 -2.94 
0.924283 -0.252515 -2.918 
0.929086 -0.250524 -2.895 
0.934346 -0.248707 -2.874 
0.939102 -0.246803 -2.852 
0.95101 -0.246803 -2.852 
0.955828 -0.244986 -2.831 
0.967648 -0.244986 -2.831 
0.972203 -0.243169 -2.81 
0.983936 -0.243169 -2.81 
0.988582 -0.241438 -2.79 
1.00023 -0.241438 -2.79 
1.00463 -0.239707 -2.77 
1.01619 -0.239707 -2.77 
1.02034 -0.237977 -2.75 
1.03182 -0.237977 -2.75 
1.0433 -0.237977 -2.75 
1.04711 -0.236246 -2.73 
1.05115 -0.234602 -2.711 
1.06246 -0.234602 -2.711 
1.06626 -0.232957 -2.692 
1.0775 -0.232957 -2.692 
1.08105 -0.231313 -2.673 
1.09221 -0.231313 -2.673 
1.09553 -0.229669 -2.654 
1.09911 -0.228111 -2.636 
1.11012 -0.228111 -2.636 
1.12112 -0.228111 -2.636 
1.1244 -0.226554 -2.618 
1.13533 -0.226554 -2.618 
1.13838 -0.224996 -2.6 
1.14923 -0.224996 -2.6 
1.16009 -0.224996 -2.6 
1.17095 -0.224996 -2.6 
1.1818 -0.224996 -2.6 
1.19266 -0.224996 -2.6 
1.19518 -0.223438 -2.582 
1.20596 -0.223438 -2.582 
1.22523 -0.224996 -2.6 
1.22752 -0.223438 -2.582 
1.2383 -0.223438 -2.582 
1.24909 -0.223438 -2.582 
1.25987 -0.223438 -2.582 
1.26228 -0.221967 -2.565 
1.27299 -0.221967 -2.565 
1.2837 -0.221967 -2.565 
1.28583 -0.220496 -2.548 
1.29647 -0.220496 -2.548 
1.29839 -0.219025 -2.531 
1.30896 -0.219025 -2.531 
1.31118 -0.21764 -2.515 
1.32168 -0.21764 -2.515 
1.32318 -0.216169 -2.498 
1.33361 -0.216169 -2.498 
1.33543 -0.214785 -2.482 
1.34579 -0.214785 -2.482 
1.35616 -0.214785 -2.482 
1.36652 -0.214785 -2.482 
1.36801 -0.2134 -2.466 
1.3783 -0.2134 -2.466 
1.37959 -0.212015 -2.45 
1.38982 -0.212015 -2.45 
1.40005 -0.212015 -2.45 
1.40107 -0.210631 -2.434 
1.41123 -0.210631 -2.434 
1.4214 -0.210631 -2.434 
1.42274 -0.209333 -2.419 
1.43284 -0.209333 -2.419 
1.43399 -0.208035 -2.404 
1.44403 -0.208035 -2.404 
1.45406 -0.208035 -2.404 
1.4641 -0.208035 -2.404 
1.47414 -0.208035 -2.404 
1.49344 -0.209333 -2.419 
1.51286 -0.210631 -2.434 
1.54305 -0.2134 -2.466 
1.62641 -0.221967 -2.565 
1.67095 -0.226554 -2.618 
1.79238 -0.241438 -2.79 
1.91589 -0.256409 -2.963 
2.0389 -0.27112 -3.133 
2.624 -0.344503 -3.981 
3.01805 -0.393743 -4.55 
3.49494 -0.453107 -5.236 
4.01114 -0.516798 -5.972 
4.16651 -0.5335 -6.165 
4.40509 -0.560586 -6.478 
4.66955 -0.590614 -6.825 
4.78341 -0.601345 -6.949 
4.99387 -0.624018 -7.211 
5.12082 -0.636046 -7.35 
5.25243 -0.648508 -7.494 
5.28372 -0.648508 -7.494 
5.4214 -0.661488 -7.644 
5.56461 -0.674988 -7.8 
5.71414 -0.689094 -7.963 
5.86937 -0.703718 -8.132 
6.16539 -0.734958 -8.493 
6.34176 -0.75166 -8.686 
6.52635 -0.76914 -8.888 
6.72002 -0.787486 -9.1 
6.75801 -0.787486 -9.1 
6.79601 -0.787486 -9.1 
6.834 -0.787486 -9.1 
7.03965 -0.806697 -9.322 
6.74902 -0.76914 -8.888 
6.78613 -0.76914 -8.888 
6.66816 -0.75166 -8.686 
7.02398 -0.787486 -9.1 
6.89746 -0.76914 -8.888 
6.93457 -0.76914 -8.888 
6.97168 -0.76914 -8.888 
6.8495 -0.75166 -8.686 
6.88577 -0.75166 -8.686 
6.76823 -0.734958 -8.493 
6.9583 -0.75166 -8.686 
6.99457 -0.75166 -8.686 
7.03084 -0.75166 -8.686 
7.23145 -0.76914 -8.888 
7.44194 -0.787486 -9.1 
7.66241 -0.806697 -9.322 
7.70133 -0.806697 -9.322 
7.93372 -0.82686 -9.555 
8.17807 -0.848062 -9.8 
8.66348 -0.893927 -10.33 
8.70661 -0.893927 -10.33 
8.99284 -0.918763 -10.617 
9.03717 -0.918763 -10.617 
9.0815 -0.918763 -10.617 
9.12583 -0.918763 -10.617 
9.43187 -0.944983 -10.92 
9.21449 -0.918763 -10.617 
8.54633 -0.848062 -9.8 
8.1684 -0.806697 -9.322 
8.01187 -0.787486 -9.1 
7.68364 -0.75166 -8.686 
7.38484 -0.719035 -8.309 
7.11057 -0.689094 -7.963 
6.99759 -0.674988 -7.8 
6.75436 -0.648508 -7.494 
6.78565 -0.648508 -7.494 
6.81694 -0.648508 -7.494 
6.84823 -0.648508 -7.494 
6.87952 -0.648508 -7.494 
6.91081 -0.648508 -7.494 
6.9421 -0.648508 -7.494 
6.97339 -0.648508 -7.494 
6.87008 -0.636046 -7.35 
6.90077 -0.636046 -7.35 
6.93146 -0.636046 -7.35 
6.96215 -0.636046 -7.35 
6.99284 -0.636046 -7.35 
7.02353 -0.636046 -7.35 
7.05422 -0.636046 -7.35 
7.08491 -0.636046 -7.35 
7.70904 -0.689094 -7.963 
7.90661 -0.703718 -8.132 
8.48152 -0.75166 -8.686 
9.86322 -0.870388 -10.058 
11.4061 -1.00227 -11.582 
13.4996 -1.18123 -13.65 
16.5043 -1.43807 -16.618 
18.1515 -1.57497 -18.2 
21.2661 -1.83753 -21.234 
24.0238 -2.06719 -23.888 
32.1641 -2.7562 -31.85 
-2.47572 -0.346702 -3.822 
-2.43531 -0.343255 -3.784 
-2.41951 -0.343255 -3.784 
-2.40371 -0.343255 -3.784 
-2.37997 -0.346702 -3.822 
-2.36401 -0.346702 -3.822 
-2.32471 -0.343255 -3.784 
-2.30891 -0.343255 -3.784 
-2.29311 -0.343255 -3.784 
-2.25504 -0.339899 -3.747 
-2.21788 -0.336633 -3.711 
-2.20239 -0.336633 -3.711 
-2.18689 -0.336633 -3.711 
-2.1714 -0.336633 -3.711 
-2.1559 -0.336633 -3.711 
-2.14041 -0.336633 -3.711 
-2.12491 -0.336633 -3.711 
-2.10942 -0.336633 -3.711 
-2.09393 -0.336633 -3.711 
-2.07843 -0.336633 -3.711 
-2.06294 -0.336633 -3.711 
-2.0673 -0.339899 -3.747 
-2.05166 -0.339899 -3.747 
-2.03601 -0.339899 -3.747 
-2.02037 -0.339899 -3.747 
-2.00472 -0.339899 -3.747 
-1.89812 -0.343255 -3.784 
-1.86392 -0.339899 -3.747 
-1.84827 -0.339899 -3.747 
-1.81502 -0.336633 -3.711 
-1.79952 -0.336633 -3.711 
-1.78403 -0.336633 -3.711 
-1.76854 -0.336633 -3.711 
-1.77005 -0.339899 -3.747 
-1.78952 -0.346702 -3.822 
-1.83072 -0.361126 -3.981 
-1.87288 -0.372827 -4.11 
-1.66526 -0.364936 -4.023 
-1.64846 -0.364936 -4.023 
-1.63167 -0.364936 -4.023 
-1.63213 -0.368836 -4.066 
-1.65011 -0.376819 -4.154 
-1.65085 -0.380992 -4.2 
-1.66986 -0.389519 -4.294 
-1.69002 -0.398499 -4.393 
-1.73142 -0.412741 -4.55 
-1.76021 -0.438866 -4.838 
-1.33752 -0.353778 -3.9 
-1.28194 -0.343255 -3.784 
-1.22967 -0.333368 -3.675 
-1.18029 -0.324024 -3.572 
-1.15461 -0.321031 -3.539 
-1.1292 -0.318037 -3.506 
-1.10471 -0.315225 -3.475 
-1.08016 -0.312322 -3.443 
-1.0565 -0.309601 -3.413 
-1.03278 -0.306789 -3.382 
-1.01866 -0.306789 -3.382 
-0.995926 -0.304158 -3.353 
-0.981926 -0.304158 -3.353 
-0.959554 -0.301528 -3.324 
-0.945676 -0.301528 -3.324 
-0.923667 -0.298897 -3.295 
-0.909909 -0.298897 -3.295 
-0.896152 -0.298897 -3.295 
-0.882394 -0.298897 -3.295 
-0.868636 -0.298897 -3.295 
-0.854878 -0.298897 -3.295 
-0.84112 -0.298897 -3.295 
-0.827363 -0.298897 -3.295 
-0.813605 -0.298897 -3.295 
-0.799847 -0.298897 -3.295 
-0.786089 -0.298897 -3.295 
-0.772331 -0.298897 -3.295 
-0.758574 -0.298897 -3.295 
-0.744816 -0.298897 -3.295 
-0.731058 -0.298897 -3.295 
-0.7173 -0.298897 -3.295 
-0.703542 -0.298897 -3.295 
-0.689785 -0.298897 -3.295 
-0.676027 -0.298897 -3.295 
-0.662269 -0.298897 -3.295 
-0.648511 -0.298897 -3.295 
-0.629359 -0.296357 -3.267 
-0.615719 -0.296357 -3.267 
-0.602078 -0.296357 -3.267 
-0.583394 -0.293817 -3.239 
-0.56987 -0.293817 -3.239 
-0.556346 -0.293817 -3.239 
-0.538297 -0.291368 -3.212 
-0.524885 -0.291368 -3.212 
-0.511474 -0.291368 -3.212 
-0.280349 -0.27513 -3.033 
-0.267685 -0.27513 -3.033 
-0.255021 -0.27513 -3.033 
-0.240439 -0.272953 -3.009 
-0.227876 -0.272953 -3.009 
-0.217029 -0.27513 -3.033 
-0.204366 -0.27513 -3.033 
-0.191702 -0.27513 -3.033 
-0.179038 -0.27513 -3.033 
-0.166374 -0.27513 -3.033 
-0.15371 -0.27513 -3.033 
-0.142209 -0.277398 -3.058 
-0.129441 -0.277398 -3.058 
-0.117588 -0.279575 -3.082 
-0.10472 -0.279575 -3.082 
-0.0918511 -0.279575 -3.082 
-0.0789826 -0.279575 -3.082 
-0.0661142 -0.279575 -3.082 
-0.0532457 -0.279575 -3.082 
-0.0403773 -0.279575 -3.082 
-0.0275088 -0.279575 -3.082 
-0.0147591 -0.281843 -3.107 
-0.0017863 -0.281843 -3.107 
0.0111865 -0.281843 -3.107 
0.0243615 -0.284202 -3.133 
0.0374429 -0.284202 -3.133 
0.0505243 -0.284202 -3.133 
0.0641336 -0.28656 -3.159 
0.0773235 -0.28656 -3.159 
0.0897685 -0.284202 -3.133 
0.10285 -0.284202 -3.133 
0.115931 -0.284202 -3.133 
0.129013 -0.284202 -3.133 
0.142094 -0.284202 -3.133 
0.156463 -0.28656 -3.159 
0.169653 -0.28656 -3.159 
0.184348 -0.288919 -3.185 
0.199322 -0.291368 -3.212 
0.214522 -0.293817 -3.239 
0.230017 -0.296357 -3.267 
0.243658 -0.296357 -3.267 
0.257299 -0.296357 -3.267 
0.273262 -0.298897 -3.295 
0.287019 -0.298897 -3.295 
0.300777 -0.298897 -3.295 
0.314535 -0.298897 -3.295 
0.328293 -0.298897 -3.295 
0.342051 -0.298897 -3.295 
0.355809 -0.298897 -3.295 
0.366426 -0.296357 -3.267 
0.380067 -0.296357 -3.267 
0.390333 -0.293817 -3.239 
0.403857 -0.293817 -3.239 
0.417381 -0.293817 -3.239 
0.427313 -0.291368 -3.212 
0.440725 -0.291368 -3.212 
0.450318 -0.288919 -3.185 
0.463617 -0.288919 -3.185 
0.476915 -0.288919 -3.185 
0.486212 -0.28656 -3.159 
0.499402 -0.28656 -3.159 
0.512592 -0.28656 -3.159 
0.521455 -0.284202 -3.133 
0.534536 -0.284202 -3.133 
0.547617 -0.284202 -3.133 
0.560699 -0.284202 -3.133 
0.57378 -0.284202 -3.133 
0.586862 -0.284202 -3.133 
0.599943 -0.284202 -3.133 
0.613024 -0.284202 -3.133 
0.62091 -0.281843 -3.107 
0.633883 -0.281843 -3.107 
0.646856 -0.281843 -3.107 
0.659828 -0.281843 -3.107 
0.672801 -0.281843 -3.107 
0.685774 -0.281843 -3.107 
0.698747 -0.281843 -3.107 
0.71172 -0.281843 -3.107 
0.724693 -0.281843 -3.107 
0.737665 -0.281843 -3.107 
0.750638 -0.281843 -3.107 
0.763611 -0.281843 -3.107 
0.776584 -0.281843 -3.107 
0.789557 -0.281843 -3.107 
0.80253 -0.281843 -3.107 
0.815502 -0.281843 -3.107 
0.828475 -0.281843 -3.107 
0.834678 -0.279575 -3.082 
0.847546 -0.279575 -3.082 
0.853714 -0.277398 -3.058 
0.866482 -0.277398 -3.058 
0.872063 -0.27513 -3.033 
0.884726 -0.27513 -3.033 
0.890289 -0.272953 -3.009 
0.895952 -0.270867 -2.986 
0.908419 -0.270867 -2.986 
0.9067 -0.266694 -2.94 
0.918976 -0.266694 -2.94 
0.916998 -0.262612 -2.895 
0.929086 -0.262612 -2.895 
0.934346 -0.260707 -2.874 
0.939102 -0.258711 -2.852 
0.944007 -0.256806 -2.831 
0.955828 -0.256806 -2.831 
0.96047 -0.254902 -2.81 
0.972203 -0.254902 -2.81 
0.976933 -0.253087 -2.79 
0.988582 -0.253087 -2.79 
0.993061 -0.251273 -2.77 
1.00463 -0.251273 -2.77 
1.00886 -0.249459 -2.75 
1.02034 -0.249459 -2.75 
1.03182 -0.249459 -2.75 
1.03571 -0.247645 -2.73 
1.04711 -0.247645 -2.73 
1.05115 -0.245921 -2.711 
1.06246 -0.245921 -2.711 
1.06626 -0.244197 -2.692 
1.0775 -0.244197 -2.692 
1.08105 -0.242474 -2.673 
1.09221 -0.242474 -2.673 
1.09553 -0.24075 -2.654 
1.10661 -0.24075 -2.654 
1.11012 -0.239118 -2.636 
1.12112 -0.239118 -2.636 
1.13213 -0.239118 -2.636 
1.13533 -0.237485 -2.618 
1.13838 -0.235852 -2.6 
1.14923 -0.235852 -2.6 
1.16009 -0.235852 -2.6 
1.17095 -0.235852 -2.6 
1.1818 -0.235852 -2.6 
1.19266 -0.235852 -2.6 
1.19518 -0.234219 -2.582 
1.20596 -0.234219 -2.582 
1.21674 -0.234219 -2.582 
1.22752 -0.234219 -2.582 
1.2383 -0.234219 -2.582 
1.24909 -0.234219 -2.582 
1.25987 -0.234219 -2.582 
1.26228 -0.232677 -2.565 
1.27299 -0.232677 -2.565 
1.2837 -0.232677 -2.565 
1.28583 -0.231135 -2.548 
1.29647 -0.231135 -2.548 
1.29839 -0.229593 -2.531 
1.30068 -0.228141 -2.515 
1.31118 -0.228141 -2.515 
1.32168 -0.228141 -2.515 
1.32318 -0.226599 -2.498 
1.33361 -0.226599 -2.498 
1.33543 -0.225148 -2.482 
1.34579 -0.225148 -2.482 
1.35616 -0.225148 -2.482 
1.36652 -0.225148 -2.482 
1.36801 -0.223696 -2.466 
1.3783 -0.223696 -2.466 
1.37959 -0.222245 -2.45 
1.38982 -0.222245 -2.45 
1.40005 -0.222245 -2.45 
1.40107 -0.220794 -2.434 
1.41123 -0.220794 -2.434 
1.41264 -0.219433 -2.419 
1.42274 -0.219433 -2.419 
1.43284 -0.219433 -2.419 
1.44294 -0.219433 -2.419 
1.44403 -0.218072 -2.404 
1.45406 -0.218072 -2.404 
1.4641 -0.218072 -2.404 
1.48334 -0.219433 -2.419 
1.5027 -0.220794 -2.434 
1.52281 -0.222245 -2.45 
1.55306 -0.225148 -2.482 
1.63719 -0.234219 -2.582 
1.70606 -0.242474 -2.673 
3.49494 -0.47497 -5.236 
3.94935 -0.533388 -5.88 
4.16651 -0.559241 -6.165 
4.40509 -0.587634 -6.478 
4.58745 -0.608226 -6.705 
4.78341 -0.63036 -6.949 
4.99387 -0.654126 -7.211 
5.12082 -0.666735 -7.35 
5.25243 -0.679798 -7.494 
5.1822 -0.666735 -7.35 
5.31501 -0.679798 -7.494 
5.56461 -0.707556 -7.8 
5.59718 -0.707556 -7.8 
5.74739 -0.722342 -7.963 
5.90332 -0.737672 -8.132 
6.06651 -0.753728 -8.309 
6.23631 -0.770419 -8.493 
6.41429 -0.787927 -8.686 
6.75801 -0.825482 -9.1 
6.79601 -0.825482 -9.1 
7.00072 -0.84562 -9.322 
7.03965 -0.84562 -9.322 
6.91 -0.825482 -9.1 
6.78613 -0.806251 -8.888 
6.66816 -0.787927 -8.686 
6.70443 -0.787927 -8.686 
6.44813 -0.753728 -8.309 
6.34472 -0.737672 -8.132 
6.24612 -0.722342 -7.963 
6.15083 -0.707556 -7.8 
5.94082 -0.679798 -7.494 
5.74658 -0.654126 -7.211 
5.77669 -0.654126 -7.211 
5.91873 -0.666735 -7.35 
5.94942 -0.666735 -7.35 
6.21931 -0.693405 -7.644 
6.5121 -0.722342 -7.963 
6.82975 -0.753728 -8.309 
7.1759 -0.787927 -8.686 
7.3799 -0.806251 -8.888 
7.59392 -0.825482 -9.1 
7.8181 -0.84562 -9.322 
8.2599 -0.88898 -9.8 
8.30082 -0.88898 -9.8 
8.34174 -0.88898 -9.8 
8.38266 -0.88898 -9.8 
8.42358 -0.88898 -9.8 
8.4645 -0.88898 -9.8 
8.50541 -0.88898 -9.8 
8.12948 -0.84562 -9.322 
7.78811 -0.806251 -8.888 
7.47745 -0.770419 -8.493 
7.35015 -0.753728 -8.309 
7.07733 -0.722342 -7.963 
6.96502 -0.707556 -7.8 
6.72307 -0.679798 -7.494 
6.49929 -0.654126 -7.211 
6.5294 -0.654126 -7.211 
6.68595 -0.666735 -7.35 
6.71664 -0.666735 -7.35 
6.74733 -0.666735 -7.35 
6.77802 -0.666735 -7.35 
6.80871 -0.666735 -7.35 
6.71005 -0.654126 -7.211 
6.74016 -0.654126 -7.211 
6.6454 -0.642062 -7.078 
6.67495 -0.642062 -7.078 
6.7045 -0.642062 -7.078 
6.73406 -0.642062 -7.078 
