ply
format ascii 1.0
comment pointcloud saved from Realsense Viewer
element vertex 1963
property float32 x
property float32 y
property float32 z
end_header
-1.49356 0.865673 -1.655 
-1.48665 0.865673 -1.655 
-1.47974 0.865673 -1.655 
-1.46571 0.861489 -1.647 
-1.45883 0.861489 -1.647 
-1.45195 0.861489 -1.647 
-1.44508 0.861489 -1.647 
-1.4382 0.861489 -1.647 
-1.43132 0.861489 -1.647 
-1.43137 0.865673 -1.655 
-1.42446 0.865673 -1.655 
-1.42354 0.869335 -1.662 
-1.42257 0.872996 -1.669 
-1.4156 0.872996 -1.669 
-1.41454 0.876657 -1.676 
-1.41426 0.880842 -1.684 
-1.40723 0.880842 -1.684 
-1.41267 0.888688 -1.699 
-1.41137 0.892349 -1.706 
-1.40424 0.892349 -1.706 
-1.40367 0.896534 -1.714 
-1.40303 0.900718 -1.722 
-1.40152 0.90438 -1.729 
-1.3943 0.90438 -1.729 
-1.3935 0.908564 -1.737 
-1.39263 0.912749 -1.745 
-1.38534 0.912749 -1.745 
-1.38437 0.916933 -1.753 
-1.37706 0.916933 -1.753 
-1.37599 0.921118 -1.761 
-1.36863 0.921118 -1.761 
-1.36747 0.925303 -1.769 
-1.36008 0.925303 -1.769 
-1.35958 0.93001 -1.778 
-1.35215 0.93001 -1.778 
-1.34473 0.93001 -1.778 
-1.3373 0.93001 -1.778 
-1.33586 0.934195 -1.786 
-1.33436 0.938379 -1.794 
-1.33352 0.943087 -1.803 
-1.33188 0.947271 -1.811 
-1.3309 0.951979 -1.82 
-1.3233 0.951979 -1.82 
-1.32871 0.961394 -1.838 
-1.32679 0.965578 -1.846 
-1.32551 0.970286 -1.855 
-1.33126 0.980224 -1.874 
-1.32979 0.984932 -1.883 
-1.32825 0.98964 -1.892 
-1.33361 0.999578 -1.911 
-1.33257 1.00481 -1.921 
-1.33765 1.01475 -1.94 
-1.3364 1.01998 -1.95 
-1.34188 1.03044 -1.97 
-1.34043 1.03567 -1.98 
-1.33956 1.04142 -1.991 
-1.33125 1.04142 -1.991 
-1.32958 1.04665 -2.001 
-1.32849 1.05241 -2.012 
-1.32009 1.05241 -2.012 
-1.3182 1.05764 -2.022 
-1.31689 1.06339 -2.033 
-1.31548 1.06915 -2.044 
-1.31398 1.0749 -2.055 
-1.31238 1.08065 -2.066 
-1.3107 1.08641 -2.077 
-1.30955 1.09268 -2.089 
-1.31515 1.10471 -2.112 
-1.31313 1.11047 -2.123 
-1.31164 1.11674 -2.135 
-1.31737 1.1293 -2.159 
-1.31624 1.1361 -2.172 
-1.31439 1.14237 -2.184 
-1.31304 1.14917 -2.197 
-1.31099 1.15545 -2.209 
-1.30176 1.15545 -2.209 
-1.30015 1.16225 -2.222 
-1.29842 1.16905 -2.235 
-1.28909 1.16905 -2.235 
-1.27976 1.16905 -2.235 
-1.27782 1.17585 -2.248 
-1.26843 1.17585 -2.248 
-1.26688 1.18317 -2.262 
-1.26467 1.18997 -2.275 
-1.26289 1.1973 -2.289 
-1.25333 1.1973 -2.289 
-1.25084 1.2041 -2.302 
-1.24878 1.21142 -2.316 
-1.24713 1.21927 -2.331 
-1.2374 1.21927 -2.331 
-1.22767 1.21927 -2.331 
-1.22525 1.22659 -2.345 
-1.22272 1.23391 -2.359 
-1.22058 1.24176 -2.374 
-1.21067 1.24176 -2.374 
-1.20075 1.24176 -2.374 
-1.19084 1.24176 -2.374 
-1.18093 1.24176 -2.374 
-1.17842 1.2496 -2.389 
-1.16844 1.2496 -2.389 
-1.17301 1.26529 -2.419 
-1.17012 1.27314 -2.434 
-1.16759 1.28151 -2.45 
-1.17247 1.29825 -2.482 
-1.1696 1.30662 -2.498 
-1.18237 1.33277 -2.548 
-1.17955 1.34166 -2.565 
-1.17659 1.35055 -2.582 
-1.18206 1.36938 -2.618 
-1.17918 1.3788 -2.636 
-1.16818 1.3788 -2.636 
-1.16507 1.38822 -2.654 
-1.15399 1.38822 -2.654 
-1.15109 1.39815 -2.673 
-1.13993 1.39815 -2.673 
-1.13679 1.40809 -2.692 
-1.1335 1.41803 -2.711 
-1.13004 1.42797 -2.73 
-1.12684 1.43843 -2.75 
-1.13158 1.45935 -2.79 
-1.12796 1.46981 -2.81 
-1.13291 1.49178 -2.852 
-1.12965 1.50329 -2.874 
-1.13476 1.5263 -2.918 
-1.13989 1.54984 -2.963 
-1.13627 1.56187 -2.986 
-1.13246 1.5739 -3.009 
-1.12883 1.58646 -3.033 
-1.11616 1.58646 -3.033 
-1.1035 1.58646 -3.033 
-1.09983 1.59953 -3.058 
-1.08706 1.59953 -3.058 
-1.07429 1.59953 -3.058 
-1.06152 1.59953 -3.058 
-1.04875 1.59953 -3.058 
-1.03599 1.59953 -3.058 
-1.03125 1.61209 -3.082 
-2.5987 4.99789 -9.555 
-4.38088 8.6923 -16.618 
-6.19767 12.495 -23.888 
0.741615 1.9411 -3.711 
0.787712 2.01956 -3.861 
0.828816 2.08232 -3.981 
0.872834 2.1498 -4.11 
0.909483 2.19687 -4.2 
0.969619 2.29783 -4.393 
1.06128 2.46835 -4.719 
1.1371 2.5965 -4.964 
1.15783 2.5965 -4.964 
1.19399 2.6305 -5.029 
1.23117 2.66554 -5.096 
1.26941 2.70163 -5.165 
1.30872 2.73877 -5.236 
1.33058 2.73877 -5.236 
1.37104 2.77643 -5.308 
1.4331 2.85594 -5.46 
1.47696 2.89726 -5.539 
1.5223 2.94015 -5.621 
2.09292 2.98409 -5.705 
2.08557 2.94015 -5.621 
2.10904 2.94015 -5.621 
2.13251 2.94015 -5.621 
2.15598 2.94015 -5.621 
2.17945 2.94015 -5.621 
2.20292 2.94015 -5.621 
2.22639 2.94015 -5.621 
2.28348 2.98409 -5.705 
2.3073 2.98409 -5.705 
2.33112 2.98409 -5.705 
2.35494 2.98409 -5.705 
2.37876 2.98409 -5.705 
2.40258 2.98409 -5.705 
2.4264 2.98409 -5.705 
2.41415 2.94015 -5.621 
2.43762 2.94015 -5.621 
2.42518 2.89726 -5.539 
2.41339 2.85594 -5.46 
2.36837 2.77643 -5.308 
2.3581 2.73877 -5.236 
2.34769 2.70163 -5.165 
2.30687 2.6305 -5.029 
2.29778 2.5965 -4.964 
2.28862 2.56302 -4.9 
2.27986 2.53059 -4.838 
2.27154 2.49921 -4.778 
2.26319 2.46835 -4.719 
2.28289 2.46835 -4.719 
2.2743 2.43801 -4.661 
2.29376 2.43801 -4.661 
2.28543 2.40872 -4.605 
2.27713 2.37995 -4.55 
2.26938 2.35222 -4.497 
2.26119 2.3245 -4.444 
2.2028 2.24604 -4.294 
2.14832 2.17281 -4.154 
2.09737 2.10429 -4.023 
2.02903 2.01956 -3.861 
1.94663 1.92226 -3.675 
1.88937 1.85113 -3.539 
1.80407 1.75384 -3.353 
1.72698 1.66596 -3.185 
1.67088 1.59953 -3.058 
1.63135 1.54984 -2.963 
1.60599 1.51427 -2.895 
1.58231 1.4808 -2.831 
1.55978 1.44889 -2.77 
1.54866 1.42797 -2.73 
1.5492 1.41803 -2.711 
1.54958 1.40809 -2.692 
1.56082 1.40809 -2.692 
1.57206 1.40809 -2.692 
1.59448 1.41803 -2.711 
1.6289 1.43843 -2.75 
1.6887 1.4808 -2.831 
1.75277 1.5263 -2.918 
1.83452 1.58646 -3.033 
1.93975 1.66596 -3.185 
2.07385 1.76901 -3.382 
2.24726 1.90396 -3.64 
2.44892 2.06088 -3.94 
2.65747 2.22146 -4.247 
2.86606 2.37995 -4.55 
3.02963 2.49921 -4.778 
3.1683 2.5965 -4.964 
3.27382 2.66554 -5.096 
3.33972 2.70163 -5.165 
3.36128 2.70163 -5.165 
3.38285 2.70163 -5.165 
3.40441 2.70163 -5.165 
3.42598 2.70163 -5.165 
3.44755 2.70163 -5.165 
3.46911 2.70163 -5.165 
3.44405 2.66554 -5.096 
3.46532 2.66554 -5.096 
3.44076 2.6305 -5.029 
3.41701 2.5965 -4.964 
3.39342 2.56302 -4.9 
3.37068 2.53059 -4.838 
3.34883 2.49921 -4.778 
3.32718 2.46835 -4.719 
3.30575 2.43801 -4.661 
3.28526 2.40872 -4.605 
3.26502 2.37995 -4.55 
3.28402 2.37995 -4.55 
3.26454 2.35222 -4.497 
3.04286 1.83387 -3.506 
3.03046 1.81765 -3.475 
2.99064 1.78522 -3.413 
2.9776 1.76901 -3.382 
2.94041 1.73867 -3.324 
2.92852 1.7235 -3.295 
2.89227 1.69421 -3.239 
2.88157 1.68009 -3.212 
2.87065 1.66596 -3.185 
2.8604 1.65236 -3.159 
2.84994 1.63876 -3.133 
2.83926 1.62516 -3.107 
2.80726 1.59953 -3.058 
2.79697 1.58646 -3.033 
2.7874 1.5739 -3.009 
2.77856 1.56187 -2.986 
2.76953 1.54984 -2.963 
2.7819 1.54984 -2.963 
2.77258 1.53781 -2.94 
2.76402 1.5263 -2.918 
2.75432 1.51427 -2.895 
2.74634 1.50329 -2.874 
2.75834 1.50329 -2.874 
2.74914 1.49178 -2.852 
2.74071 1.4808 -2.831 
2.73212 1.46981 -2.81 
2.72432 1.45935 -2.79 
2.71636 1.44889 -2.77 
2.72792 1.44889 -2.77 
2.71971 1.43843 -2.75 
2.73119 1.43843 -2.75 
2.72273 1.42797 -2.73 
2.73412 1.42797 -2.73 
2.74552 1.42797 -2.73 
2.73774 1.41803 -2.711 
-1.56266 0.858763 -1.655 
-1.54823 0.854612 -1.647 
-1.54135 0.854612 -1.647 
-1.53448 0.854612 -1.647 
-1.53502 0.858763 -1.655 
-1.52072 0.854612 -1.647 
-1.51385 0.854612 -1.647 
-1.51429 0.858763 -1.655 
-1.50738 0.858763 -1.655 
-1.50047 0.858763 -1.655 
-1.49356 0.858763 -1.655 
-1.48665 0.858763 -1.655 
-1.47974 0.858763 -1.655 
-1.47283 0.858763 -1.655 
-1.46592 0.858763 -1.655 
-1.45901 0.858763 -1.655 
-1.4521 0.858763 -1.655 
-1.44519 0.858763 -1.655 
-1.43828 0.858763 -1.655 
-1.43137 0.858763 -1.655 
-1.42446 0.858763 -1.655 
-1.42354 0.862395 -1.662 
-1.42257 0.866027 -1.669 
-1.4156 0.866027 -1.669 
-1.41454 0.86966 -1.676 
-1.41426 0.873811 -1.684 
-1.40723 0.873811 -1.684 
-1.40602 0.877443 -1.691 
-1.40558 0.881594 -1.699 
-1.40424 0.885226 -1.706 
-1.40367 0.889377 -1.714 
-1.39652 0.889377 -1.714 
-1.39584 0.893528 -1.722 
-1.3943 0.897161 -1.729 
-1.3935 0.901312 -1.737 
-1.39263 0.905463 -1.745 
-1.38534 0.905463 -1.745 
-1.38437 0.909614 -1.753 
-1.37706 0.909614 -1.753 
-1.37599 0.913765 -1.761 
-1.36863 0.913765 -1.761 
-1.36747 0.917916 -1.769 
-1.36008 0.917916 -1.769 
-1.35269 0.917916 -1.769 
-1.35215 0.922586 -1.778 
-1.34473 0.922586 -1.778 
-1.3373 0.922586 -1.778 
-1.33586 0.926737 -1.786 
-1.33436 0.930888 -1.794 
-1.33352 0.935559 -1.803 
-1.32599 0.935559 -1.803 
-1.32432 0.93971 -1.811 
-1.3233 0.94438 -1.82 
-1.32871 0.95372 -1.838 
-1.32679 0.957871 -1.846 
-1.32551 0.962541 -1.855 
-1.32416 0.967211 -1.864 
-1.32979 0.97707 -1.883 
-1.32825 0.98174 -1.892 
-1.33361 0.991599 -1.911 
-1.33881 1.00146 -1.93 
-1.33765 1.00665 -1.94 
-1.3364 1.01184 -1.95 
-1.33507 1.01702 -1.96 
-1.33366 1.02221 -1.97 
-1.33216 1.0274 -1.98 
-1.33125 1.03311 -1.991 
-1.32958 1.0383 -2.001 
-1.32122 1.0383 -2.001 
-1.32009 1.04401 -2.012 
-1.3182 1.0492 -2.022 
-1.30976 1.0492 -2.022 
-1.3084 1.0549 -2.033 
-1.30694 1.06061 -2.044 
-1.31238 1.07203 -2.066 
-1.3107 1.07773 -2.077 
-1.30955 1.08396 -2.089 
-1.30768 1.08967 -2.1 
-1.31313 1.1016 -2.123 
-1.31164 1.10783 -2.135 
-1.31005 1.11406 -2.147 
-1.31624 1.12703 -2.172 
-1.31439 1.13326 -2.184 
-1.32021 1.14623 -2.209 
-1.3187 1.15297 -2.222 
-1.30943 1.15297 -2.222 
-1.30775 1.15972 -2.235 
-1.29842 1.15972 -2.235 
-1.29659 1.16646 -2.248 
-1.2872 1.16646 -2.248 
-1.28577 1.17373 -2.262 
-1.27633 1.17373 -2.262 
-1.27417 1.18047 -2.275 
-1.26467 1.18047 -2.275 
-1.26289 1.18774 -2.289 
-1.26045 1.19448 -2.302 
-1.25084 1.19448 -2.302 
-1.24878 1.20175 -2.316 
-1.23911 1.20175 -2.316 
-1.22944 1.20175 -2.316 
-1.22767 1.20953 -2.331 
-1.22525 1.2168 -2.345 
-1.21546 1.2168 -2.345 
-1.20567 1.2168 -2.345 
-1.20302 1.22406 -2.359 
-1.19317 1.22406 -2.359 
-1.17629 1.2168 -2.345 
-1.17347 1.22406 -2.359 
-1.17102 1.23184 -2.374 
-1.1611 1.23184 -2.374 
-1.16574 1.24741 -2.404 
-1.16291 1.25519 -2.419 
-1.15996 1.26298 -2.434 
-1.16491 1.27958 -2.466 
-1.1696 1.29619 -2.498 
-1.18237 1.32213 -2.548 
-1.17955 1.33095 -2.565 
-1.17659 1.33977 -2.582 
-1.18206 1.35845 -2.618 
-1.17918 1.36779 -2.636 
-1.16818 1.36779 -2.636 
-1.16507 1.37713 -2.654 
-1.15399 1.37713 -2.654 
-1.15109 1.38699 -2.673 
-1.13183 1.37713 -2.654 
-1.12877 1.38699 -2.673 
-1.11761 1.38699 -2.673 
-1.11431 1.39685 -2.692 
-1.11864 1.41657 -2.73 
-1.11536 1.42695 -2.75 
-1.1119 1.43733 -2.77 
-1.11623 1.45808 -2.81 
-1.121 1.47987 -2.852 
-1.12582 1.50219 -2.895 
-1.13104 1.52554 -2.94 
-1.13627 1.54941 -2.986 
-1.13246 1.56134 -3.009 
-1.11989 1.56134 -3.009 
-1.10733 1.56134 -3.009 
-1.1035 1.57379 -3.033 
-1.09084 1.57379 -3.033 
-1.08706 1.58677 -3.058 
-1.08272 1.59922 -3.082 
-1.06152 1.58677 -3.058 
-1.04875 1.58677 -3.058 
-1.03599 1.58677 -3.058 
-1.03125 1.59922 -3.082 
-1.02664 1.61219 -3.107 
-1.02215 1.62568 -3.133 
-1.01744 1.63917 -3.159 
-1.01252 1.65266 -3.185 
-1.01997 1.70974 -3.295 
0.748809 1.94428 -3.747 
0.795669 2.02367 -3.9 
0.846513 2.10981 -4.066 
0.882178 2.15547 -4.154 
0.919661 2.20373 -4.247 
0.980875 2.30595 -4.444 
1.07455 2.47926 -4.778 
1.1371 2.57577 -4.964 
1.17299 2.6095 -5.029 
1.20989 2.64426 -5.096 
1.24784 2.68007 -5.165 
1.28686 2.71691 -5.236 
1.32672 2.75427 -5.308 
1.36794 2.79318 -5.383 
1.4103 2.83314 -5.46 
1.45384 2.87413 -5.539 
1.49883 2.91668 -5.621 
1.54505 2.96027 -5.705 
1.61699 3.05107 -5.88 
1.69375 3.14811 -6.067 
2.141 3.09881 -5.972 
2.10029 3.00489 -5.791 
2.12447 3.00489 -5.791 
2.11674 2.96027 -5.705 
2.14056 2.96027 -5.705 
2.13251 2.91668 -5.621 
2.15598 2.91668 -5.621 
2.17945 2.91668 -5.621 
2.20292 2.91668 -5.621 
2.22639 2.91668 -5.621 
2.24986 2.91668 -5.621 
2.3073 2.96027 -5.705 
2.33112 2.96027 -5.705 
2.35494 2.96027 -5.705 
2.37876 2.96027 -5.705 
2.40258 2.96027 -5.705 
2.4264 2.96027 -5.705 
2.41415 2.91668 -5.621 
2.43762 2.91668 -5.621 
2.39059 2.83314 -5.46 
2.37936 2.79318 -5.383 
2.36837 2.75427 -5.308 
2.3581 2.71691 -5.236 
2.34769 2.68007 -5.165 
2.30687 2.6095 -5.029 
2.29778 2.57577 -4.964 
2.28862 2.54256 -4.9 
2.27986 2.51039 -4.838 
2.27154 2.47926 -4.778 
2.29149 2.47926 -4.778 
2.28289 2.44864 -4.719 
2.2743 2.41855 -4.661 
2.29376 2.41855 -4.661 
2.28543 2.38949 -4.605 
2.30466 2.38949 -4.605 
2.29613 2.36095 -4.55 
2.26119 2.30595 -4.444 
2.2028 2.22811 -4.294 
2.14832 2.15547 -4.154 
2.07547 2.0657 -3.981 
2.02903 2.00343 -3.861 
1.94663 1.90692 -3.675 
1.87175 1.81923 -3.506 
1.80407 1.73984 -3.353 
1.72698 1.65266 -3.185 
1.67088 1.58677 -3.058 
1.64401 1.54941 -2.986 
1.61875 1.51412 -2.918 
1.59405 1.47987 -2.852 
1.58231 1.45808 -2.81 
1.57135 1.43733 -2.77 
1.56006 1.41657 -2.73 
1.57145 1.41657 -2.73 
1.58285 1.41657 -2.73 
1.59425 1.41657 -2.73 
1.61741 1.42695 -2.75 
1.66444 1.45808 -2.81 
1.74059 1.51412 -2.918 
1.82185 1.57379 -3.033 
1.91073 1.63917 -3.159 
2.02441 1.72479 -3.324 
2.17012 1.83635 -3.539 
2.33616 1.96348 -3.784 
2.52724 2.10981 -4.066 
2.71754 2.25354 -4.343 
2.90071 2.38949 -4.605 
3.06768 2.51039 -4.838 
3.20978 2.6095 -5.029 
3.27382 2.64426 -5.096 
3.33972 2.68007 -5.165 
3.36128 2.68007 -5.165 
3.38285 2.68007 -5.165 
3.40441 2.68007 -5.165 
3.42598 2.68007 -5.165 
3.44755 2.68007 -5.165 
3.46911 2.68007 -5.165 
3.44405 2.64426 -5.096 
3.46532 2.64426 -5.096 
3.44076 2.6095 -5.029 
3.46176 2.6095 -5.029 
3.39342 2.54256 -4.9 
3.37068 2.51039 -4.838 
3.34883 2.47926 -4.778 
3.32718 2.44864 -4.719 
3.34688 2.44864 -4.719 
3.32521 2.41855 -4.661 
3.26502 2.36095 -4.55 
3.28402 2.36095 -4.55 
3.26454 2.33345 -4.497 
3.28332 2.33345 -4.497 
3.02717 1.83635 -3.539 
3.04194 1.83635 -3.539 
3.05672 1.83635 -3.539 
3.04286 1.81923 -3.506 
3.03046 1.80314 -3.475 
3.01693 1.78654 -3.443 
2.9776 1.75489 -3.382 
2.96607 1.73984 -3.353 
2.92852 1.70974 -3.295 
2.91727 1.69521 -3.267 
2.90579 1.68068 -3.239 
2.89498 1.66667 -3.212 
2.88395 1.65266 -3.185 
2.87359 1.63917 -3.159 
2.83926 1.61219 -3.107 
2.82929 1.59922 -3.082 
2.79697 1.57379 -3.033 
2.7874 1.56134 -3.009 
2.79996 1.56134 -3.009 
2.79103 1.54941 -2.986 
2.7819 1.53747 -2.963 
2.77258 1.52554 -2.94 
2.76402 1.51412 -2.918 
2.7762 1.51412 -2.918 
2.76641 1.50219 -2.895 
2.75834 1.49129 -2.874 
2.74914 1.47987 -2.852 
2.74071 1.46898 -2.831 
2.73212 1.45808 -2.81 
2.74385 1.45808 -2.81 
2.73597 1.4477 -2.79 
2.72792 1.43733 -2.77 
2.73949 1.43733 -2.77 
2.75105 1.43733 -2.77 
2.74267 1.42695 -2.75 
2.75416 1.42695 -2.75 
2.76564 1.42695 -2.75 
-1.54823 0.847735 -1.647 
-1.54135 0.847735 -1.647 
-1.53448 0.847735 -1.647 
-1.5276 0.847735 -1.647 
-1.52072 0.847735 -1.647 
-1.51385 0.847735 -1.647 
-1.51429 0.851853 -1.655 
-1.50738 0.851853 -1.655 
-1.50047 0.851853 -1.655 
-1.49356 0.851853 -1.655 
-1.48665 0.851853 -1.655 
-1.486 0.855456 -1.662 
-1.47906 0.855456 -1.662 
-1.47212 0.855456 -1.662 
-1.45901 0.851853 -1.655 
-1.4521 0.851853 -1.655 
-1.44519 0.851853 -1.655 
-1.43828 0.851853 -1.655 
-1.43137 0.851853 -1.655 
-1.43048 0.855456 -1.662 
-1.42354 0.855456 -1.662 
-1.42257 0.859059 -1.669 
-1.42154 0.862662 -1.676 
-1.41454 0.862662 -1.676 
-1.41426 0.866779 -1.684 
-1.40723 0.866779 -1.684 
-1.40602 0.870382 -1.691 
-1.40558 0.8745 -1.699 
-1.40424 0.878103 -1.706 
-1.39712 0.878103 -1.706 
-1.39652 0.882221 -1.714 
-1.39584 0.886339 -1.722 
-1.3943 0.889942 -1.729 
-1.38708 0.889942 -1.729 
-1.39263 0.898177 -1.745 
-1.38534 0.898177 -1.745 
-1.38437 0.902295 -1.753 
-1.37706 0.902295 -1.753 
-1.37599 0.906412 -1.761 
-1.37485 0.91053 -1.769 
-1.36747 0.91053 -1.769 
-1.36008 0.91053 -1.769 
-1.35269 0.91053 -1.769 
-1.35215 0.915163 -1.778 
-1.34473 0.915163 -1.778 
-1.34332 0.91928 -1.786 
-1.33586 0.91928 -1.786 
-1.33436 0.923398 -1.794 
-1.33352 0.92803 -1.803 
-1.32599 0.92803 -1.803 
-1.32432 0.932148 -1.811 
-1.3233 0.936781 -1.82 
-1.32871 0.946045 -1.838 
-1.32679 0.950163 -1.846 
-1.32551 0.954796 -1.855 
-1.33126 0.964575 -1.874 
-1.32979 0.969208 -1.883 
-1.32825 0.97384 -1.892 
-1.33361 0.98362 -1.911 
-1.33257 0.988767 -1.921 
-1.33765 0.998546 -1.94 
-1.3364 1.00369 -1.95 
-1.33507 1.00884 -1.96 
-1.33366 1.01399 -1.97 
-1.33216 1.01913 -1.98 
-1.33125 1.0248 -1.991 
-1.32293 1.0248 -1.991 
-1.32122 1.02994 -2.001 
-1.31287 1.02994 -2.001 
-1.31168 1.03561 -2.012 
-1.30976 1.04075 -2.022 
-1.3084 1.04641 -2.033 
-1.30694 1.05208 -2.044 
-1.3054 1.05774 -2.055 
-1.30376 1.0634 -2.066 
-1.30955 1.07524 -2.089 
-1.30768 1.0809 -2.1 
-1.30633 1.08708 -2.112 
-1.31164 1.09892 -2.135 
-1.31005 1.10509 -2.147 
-1.31624 1.11796 -2.172 
-1.31439 1.12414 -2.184 
-1.32021 1.137 -2.209 
-1.3187 1.1437 -2.222 
-1.30943 1.1437 -2.222 
-1.31536 1.15708 -2.248 
-1.30597 1.15708 -2.248 
-1.29659 1.15708 -2.248 
-1.29522 1.16428 -2.262 
-1.29316 1.17098 -2.275 
-1.28366 1.17098 -2.275 
-1.27417 1.17098 -2.275 
-1.27245 1.17818 -2.289 
-1.27006 1.18487 -2.302 
-1.26045 1.18487 -2.302 
-1.25084 1.18487 -2.302 
-1.24123 1.18487 -2.302 
-1.23911 1.19208 -2.316 
-1.22944 1.19208 -2.316 
-1.22767 1.1998 -2.331 
-1.21793 1.1998 -2.331 
-1.2082 1.1998 -2.331 
-1.19847 1.1998 -2.331 
-1.18874 1.1998 -2.331 
-1.179 1.1998 -2.331 
-1.16927 1.1998 -2.331 
-1.1665 1.20701 -2.345 
-1.16362 1.21421 -2.359 
-1.15377 1.21421 -2.359 
-1.15847 1.22965 -2.389 
-1.1557 1.23737 -2.404 
-1.16759 1.26105 -2.45 
-1.16491 1.26929 -2.466 
-1.1696 1.28576 -2.498 
-1.17448 1.30274 -2.531 
-1.17955 1.32024 -2.565 
-1.17659 1.32899 -2.582 
-1.18206 1.34752 -2.618 
-1.17113 1.34752 -2.618 
-1.16818 1.35679 -2.636 
-1.16507 1.36605 -2.654 
-1.15399 1.36605 -2.654 
-1.14291 1.36605 -2.654 
-1.13183 1.36605 -2.654 
-1.12075 1.36605 -2.654 
-1.10967 1.36605 -2.654 
-1.10645 1.37583 -2.673 
-1.10307 1.38561 -2.692 
-1.10725 1.40517 -2.73 
-1.10388 1.41547 -2.75 
-1.10828 1.43605 -2.79 
-1.10449 1.44635 -2.81 
-1.11765 1.47929 -2.874 
-1.12258 1.50194 -2.918 
-1.12752 1.5251 -2.963 
-1.1238 1.53694 -2.986 
-1.11989 1.54878 -3.009 
-1.10733 1.54878 -3.009 
-1.09477 1.54878 -3.009 
-1.09084 1.56113 -3.033 
-1.07817 1.56113 -3.033 
-1.07429 1.574 -3.058 
-1.06152 1.574 -3.058 
-1.04875 1.574 -3.058 
-1.04412 1.58635 -3.082 
-1.03125 1.58635 -3.082 
-1.02664 1.59922 -3.107 
-1.02215 1.6126 -3.133 
-1.01744 1.62598 -3.159 
-1.01252 1.63937 -3.185 
-1.01616 1.66716 -3.239 
-1.01997 1.69598 -3.295 
-1.04225 1.75672 -3.413 
-1.08613 1.85606 -3.606 
-1.11295 1.92864 -3.747 
-1.15383 2.02798 -3.94 
-1.23957 2.21018 -4.294 
-1.31012 2.37026 -4.605 
-1.44787 2.6585 -5.165 
0.756203 1.94768 -3.784 
0.812194 2.04908 -3.981 
0.855673 2.11548 -4.11 
0.882178 2.13812 -4.154 
0.919661 2.18599 -4.247 
0.992573 2.31467 -4.497 
1.07455 2.45931 -4.778 
1.1371 2.55504 -4.964 
1.17299 2.5885 -5.029 
1.22628 2.6585 -5.165 
1.265 2.69505 -5.236 
1.30455 2.73211 -5.308 
1.32672 2.73211 -5.308 
1.36794 2.77071 -5.383 
1.43071 2.851 -5.539 
1.47536 2.89321 -5.621 
1.52123 2.93645 -5.705 
1.56834 2.98071 -5.791 
1.61699 3.02652 -5.88 
1.69375 3.12277 -6.067 
1.74685 3.17322 -6.165 
1.77259 3.17322 -6.165 
1.82779 3.2252 -6.266 
1.85396 3.2252 -6.266 
2.21421 3.33432 -6.478 
2.20389 3.27873 -6.37 
2.19407 3.2252 -6.266 
2.18445 3.17322 -6.165 
2.17506 3.12277 -6.067 
2.16593 3.07388 -5.972 
2.15712 3.02652 -5.88 
2.14865 2.98071 -5.791 
2.14056 2.93645 -5.705 
2.13251 2.89321 -5.621 
2.15598 2.89321 -5.621 
2.17945 2.89321 -5.621 
2.20292 2.89321 -5.621 
2.22639 2.89321 -5.621 
2.24986 2.89321 -5.621 
2.27333 2.89321 -5.621 
2.2968 2.89321 -5.621 
2.35494 2.93645 -5.705 
2.37876 2.93645 -5.705 
2.40258 2.93645 -5.705 
2.39068 2.89321 -5.621 
2.41415 2.89321 -5.621 
2.40206 2.851 -5.539 
2.42518 2.851 -5.539 
2.37936 2.77071 -5.383 
2.36837 2.73211 -5.308 
2.3581 2.69505 -5.236 
2.34769 2.6585 -5.165 
2.30687 2.5885 -5.029 
2.29778 2.55504 -4.964 
2.28862 2.5221 -4.9 
2.27986 2.49019 -4.838 
2.30006 2.49019 -4.838 
2.29149 2.45931 -4.778 
2.28289 2.42894 -4.719 
2.2743 2.39908 -4.661 
2.29376 2.39908 -4.661 
2.28543 2.37026 -4.605 
2.30466 2.37026 -4.605 
2.29613 2.34195 -4.55 
2.28816 2.31467 -4.497 
2.22793 2.23541 -4.343 
2.14832 2.13812 -4.154 
2.07547 2.04908 -3.981 
2.02903 1.98731 -3.861 
1.94663 1.89158 -3.675 
1.87175 1.80459 -3.506 
1.80407 1.72584 -3.353 
1.72698 1.63937 -3.185 
1.67088 1.574 -3.058 
1.64401 1.53694 -2.986 
1.61875 1.50194 -2.918 
1.60634 1.47929 -2.874 
1.58231 1.44635 -2.81 
1.58269 1.43605 -2.79 
1.58291 1.42576 -2.77 
1.58297 1.41547 -2.75 
1.60605 1.42576 -2.77 
1.62929 1.43605 -2.79 
1.6527 1.44635 -2.81 
1.71478 1.4901 -2.895 
1.79487 1.54878 -3.009 
1.89754 1.62598 -3.159 
2.01053 1.71091 -3.324 
2.13525 1.80459 -3.506 
2.32036 1.94768 -3.784 
2.48371 2.0707 -4.023 
2.63974 2.18599 -4.247 
2.8139 2.31467 -4.497 
2.97252 2.42894 -4.719 
3.10699 2.5221 -4.9 
3.20978 2.5885 -5.029 
3.27382 2.62299 -5.096 
3.33972 2.6585 -5.165 
3.36128 2.6585 -5.165 
3.38285 2.6585 -5.165 
3.45121 2.69505 -5.236 
3.47308 2.69505 -5.236 
3.44755 2.6585 -5.165 
3.46911 2.6585 -5.165 
3.49068 2.6585 -5.165 
3.46532 2.62299 -5.096 
3.44076 2.5885 -5.029 
3.41701 2.55504 -4.964 
3.39342 2.5221 -4.9 
3.41388 2.5221 -4.9 
3.39088 2.49019 -4.838 
3.36878 2.45931 -4.778 
3.34688 2.42894 -4.719 
3.32521 2.39908 -4.661 
3.26502 2.34195 -4.55 
3.28402 2.34195 -4.55 
3.26454 2.31467 -4.497 
3.28332 2.31467 -4.497 
3.26318 2.28739 -4.444 
3.28173 2.28739 -4.444 
2.99574 1.83856 -3.572 
3.01065 1.83856 -3.572 
3.02557 1.83856 -3.572 
3.01239 1.82158 -3.539 
3.02717 1.82158 -3.539 
3.04194 1.82158 -3.539 
3.02822 1.80459 -3.506 
3.04286 1.80459 -3.506 
3.03046 1.78863 -3.475 
3.01693 1.77216 -3.443 
3.00489 1.75672 -3.413 
2.96607 1.72584 -3.353 
2.95429 1.71091 -3.324 
2.94228 1.69598 -3.295 
2.90579 1.66716 -3.239 
2.89498 1.65326 -3.212 
2.88395 1.63937 -3.185 
2.87359 1.62598 -3.159 
2.86302 1.6126 -3.133 
2.82929 1.58635 -3.082 
2.82002 1.574 -3.058 
2.80963 1.56113 -3.033 
2.77856 1.53694 -2.986 
2.79103 1.53694 -2.986 
2.7819 1.5251 -2.963 
2.77258 1.51326 -2.94 
2.78486 1.51326 -2.94 
2.7762 1.50194 -2.918 
2.76641 1.4901 -2.895 
2.75834 1.47929 -2.874 
2.74914 1.46797 -2.852 
2.74071 1.45716 -2.831 
2.75253 1.45716 -2.831 
2.74385 1.44635 -2.81 
2.75558 1.44635 -2.81 
2.74762 1.43605 -2.79 
2.75927 1.43605 -2.79 
2.75105 1.42576 -2.77 
2.76262 1.42576 -2.77 
2.77419 1.42576 -2.77 
2.76564 1.41547 -2.75 
2.77712 1.41547 -2.75 
-1.54823 0.840858 -1.647 
-1.54135 0.840858 -1.647 
-1.52795 0.837284 -1.64 
-1.5276 0.840858 -1.647 
-1.52072 0.840858 -1.647 
-1.51385 0.840858 -1.647 
-1.50697 0.840858 -1.647 
-1.50738 0.844942 -1.655 
-1.50047 0.844942 -1.655 
-1.49356 0.844942 -1.655 
-1.49294 0.848516 -1.662 
-1.486 0.848516 -1.662 
-1.47906 0.848516 -1.662 
-1.47212 0.848516 -1.662 
-1.46518 0.848516 -1.662 
-1.45824 0.848516 -1.662 
-1.4513 0.848516 -1.662 
-1.44436 0.848516 -1.662 
-1.43742 0.848516 -1.662 
-1.43048 0.848516 -1.662 
-1.42954 0.85209 -1.669 
-1.42854 0.855664 -1.676 
-1.42154 0.855664 -1.676 
-1.41454 0.855664 -1.676 
-1.41426 0.859748 -1.684 
-1.40723 0.859748 -1.684 
-1.40602 0.863322 -1.691 
-1.40558 0.867406 -1.699 
-1.40424 0.87098 -1.706 
-1.39712 0.87098 -1.706 
-1.39652 0.875064 -1.714 
-1.39584 0.879149 -1.722 
-1.3943 0.882722 -1.729 
-1.38708 0.882722 -1.729 
-1.38624 0.886807 -1.737 
-1.38534 0.890891 -1.745 
-1.37806 0.890891 -1.745 
-1.37706 0.894975 -1.753 
-1.37599 0.89906 -1.761 
-1.37485 0.903144 -1.769 
-1.36747 0.903144 -1.769 
-1.36008 0.903144 -1.769 
-1.35958 0.907739 -1.778 
-1.35215 0.907739 -1.778 
-1.35078 0.911823 -1.786 
-1.34332 0.911823 -1.786 
-1.33586 0.911823 -1.786 
-1.33436 0.915907 -1.794 
-1.33352 0.920502 -1.803 
-1.32599 0.920502 -1.803 
-1.32432 0.924587 -1.811 
-1.3233 0.929181 -1.82 
-1.32871 0.938371 -1.838 
-1.32679 0.942455 -1.846 
-1.32551 0.94705 -1.855 
-1.32416 0.951645 -1.864 
-1.32979 0.961345 -1.883 
-1.32825 0.96594 -1.892 
-1.33361 0.975641 -1.911 
-1.33257 0.980746 -1.921 
-1.33765 0.990446 -1.94 
-1.3364 0.995552 -1.95 
-1.33507 1.00066 -1.96 
-1.33366 1.00576 -1.97 
-1.33216 1.01087 -1.98 
-1.33125 1.01648 -1.991 
-1.32958 1.02159 -2.001 
-1.32122 1.02159 -2.001 
-1.32009 1.0272 -2.012 
-1.31168 1.0272 -2.012 
-1.30976 1.03231 -2.022 
-1.3084 1.03793 -2.033 
-1.30694 1.04354 -2.044 
-1.3054 1.04916 -2.055 
-1.30376 1.05477 -2.066 
-1.30955 1.06652 -2.089 
-1.30768 1.07213 -2.1 
-1.30633 1.07826 -2.112 
-1.30427 1.08387 -2.123 
-1.31005 1.09613 -2.147 
-1.31624 1.10889 -2.172 
-1.32221 1.12165 -2.197 
-1.32021 1.12778 -2.209 
-1.32642 1.14106 -2.235 
-1.31709 1.14106 -2.235 
-1.31536 1.14769 -2.248 
-1.31411 1.15484 -2.262 
-1.31216 1.16148 -2.275 
-1.30266 1.16148 -2.275 
-1.30112 1.16862 -2.289 
-1.28366 1.16148 -2.275 
-1.28201 1.16862 -2.289 
-1.27968 1.17526 -2.302 
-1.27006 1.17526 -2.302 
-1.26045 1.17526 -2.302 
-1.25084 1.17526 -2.302 
-1.24878 1.18241 -2.316 
-1.23911 1.18241 -2.316 
-1.22944 1.18241 -2.316 
-1.21977 1.18241 -2.316 
-1.2101 1.18241 -2.316 
-1.20043 1.18241 -2.316 
-1.19076 1.18241 -2.316 
-1.18109 1.18241 -2.316 
-1.17142 1.18241 -2.316 
-1.16175 1.18241 -2.316 
-1.1665 1.19721 -2.345 
-1.15671 1.19721 -2.345 
-1.15377 1.20436 -2.359 
-1.15847 1.21968 -2.389 
-1.16291 1.23499 -2.419 
-1.15996 1.24265 -2.434 
-1.16491 1.25899 -2.466 
-1.1696 1.27533 -2.498 
-1.18237 1.30085 -2.548 
-1.17955 1.30953 -2.565 
-1.17659 1.31821 -2.582 
-1.18206 1.33659 -2.618 
-1.17113 1.33659 -2.618 
-1.16818 1.34578 -2.636 
-1.17341 1.36467 -2.673 
-1.16225 1.36467 -2.673 
-1.14291 1.35497 -2.654 
-1.13993 1.36467 -2.673 
-1.12075 1.35497 -2.654 
-1.11761 1.36467 -2.673 
-1.10645 1.36467 -2.673 
-1.10307 1.37437 -2.692 
-1.10725 1.39377 -2.73 
-1.09585 1.39377 -2.73 
-1.10034 1.41419 -2.77 
-1.10449 1.43462 -2.81 
-1.10909 1.45606 -2.852 
-1.10565 1.46729 -2.874 
-1.11877 1.50099 -2.94 
-1.11515 1.51273 -2.963 
-1.11133 1.52447 -2.986 
-1.10733 1.53621 -3.009 
-1.09477 1.53621 -3.009 
-1.0822 1.53621 -3.009 
-1.07817 1.54847 -3.033 
-1.06551 1.54847 -3.033 
-1.05284 1.54847 -3.033 
-1.04875 1.56123 -3.058 
-1.03599 1.56123 -3.058 
-1.03125 1.57348 -3.082 
-1.02664 1.58625 -3.107 
-1.02215 1.59952 -3.133 
-1.01744 1.61279 -3.159 
-1.01252 1.62607 -3.185 
-1.01616 1.65364 -3.239 
-1.01997 1.68223 -3.295 
-1.03278 1.72664 -3.382 
-1.05601 1.78995 -3.506 
-1.06097 1.82365 -3.572 
-1.08677 1.89461 -3.711 
-1.13738 2.01152 -3.94 
-1.16929 2.09832 -4.11 
-1.26062 2.2959 -4.497 
0.812194 2.03246 -3.981 
0.855673 2.09832 -4.11 
0.901928 2.16826 -4.247 
0.940449 2.21727 -4.343 
0.992573 2.2959 -4.497 
1.07455 2.43936 -4.778 
1.15199 2.5675 -5.029 
1.18862 2.60171 -5.096 
1.22628 2.63694 -5.165 
1.265 2.67318 -5.236 
1.30455 2.70994 -5.308 
1.34546 2.74823 -5.383 
1.38751 2.78754 -5.46 
1.43071 2.82788 -5.539 
1.47536 2.86974 -5.621 
1.52123 2.91263 -5.705 
1.59244 3.00197 -5.88 
1.64229 3.04894 -5.972 
1.69375 3.09744 -6.067 
1.74685 3.14747 -6.165 
1.77259 3.14747 -6.165 
1.82779 3.19904 -6.266 
1.85396 3.19904 -6.266 
1.91132 3.25214 -6.37 
1.93792 3.25214 -6.37 
1.96452 3.25214 -6.37 
2.02487 3.30727 -6.478 
2.05192 3.30727 -6.478 
2.11491 3.36445 -6.59 
2.14243 3.36445 -6.59 
2.16994 3.36445 -6.59 
2.19746 3.36445 -6.59 
2.18716 3.30727 -6.478 
2.21421 3.30727 -6.478 
2.20389 3.25214 -6.37 
2.23049 3.25214 -6.37 
2.18445 3.14747 -6.165 
2.17506 3.09744 -6.067 
2.16593 3.04894 -5.972 
2.15712 3.00197 -5.88 
2.18167 3.00197 -5.88 
2.17283 2.95653 -5.791 
2.16438 2.91263 -5.705 
2.1882 2.91263 -5.705 
2.21202 2.91263 -5.705 
2.20292 2.86974 -5.621 
2.22639 2.86974 -5.621 
2.24986 2.86974 -5.621 
2.27333 2.86974 -5.621 
2.2968 2.86974 -5.621 
2.32027 2.86974 -5.621 
2.34374 2.86974 -5.621 
2.36721 2.86974 -5.621 
2.39068 2.86974 -5.621 
2.37893 2.82788 -5.539 
2.40206 2.82788 -5.539 
2.39059 2.78754 -5.46 
2.37936 2.74823 -5.383 
2.36837 2.70994 -5.308 
2.3581 2.67318 -5.236 
2.34769 2.63694 -5.165 
2.30687 2.5675 -5.029 
2.29778 2.53432 -4.964 
2.28862 2.50164 -4.9 
2.30908 2.50164 -4.9 
2.30006 2.46999 -4.838 
2.29149 2.43936 -4.778 
2.28289 2.40923 -4.719 
2.3026 2.40923 -4.719 
2.29376 2.37962 -4.661 
2.31322 2.37962 -4.661 
2.30466 2.35103 -4.605 
2.29613 2.32295 -4.55 
2.28816 2.2959 -4.497 
2.22793 2.21727 -4.343 
2.14832 2.12078 -4.154 
2.07547 2.03246 -3.981 
2.00854 1.95128 -3.822 
1.94663 1.87623 -3.675 
1.87175 1.78995 -3.506 
1.80407 1.71184 -3.353 
1.72698 1.62607 -3.185 
1.67088 1.56123 -3.058 
1.64401 1.52447 -2.986 
1.61875 1.48975 -2.918 
1.60634 1.46729 -2.874 
1.59413 1.44534 -2.831 
1.59404 1.43462 -2.81 
1.59434 1.4244 -2.79 
1.60599 1.4244 -2.79 
1.62924 1.43462 -2.81 
1.65323 1.44534 -2.831 
1.7027 1.47801 -2.895 
1.78231 1.53621 -3.009 
1.86884 1.59952 -3.133 
1.97923 1.68223 -3.295 
2.12061 1.78995 -3.506 
2.2601 1.89461 -3.711 
2.44116 2.03246 -3.981 
2.59299 2.14426 -4.2 
2.76218 2.26884 -4.444 
2.91652 2.37962 -4.661 
3.00968 2.43936 -4.778 
3.14757 2.53432 -4.964 
3.20978 2.5675 -5.029 
3.27382 2.60171 -5.096 
3.33972 2.63694 -5.165 
3.36128 2.63694 -5.165 
3.42935 2.67318 -5.236 
3.45121 2.67318 -5.236 
3.47308 2.67318 -5.236 
3.49494 2.67318 -5.236 
3.46911 2.63694 -5.165 
3.49068 2.63694 -5.165 
3.46532 2.60171 -5.096 
3.44076 2.5675 -5.029 
3.41701 2.53432 -4.964 
3.39342 2.50164 -4.9 
3.41388 2.50164 -4.9 
3.39088 2.46999 -4.838 
3.36878 2.43936 -4.778 
3.34688 2.40923 -4.719 
3.32521 2.37962 -4.661 
3.30449 2.35103 -4.605 
3.28402 2.32295 -4.55 
3.26454 2.2959 -4.497 
3.28332 2.2959 -4.497 
3.26318 2.26884 -4.444 
3.28173 2.26884 -4.444 
3.33965 2.2959 -4.497 
2.93851 1.8068 -3.539 
2.98082 1.82365 -3.572 
2.96806 1.8068 -3.539 
2.98284 1.8068 -3.539 
2.99761 1.8068 -3.539 
3.01239 1.8068 -3.539 
3.02717 1.8068 -3.539 
3.01358 1.78995 -3.506 
3.02822 1.78995 -3.506 
3.04286 1.78995 -3.506 
3.03046 1.77412 -3.475 
3.01693 1.75779 -3.443 
3.00489 1.74247 -3.413 
2.99172 1.72664 -3.382 
2.95429 1.69703 -3.324 
2.94228 1.68223 -3.295 
2.93091 1.66793 -3.267 
2.91932 1.65364 -3.239 
2.90839 1.63985 -3.212 
2.89724 1.62607 -3.185 
2.86302 1.59952 -3.133 
2.82929 1.57348 -3.082 
2.82002 1.56123 -3.058 
2.7874 1.53621 -3.009 
2.77856 1.52447 -2.986 
2.79103 1.52447 -2.986 
2.7819 1.51273 -2.963 
2.77258 1.50099 -2.94 
2.76402 1.48975 -2.918 
2.7762 1.48975 -2.918 
2.76641 1.47801 -2.895 
2.75834 1.46729 -2.874 
2.74914 1.45606 -2.852 
2.76104 1.45606 -2.852 
2.75253 1.44534 -2.831 
2.76435 1.44534 -2.831 
2.77618 1.44534 -2.831 
2.76731 1.43462 -2.81 
2.77905 1.43462 -2.81 
2.77092 1.4244 -2.79 
2.78257 1.4244 -2.79 
2.79422 1.4244 -2.79 
2.80587 1.4244 -2.79 
2.79732 1.41419 -2.77 
-1.54165 0.830437 -1.64 
-1.5348 0.830437 -1.64 
-1.52795 0.830437 -1.64 
-1.52111 0.830437 -1.64 
-1.51426 0.830437 -1.64 
-1.51385 0.833981 -1.647 
-1.50697 0.833981 -1.647 
-1.50738 0.838032 -1.655 
-1.50047 0.838032 -1.655 
-1.49356 0.838032 -1.655 
-1.49294 0.841577 -1.662 
-1.486 0.841577 -1.662 
-1.47906 0.841577 -1.662 
-1.47212 0.841577 -1.662 
-1.46518 0.841577 -1.662 
-1.45824 0.841577 -1.662 
-1.4513 0.841577 -1.662 
-1.45044 0.845121 -1.669 
-1.44347 0.845121 -1.669 
-1.43651 0.845121 -1.669 
-1.43553 0.848666 -1.676 
-1.42854 0.848666 -1.676 
-1.42154 0.848666 -1.676 
-1.42129 0.852717 -1.684 
-1.41426 0.852717 -1.684 
-1.40723 0.852717 -1.684 
-1.40602 0.856261 -1.691 
-1.40558 0.860312 -1.699 
-1.40424 0.863857 -1.706 
-1.39712 0.863857 -1.706 
-1.39 0.863857 -1.706 
-1.38936 0.867908 -1.714 
-1.38865 0.871959 -1.722 
-1.38708 0.875503 -1.729 
-1.38624 0.879554 -1.737 
-1.38534 0.883605 -1.745 
-1.37806 0.883605 -1.745 
-1.37077 0.883605 -1.745 
-1.37599 0.891707 -1.761 
-1.36863 0.891707 -1.761 
-1.36747 0.895758 -1.769 
-1.36008 0.895758 -1.769 
-1.35958 0.900315 -1.778 
-1.35215 0.900315 -1.778 
-1.35078 0.904366 -1.786 
-1.34332 0.904366 -1.786 
-1.33586 0.904366 -1.786 
-1.33436 0.908417 -1.794 
-1.33352 0.912974 -1.803 
-1.32599 0.912974 -1.803 
-1.32432 0.917025 -1.811 
-1.3233 0.921582 -1.82 
-1.32221 0.92614 -1.829 
-1.32679 0.934748 -1.846 
-1.32551 0.939305 -1.855 
-1.32416 0.943862 -1.864 
-1.32979 0.953483 -1.883 
-1.32825 0.95804 -1.892 
-1.33361 0.967661 -1.911 
-1.33257 0.972725 -1.921 
-1.33765 0.982346 -1.94 
-1.3364 0.98741 -1.95 
-1.33507 0.992473 -1.96 
-1.33366 0.997537 -1.97 
-1.33216 1.0026 -1.98 
-1.33125 1.00817 -1.991 
-1.32958 1.01323 -2.001 
-1.32122 1.01323 -2.001 
-1.32009 1.0188 -2.012 
-1.3182 1.02387 -2.022 
-1.31689 1.02944 -2.033 
-1.31548 1.03501 -2.044 
-1.31398 1.04058 -2.055 
-1.3054 1.04058 -2.055 
-1.30376 1.04615 -2.066 
-1.30203 1.05172 -2.077 
-1.30768 1.06336 -2.1 
-1.30633 1.06944 -2.112 
-1.30427 1.07501 -2.123 
-1.31005 1.08716 -2.147 
-1.31624 1.09982 -2.172 
-1.32221 1.11248 -2.197 
-1.32798 1.12514 -2.222 
-1.32642 1.13172 -2.235 
-1.32475 1.13831 -2.248 
-1.32355 1.1454 -2.262 
-1.31411 1.1454 -2.262 
-1.31216 1.15198 -2.275 
-1.30266 1.15198 -2.275 
-1.30112 1.15907 -2.289 
-1.29156 1.15907 -2.289 
-1.28201 1.15907 -2.289 
-1.27968 1.16565 -2.302 
-1.27006 1.16565 -2.302 
-1.26045 1.16565 -2.302 
-1.25845 1.17274 -2.316 
-1.24878 1.17274 -2.316 
-1.23911 1.17274 -2.316 
-1.22944 1.17274 -2.316 
-1.21239 1.16565 -2.302 
-1.2101 1.17274 -2.316 
-1.20043 1.17274 -2.316 
-1.18356 1.16565 -2.302 
-1.17395 1.16565 -2.302 
-1.16434 1.16565 -2.302 
-1.16175 1.17274 -2.316 
-1.15954 1.18033 -2.331 
-1.14981 1.18033 -2.331 
-1.15377 1.19451 -2.359 
-1.15847 1.2097 -2.389 
-1.16291 1.22489 -2.419 
-1.15996 1.23249 -2.434 
-1.16491 1.24869 -2.466 
-1.1696 1.2649 -2.498 
-1.18237 1.29022 -2.548 
-1.17955 1.29882 -2.565 
-1.17659 1.30743 -2.582 
-1.18206 1.32566 -2.618 
-1.17113 1.32566 -2.618 
-1.16818 1.33478 -2.636 
-1.16507 1.34389 -2.654 
-1.15399 1.34389 -2.654 
-1.14291 1.34389 -2.654 
-1.13183 1.34389 -2.654 
-1.12877 1.35351 -2.673 
-1.11761 1.35351 -2.673 
-1.11431 1.36313 -2.692 
-1.11086 1.37275 -2.711 
-1.10725 1.38237 -2.73 
-1.09585 1.38237 -2.73 
-1.10034 1.40263 -2.77 
-1.09663 1.41276 -2.79 
-1.10093 1.43352 -2.831 
-1.10565 1.45529 -2.874 
-1.11039 1.47757 -2.918 
-1.10649 1.48871 -2.94 
-1.10277 1.50036 -2.963 
-1.09887 1.512 -2.986 
-1.09477 1.52365 -3.009 
-1.0822 1.52365 -3.009 
-1.07817 1.5358 -3.033 
-1.06551 1.5358 -3.033 
-1.05284 1.5358 -3.033 
-1.04018 1.5358 -3.033 
-1.03599 1.54846 -3.058 
-1.03125 1.56061 -3.082 
-1.01838 1.56061 -3.082 
-1.01367 1.57327 -3.107 
-1.01744 1.5996 -3.159 
-1.01252 1.61277 -3.185 
-1.01616 1.64011 -3.239 
-1.01997 1.66847 -3.295 
-1.01507 1.68315 -3.324 
-1.00993 1.69784 -3.353 
-1.00454 1.71252 -3.382 
-0.999497 1.72822 -3.413 
-1.00314 1.75961 -3.475 
-1.00684 1.79202 -3.539 
0.820763 2.0371 -4.023 
0.864834 2.10344 -4.154 
0.91191 2.17433 -4.294 
0.940449 2.19914 -4.343 
0.992573 2.27712 -4.497 
1.07455 2.41941 -4.778 
1.15199 2.5465 -5.029 
1.18862 2.58043 -5.096 
1.22628 2.61537 -5.165 
1.28239 2.68778 -5.308 
1.32299 2.72576 -5.383 
1.36471 2.76475 -5.46 
1.40758 2.80475 -5.539 
1.45189 2.84627 -5.621 
1.49741 2.88881 -5.705 
1.54416 2.93235 -5.791 
1.59244 2.97742 -5.88 
1.64229 3.02401 -5.972 
1.69375 3.07211 -6.067 
1.74685 3.12173 -6.165 
1.77259 3.12173 -6.165 
1.82779 3.17288 -6.266 
1.85396 3.17288 -6.266 
1.91132 3.22554 -6.37 
1.93792 3.22554 -6.37 
1.96452 3.22554 -6.37 
2.02487 3.28023 -6.478 
2.05192 3.28023 -6.478 
2.11491 3.33694 -6.59 
2.14243 3.33694 -6.59 
2.16994 3.33694 -6.59 
2.19746 3.33694 -6.59 
2.18716 3.28023 -6.478 
2.21421 3.28023 -6.478 
2.24126 3.28023 -6.478 
2.23049 3.22554 -6.37 
2.22023 3.17288 -6.266 
2.21019 3.12173 -6.165 
2.20039 3.07211 -6.067 
2.19087 3.02401 -5.972 
2.18167 2.97742 -5.88 
2.17283 2.93235 -5.791 
2.197 2.93235 -5.791 
2.22118 2.93235 -5.791 
2.21202 2.88881 -5.705 
2.23584 2.88881 -5.705 
2.25966 2.88881 -5.705 
2.24986 2.84627 -5.621 
2.27333 2.84627 -5.621 
2.2968 2.84627 -5.621 
2.32027 2.84627 -5.621 
2.34374 2.84627 -5.621 
2.36721 2.84627 -5.621 
2.39068 2.84627 -5.621 
2.41415 2.84627 -5.621 
2.40206 2.80475 -5.539 
2.39059 2.76475 -5.46 
2.37936 2.72576 -5.383 
2.40183 2.72576 -5.383 
2.3581 2.65132 -5.236 
2.34769 2.61537 -5.165 
2.33761 2.58043 -5.096 
2.32787 2.5465 -5.029 
2.31851 2.51359 -4.964 
2.30908 2.48118 -4.9 
2.32954 2.48118 -4.9 
2.32026 2.44979 -4.838 
2.31144 2.41941 -4.778 
2.3026 2.38953 -4.719 
2.3223 2.38953 -4.719 
2.31322 2.36016 -4.661 
2.30466 2.33181 -4.605 
2.29613 2.30396 -4.55 
2.28816 2.27712 -4.497 
2.22793 2.19914 -4.343 
2.14832 2.10344 -4.154 
2.07547 2.01583 -3.981 
2.00854 1.93532 -3.822 
1.92809 1.84316 -3.64 
1.87175 1.77531 -3.506 
1.80407 1.69784 -3.353 
1.72698 1.61277 -3.185 
1.67088 1.54846 -3.058 
1.64401 1.512 -2.986 
1.61875 1.47757 -2.918 
1.61808 1.46592 -2.895 
1.60596 1.44415 -2.852 
1.61786 1.44415 -2.852 
1.61777 1.43352 -2.831 
1.62959 1.43352 -2.831 
1.65359 1.44415 -2.852 
1.69061 1.46592 -2.895 
1.75622 1.512 -2.986 
1.84036 1.57327 -3.107 
1.94877 1.65429 -3.267 
2.06813 1.74341 -3.443 
2.20166 1.84316 -3.64 
2.37521 1.97482 -3.9 
2.54724 2.10344 -4.154 
2.71214 2.22446 -4.393 
2.86225 2.33181 -4.605 
2.98973 2.41941 -4.778 
3.08653 2.48118 -4.9 
3.14757 2.51359 -4.964 
3.25255 2.58043 -5.096 
3.31815 2.61537 -5.165 
3.33972 2.61537 -5.165 
3.36128 2.61537 -5.165 
3.42935 2.65132 -5.236 
3.45121 2.65132 -5.236 
3.47308 2.65132 -5.236 
3.44755 2.61537 -5.165 
3.46911 2.61537 -5.165 
3.44405 2.58043 -5.096 
3.46532 2.58043 -5.096 
3.44076 2.5465 -5.029 
3.41701 2.51359 -4.964 
3.43774 2.51359 -4.964 
3.41388 2.48118 -4.9 
3.39088 2.44979 -4.838 
3.36878 2.41941 -4.778 
3.34688 2.38953 -4.719 
3.32521 2.36016 -4.661 
3.34467 2.36016 -4.661 
3.28402 2.30396 -4.55 
3.30301 2.30396 -4.55 
3.28332 2.27712 -4.497 
3.30209 2.27712 -4.497 
3.32087 2.27712 -4.497 
3.33965 2.27712 -4.497 
3.35842 2.27712 -4.497 
2.96158 1.84316 -3.64 
2.92116 1.80873 -3.572 
2.96403 1.82595 -3.606 
2.95099 1.80873 -3.572 
2.93851 1.79202 -3.539 
2.92575 1.77531 -3.506 
2.94038 1.77531 -3.506 
2.98284 1.79202 -3.539 
2.99761 1.79202 -3.539 
3.01239 1.79202 -3.539 
3.02717 1.79202 -3.539 
3.01358 1.77531 -3.506 
3.02822 1.77531 -3.506 
3.01595 1.75961 -3.475 
3.03046 1.75961 -3.475 
3.01693 1.74341 -3.443 
3.00489 1.72822 -3.413 
3.01914 1.72822 -3.413 
2.98007 1.69784 -3.353 
2.94228 1.66847 -3.295 
2.93091 1.65429 -3.267 
2.91932 1.64011 -3.239 
2.90839 1.62644 -3.212 
2.89724 1.61277 -3.185 
2.86302 1.58644 -3.133 
2.85224 1.57327 -3.107 
2.84216 1.56061 -3.082 
2.80963 1.5358 -3.033 
2.79996 1.52365 -3.009 
2.79103 1.512 -2.986 
2.7819 1.50036 -2.963 
2.77258 1.48871 -2.94 
2.76402 1.47757 -2.918 
2.7762 1.47757 -2.918 
2.76641 1.46592 -2.895 
2.75834 1.45529 -2.874 
2.74914 1.44415 -2.852 
2.78234 1.45529 -2.874 
2.77295 1.44415 -2.852 
2.78486 1.44415 -2.852 
2.77618 1.43352 -2.831 
2.788 1.43352 -2.831 
2.77905 1.42288 -2.81 
2.79078 1.42288 -2.81 
2.80251 1.42288 -2.81 
2.81425 1.42288 -2.81 
2.82598 1.42288 -2.81 
2.79732 1.40263 -2.77 
-1.5485 0.823589 -1.64 
-1.53507 0.820074 -1.633 
-1.5348 0.823589 -1.64 
-1.52143 0.820074 -1.633 
-1.52111 0.823589 -1.64 
-1.51426 0.823589 -1.64 
-1.50741 0.823589 -1.64 
-1.50697 0.827105 -1.647 
-1.50009 0.827105 -1.647 
-1.49322 0.827105 -1.647 
-1.49356 0.831122 -1.655 
-1.48665 0.831122 -1.655 
-1.47974 0.831122 -1.655 
-1.47283 0.831122 -1.655 
-1.47212 0.834637 -1.662 
-1.46518 0.834637 -1.662 
-1.45824 0.834637 -1.662 
-1.45741 0.838153 -1.669 
-1.45044 0.838153 -1.669 
-1.44347 0.838153 -1.669 
-1.44253 0.841668 -1.676 
-1.43553 0.841668 -1.676 
-1.42854 0.841668 -1.676 
-1.42832 0.845685 -1.684 
-1.42129 0.845685 -1.684 
-1.41426 0.845685 -1.684 
-1.40723 0.845685 -1.684 
-1.40602 0.849201 -1.691 
-1.40558 0.853218 -1.699 
-1.39848 0.853218 -1.699 
-1.39712 0.856734 -1.706 
-1.39 0.856734 -1.706 
-1.38936 0.860751 -1.714 
-1.3822 0.860751 -1.714 
-1.38708 0.868284 -1.729 
-1.37986 0.868284 -1.729 
-1.37899 0.872301 -1.737 
-1.37806 0.876319 -1.745 
-1.37077 0.876319 -1.745 
-1.36974 0.880337 -1.753 
-1.36863 0.884354 -1.761 
-1.36747 0.888371 -1.769 
-1.36008 0.888371 -1.769 
-1.35958 0.892891 -1.778 
-1.35215 0.892891 -1.778 
-1.34473 0.892891 -1.778 
-1.34332 0.896909 -1.786 
-1.34185 0.900926 -1.794 
-1.33436 0.900926 -1.794 
-1.33352 0.905446 -1.803 
-1.33188 0.909463 -1.811 
-1.3309 0.913983 -1.82 
-1.3233 0.913983 -1.82 
-1.32221 0.918503 -1.829 
-1.32679 0.92704 -1.846 
-1.32551 0.93156 -1.855 
-1.32416 0.936079 -1.864 
-1.32344 0.941101 -1.874 
-1.32825 0.950141 -1.892 
-1.32733 0.955163 -1.902 
-1.33257 0.964704 -1.921 
-1.33075 0.969224 -1.93 
-1.3364 0.979268 -1.95 
-1.33507 0.984289 -1.96 
-1.33366 0.989311 -1.97 
-1.33216 0.994333 -1.98 
-1.33125 0.999857 -1.991 
-1.32958 1.00488 -2.001 
-1.32122 1.00488 -2.001 
-1.32009 1.0104 -2.012 
-1.3182 1.01543 -2.022 
-1.31689 1.02095 -2.033 
-1.3084 1.02095 -2.033 
-1.30694 1.02647 -2.044 
-1.3054 1.032 -2.055 
-1.3107 1.04305 -2.077 
-1.30955 1.04907 -2.089 
-1.30768 1.0546 -2.1 
-1.31313 1.06615 -2.123 
-1.31164 1.07217 -2.135 
-1.31005 1.0782 -2.147 
-1.31624 1.09075 -2.172 
-1.32221 1.10331 -2.197 
-1.32798 1.11586 -2.222 
-1.32642 1.12239 -2.235 
-1.32475 1.12892 -2.248 
-1.32355 1.13595 -2.262 
-1.32166 1.14248 -2.275 
-1.32024 1.14951 -2.289 
-1.31068 1.14951 -2.289 
-1.30112 1.14951 -2.289 
-1.29156 1.14951 -2.289 
-1.28201 1.14951 -2.289 
-1.27968 1.15604 -2.302 
-1.27006 1.15604 -2.302 
-1.26812 1.16307 -2.316 
-1.25845 1.16307 -2.316 
-1.24123 1.15604 -2.302 
-1.23162 1.15604 -2.302 
-1.22201 1.15604 -2.302 
-1.21239 1.15604 -2.302 
-1.19599 1.14951 -2.289 
-1.18643 1.14951 -2.289 
-1.17688 1.14951 -2.289 
-1.16732 1.14951 -2.289 
-1.16434 1.15604 -2.302 
-1.15472 1.15604 -2.302 
-1.15208 1.16307 -2.316 
-1.14981 1.1706 -2.331 
-1.14692 1.17763 -2.345 
-1.15847 1.19973 -2.389 
-1.16291 1.21479 -2.419 
-1.15996 1.22233 -2.434 
-1.16491 1.2384 -2.466 
-1.1696 1.25447 -2.498 
-1.17448 1.27104 -2.531 
-1.17955 1.28811 -2.565 
-1.17659 1.29665 -2.582 
-1.17394 1.30569 -2.6 
-1.17113 1.31473 -2.618 
-1.16818 1.32377 -2.636 
-1.16507 1.33281 -2.654 
-1.15399 1.33281 -2.654 
-1.14291 1.33281 -2.654 
-1.13183 1.33281 -2.654 
-1.12877 1.34235 -2.673 
-1.12555 1.35189 -2.692 
-1.11431 1.35189 -2.692 
-1.11086 1.36143 -2.711 
-1.10725 1.37097 -2.73 
-1.09585 1.37097 -2.73 
-1.09239 1.38102 -2.75 
-1.09663 1.40111 -2.79 
-1.09276 1.41115 -2.81 
-1.09719 1.43224 -2.852 
-1.10164 1.45384 -2.895 
-1.09821 1.46539 -2.918 
-1.10277 1.48798 -2.963 
-1.09887 1.49953 -2.986 
-1.09477 1.51109 -3.009 
-1.0822 1.51109 -3.009 
-1.06964 1.51109 -3.009 
-1.06551 1.52314 -3.033 
-1.05284 1.52314 -3.033 
-1.04018 1.52314 -3.033 
-1.03599 1.53569 -3.058 
-1.03125 1.54775 -3.082 
-1.02664 1.5603 -3.107 
-1.01367 1.5603 -3.107 
-1.01744 1.58641 -3.159 
-1.0211 1.61303 -3.212 
-1.01616 1.62659 -3.239 
-1.01997 1.65471 -3.295 
-1.01507 1.66927 -3.324 
-1.00993 1.68384 -3.353 
-1.00454 1.6984 -3.382 
-0.999497 1.71397 -3.413 
0.829536 2.0419 -4.066 
0.874411 2.10919 -4.2 
0.91191 2.1564 -4.294 
0.940449 2.181 -4.343 
0.992573 2.25834 -4.497 
1.08804 2.42959 -4.838 
1.15199 2.52551 -5.029 
1.20471 2.5938 -5.165 
1.24313 2.62946 -5.236 
1.28239 2.66562 -5.308 
1.32299 2.70328 -5.383 
1.36471 2.74195 -5.46 
1.42842 2.8228 -5.621 
1.47359 2.86499 -5.705 
1.51998 2.90817 -5.791 
1.56789 2.95287 -5.88 
1.59244 2.95287 -5.88 
1.66842 3.04678 -6.067 
1.69375 3.04678 -6.067 
1.74685 3.09599 -6.165 
1.77259 3.09599 -6.165 
1.79833 3.09599 -6.165 
1.85396 3.14671 -6.266 
1.91132 3.19894 -6.37 
1.93792 3.19894 -6.37 
1.96452 3.19894 -6.37 
1.99111 3.19894 -6.37 
2.05192 3.25318 -6.478 
2.07897 3.25318 -6.478 
2.14243 3.30942 -6.59 
2.16994 3.30942 -6.59 
2.19746 3.30942 -6.59 
2.18716 3.25318 -6.478 
2.21421 3.25318 -6.478 
2.24126 3.25318 -6.478 
2.23049 3.19894 -6.37 
2.25709 3.19894 -6.37 
2.2464 3.14671 -6.266 
2.23593 3.09599 -6.165 
2.22572 3.04678 -6.067 
2.2158 2.99907 -5.972 
2.24074 2.99907 -5.972 
2.23077 2.95287 -5.88 
2.25532 2.95287 -5.88 
2.24536 2.90817 -5.791 
2.23584 2.86499 -5.705 
2.25966 2.86499 -5.705 
2.28348 2.86499 -5.705 
2.3073 2.86499 -5.705 
2.2968 2.8228 -5.621 
2.32027 2.8228 -5.621 
2.34374 2.8228 -5.621 
2.36721 2.8228 -5.621 
2.39068 2.8228 -5.621 
2.41415 2.8228 -5.621 
2.40206 2.78162 -5.539 
2.39059 2.74195 -5.46 
2.37936 2.70328 -5.383 
2.40183 2.70328 -5.383 
2.39053 2.66562 -5.308 
2.34769 2.5938 -5.165 
2.33761 2.55915 -5.096 
2.32787 2.52551 -5.029 
2.34887 2.52551 -5.029 
2.33924 2.49286 -4.964 
2.32954 2.46072 -4.9 
2.32026 2.42959 -4.838 
2.31144 2.39946 -4.778 
2.33139 2.39946 -4.778 
2.3223 2.36983 -4.719 
2.31322 2.3407 -4.661 
2.33268 2.3407 -4.661 
2.32388 2.31258 -4.605 
2.28816 2.25834 -4.497 
2.25358 2.20611 -4.393 
2.14832 2.08609 -4.154 
2.07547 1.99921 -3.981 
2.00854 1.91936 -3.822 
1.92809 1.82797 -3.64 
1.8552 1.74511 -3.475 
1.78847 1.66927 -3.324 
1.72698 1.59947 -3.185 
1.67088 1.53569 -3.058 
1.64401 1.49953 -2.986 
1.63096 1.47643 -2.94 
1.61808 1.45384 -2.895 
1.61834 1.44329 -2.874 
1.63034 1.44329 -2.874 
1.62977 1.43224 -2.852 
1.65434 1.44329 -2.874 
1.67852 1.45384 -2.895 
1.73032 1.48798 -2.963 
1.79856 1.53569 -3.058 
1.91854 1.62659 -3.239 
2.03586 1.71397 -3.413 
2.16604 1.81089 -3.606 
2.31174 1.91936 -3.822 
2.5031 2.06399 -4.11 
2.66314 2.181 -4.343 
2.80907 2.28496 -4.55 
2.93311 2.36983 -4.719 
3.06607 2.46072 -4.9 
3.12684 2.49286 -4.964 
3.18879 2.52551 -5.029 
3.25255 2.55915 -5.096 
3.31815 2.5938 -5.165 
3.33972 2.5938 -5.165 
3.36128 2.5938 -5.165 
3.42935 2.62946 -5.236 
3.40441 2.5938 -5.165 
3.42598 2.5938 -5.165 
3.44755 2.5938 -5.165 
3.46911 2.5938 -5.165 
3.49068 2.5938 -5.165 
3.46532 2.55915 -5.096 
3.44076 2.52551 -5.029 
3.46176 2.52551 -5.029 
3.43774 2.49286 -4.964 
3.41388 2.46072 -4.9 
3.39088 2.42959 -4.838 
3.36878 2.39946 -4.778 
3.34688 2.36983 -4.719 
3.36659 2.36983 -4.719 
3.34467 2.3407 -4.661 
3.32371 2.31258 -4.605 
3.30301 2.28496 -4.55 
3.28332 2.25834 -4.497 
3.34101 2.28496 -4.55 
3.32087 2.25834 -4.497 
3.33965 2.25834 -4.497 
3.35842 2.25834 -4.497 
3.3374 2.23173 -4.444 
3.31744 2.20611 -4.393 
2.97286 1.86362 -3.711 
2.98835 1.86362 -3.711 
2.94638 1.82797 -3.64 
2.93391 1.81089 -3.606 
2.94897 1.81089 -3.606 
2.93608 1.79382 -3.572 
2.92373 1.77725 -3.539 
2.91111 1.76067 -3.506 
2.92575 1.76067 -3.506 
2.94038 1.76067 -3.506 
2.95502 1.76067 -3.506 
2.96966 1.76067 -3.506 
3.01239 1.77725 -3.539 
2.99894 1.76067 -3.506 
3.01358 1.76067 -3.506 
3.00144 1.74511 -3.475 
3.01595 1.74511 -3.475 
3.03046 1.74511 -3.475 
3.01693 1.72904 -3.443 
3.00489 1.71397 -3.413 
3.01914 1.71397 -3.413 
2.98007 1.68384 -3.353 
2.96817 1.66927 -3.324 
2.95603 1.65471 -3.295 
2.91932 1.62659 -3.239 
2.90839 1.61303 -3.212 
2.89724 1.59947 -3.185 
2.86302 1.57336 -3.133 
2.85224 1.5603 -3.107 
2.84216 1.54775 -3.082 
2.80963 1.52314 -3.033 
2.79996 1.51109 -3.009 
2.79103 1.49953 -2.986 
2.7819 1.48798 -2.963 
2.77258 1.47643 -2.94 
2.78486 1.47643 -2.94 
2.7762 1.46539 -2.918 
2.76641 1.45384 -2.895 
2.75834 1.44329 -2.874 
2.79059 1.45384 -2.895 
2.78234 1.44329 -2.874 
2.79434 1.44329 -2.874 
2.78486 1.43224 -2.852 
2.79677 1.43224 -2.852 
2.788 1.4217 -2.831 
2.82059 1.43224 -2.852 
2.81164 1.4217 -2.831 
2.82346 1.4217 -2.831 
2.83528 1.4217 -2.831 
2.8471 1.4217 -2.831 
-1.53507 0.813256 -1.633 
-1.52825 0.813256 -1.633 
-1.52143 0.813256 -1.633 
-1.51461 0.813256 -1.633 
-1.5078 0.813256 -1.633 
-1.50098 0.813256 -1.633 
-1.50056 0.816742 -1.64 
-1.49372 0.816742 -1.64 
-1.49322 0.820228 -1.647 
-1.48634 0.820228 -1.647 
-1.47946 0.820228 -1.647 
-1.47974 0.824212 -1.655 
-1.47283 0.824212 -1.655 
-1.47212 0.827698 -1.662 
-1.46518 0.827698 -1.662 
-1.45824 0.827698 -1.662 
-1.45741 0.831184 -1.669 
-1.45044 0.831184 -1.669 
-1.44953 0.83467 -1.676 
-1.44253 0.83467 -1.676 
-1.43553 0.83467 -1.676 
-1.43535 0.838654 -1.684 
-1.42832 0.838654 -1.684 
-1.42129 0.838654 -1.684 
-1.41426 0.838654 -1.684 
-1.40723 0.838654 -1.684 
-1.40602 0.84214 -1.691 
-1.40558 0.846124 -1.699 
-1.39848 0.846124 -1.699 
-1.39712 0.84961 -1.706 
-1.39 0.84961 -1.706 
-1.38287 0.84961 -1.706 
-1.3822 0.853595 -1.714 
-1.38146 0.857579 -1.722 
-1.37986 0.861065 -1.729 
-1.37264 0.861065 -1.729 
-1.37174 0.865049 -1.737 
-1.37077 0.869033 -1.745 
-1.36974 0.873017 -1.753 
-1.36242 0.873017 -1.753 
-1.36128 0.877001 -1.761 
-1.36008 0.880985 -1.769 
-1.35958 0.885467 -1.778 
-1.35215 0.885467 -1.778 
-1.34473 0.885467 -1.778 
-1.34332 0.889452 -1.786 
-1.34185 0.893436 -1.794 
-1.33436 0.893436 -1.794 
-1.33352 0.897918 -1.803 
-1.32599 0.897918 -1.803 
-1.32432 0.901902 -1.811 
-1.3233 0.906384 -1.82 
-1.32221 0.910866 -1.829 
