ply
format ascii 1.0
comment pointcloud saved from Realsense Viewer
element vertex 1806
property float32 x
property float32 y
property float32 z
end_header
1.50162 2.02200 -0.65620 
1.51176 1.98000 -0.64257 
1.52880 1.97000 -0.63933 
1.57790 1.98000 -0.64257 
1.95946 2.30200 -0.74707 
2.03753 2.35900 -0.76557 
2.17015 2.41900 -0.78504 
2.18681 2.40400 -0.78018 
2.22304 2.38900 -0.77531 
2.29722 2.40400 -0.78018 
2.34741 2.40400 -0.78018 
-2.05303 2.18400 -0.71790 
-1.99640 2.17200 -0.71395 
-1.99831 2.18400 -0.71790 
-1.95517 2.19700 -0.72217 
-1.94958 2.22200 -0.73039 
-1.91433 2.23500 -0.73466 
-1.91608 2.24800 -0.73894 
-1.90669 2.24800 -0.73894 
-1.66771 2.12300 -0.69785 
-1.55516 2.00100 -0.65774 
-1.50738 1.95000 -0.64098 
-1.34473 1.77800 -0.58444 
-1.31850 1.75300 -0.57623 
-1.30386 1.75300 -0.57623 
-1.37498 1.90200 -0.62520 
-1.43770 2.01200 -0.66136 
-1.52878 2.34500 -0.77082 
-1.51821 2.35900 -0.77542 
-1.45771 2.38900 -0.78528 
-1.43776 2.38900 -0.78528 
-1.41781 2.38900 -0.78528 
-1.32452 2.41900 -0.79514 
-1.29422 2.41900 -0.79514 
-1.24371 2.41900 -0.79514 
-1.18029 2.43400 -0.80007 
-1.14980 2.43400 -0.80007 
-1.10915 2.43400 -0.80007 
-1.10621 2.45000 -0.80533 
-1.06529 2.45000 -0.80533 
-0.94253 2.45000 -0.80533 
-0.89267 2.48200 -0.81585 
-0.88230 2.48200 -0.81585 
-0.85670 2.49800 -0.82111 
-0.85203 2.51500 -0.82670 
-0.81002 2.51500 -0.82670 
-0.77852 2.51500 -0.82670 
-0.67456 2.60000 -0.85464 
-0.61975 2.69200 -0.88488 
-0.59727 2.69200 -0.88488 
-0.57885 2.71100 -0.89113 
-0.46565 2.71100 -0.89113 
-0.45433 2.71100 -0.89113 
-0.27350 2.83100 -0.93057 
-0.26168 2.83100 -0.93057 
-0.22622 2.83100 -0.93057 
-0.16711 2.83100 -0.93057 
-0.15529 2.83100 -0.93057 
-0.13165 2.83100 -0.93057 
0.10767 2.37400 -0.78035 
0.11684 2.35900 -0.77542 
0.13405 2.31600 -0.76129 
0.15438 2.33100 -0.76622 
0.37659 2.51500 -0.82670 
0.42159 2.30200 -0.75669 
0.42734 2.18400 -0.71790 
0.43114 1.99100 -0.65446 
0.69927 2.58200 -0.84872 
0.85940 3.03300 -0.99697 
0.98604 3.03300 -0.99697 
1.01970 3.05800 -1.00519 
1.10090 3.10700 -1.02129 
1.12685 3.10700 -1.02129 
1.16244 3.13300 -1.02984 
1.18861 3.13300 -1.02984 
1.39632 3.15900 -1.03839 
1.46101 3.18500 -1.04693 
1.65874 3.10700 -1.02129 
1.33735 2.05500 -0.67549 
1.34594 2.05500 -0.67549 
1.36310 2.05500 -0.67549 
1.49235 2.04400 -0.67188 
1.50162 2.02200 -0.66465 
1.64560 2.03300 -0.66826 
1.75491 2.13500 -0.70179 
1.79439 2.17200 -0.71395 
2.18681 2.40400 -0.79021 
2.19311 2.38900 -0.78528 
2.20309 2.38900 -0.78528 
2.35195 2.41900 -0.79514 
2.35271 2.38900 -0.78528 
-2.03479 2.18400 -0.72702 
-2.00547 2.17200 -0.72302 
-1.96013 2.17200 -0.72302 
-1.93682 2.19700 -0.73134 
-1.83034 2.23500 -0.74399 
-1.65907 2.11200 -0.70305 
-1.60571 2.05500 -0.68408 
-1.55516 2.00100 -0.66610 
-1.41157 1.84600 -0.61450 
-1.47547 2.07700 -0.69140 
-1.53324 2.18400 -0.72702 
-1.57756 2.31600 -0.77096 
-1.52878 2.34500 -0.78061 
-1.40784 2.38900 -0.79526 
-1.38789 2.38900 -0.79526 
-1.37653 2.40400 -0.80025 
-1.35645 2.40400 -0.80025 
-1.32452 2.41900 -0.80524 
-1.28411 2.41900 -0.80524 
-1.27401 2.41900 -0.80524 
-1.08575 2.45000 -0.81556 
-1.07552 2.45000 -0.81556 
-0.99368 2.45000 -0.81556 
-0.86713 2.49800 -0.83154 
-0.84627 2.49800 -0.83154 
-0.68067 2.58200 -0.85950 
-0.49261 2.67300 -0.88980 
-0.40346 2.75000 -0.91543 
-0.35360 2.81000 -0.93540 
-0.21440 2.83100 -0.94239 
-0.17893 2.83100 -0.94239 
-0.15645 2.85200 -0.94938 
0.00855 2.37400 -0.79026 
0.03853 2.38900 -0.79526 
0.04881 2.40400 -0.80025 
0.08840 2.38900 -0.79526 
0.15339 2.31600 -0.77096 
0.16412 2.33100 -0.77595 
0.17594 2.35900 -0.78527 
0.40534 2.49800 -0.83154 
0.43732 2.23500 -0.74399 
0.43491 2.08900 -0.69539 
0.44004 1.92100 -0.63947 
0.47213 1.92100 -0.63947 
0.51383 2.02200 -0.67309 
0.87925 3.05800 -1.01796 
0.89202 3.05800 -1.01796 
0.94309 3.05800 -1.01796 
1.15280 3.10700 -1.03427 
1.21477 3.13300 -1.04292 
1.28252 3.10700 -1.03427 
1.39632 3.15900 -1.05158 
1.40951 3.15900 -1.05158 
1.44771 3.18500 -1.06023 
1.51362 3.21200 -1.06922 
1.62091 3.21200 -1.06922 
1.66012 3.15900 -1.05158 
1.70693 3.00900 -1.00165 
1.60593 2.75000 -0.91543 
1.48970 2.51500 -0.83720 
1.32281 2.17200 -0.72302 
1.37168 2.05500 -0.68408 
1.49317 2.02200 -0.67309 
1.51108 2.00100 -0.66610 
1.72718 2.11200 -0.70305 
1.90798 2.27500 -0.75731 
1.92928 2.28900 -0.76197 
1.98414 2.33100 -0.77595 
2.16673 2.40400 -0.80025 
2.18681 2.40400 -0.80025 
2.38750 2.37400 -0.79026 
-2.03268 2.17200 -0.73209 
-2.00547 2.17200 -0.73209 
-1.99640 2.17200 -0.73209 
-1.96013 2.17200 -0.73209 
-1.94199 2.17200 -0.73209 
-1.91247 2.22200 -0.74894 
-1.90319 2.22200 -0.74894 
-1.76293 2.20900 -0.74456 
-1.31938 1.79400 -0.60468 
-1.44484 2.02200 -0.68153 
-1.56879 2.24800 -0.75771 
-1.55815 2.34500 -0.79040 
-1.44856 2.37400 -0.80018 
-1.42874 2.37400 -0.80018 
-1.27401 2.41900 -0.81534 
-1.25381 2.41900 -0.81534 
-1.13964 2.43400 -0.82040 
-1.11931 2.43400 -0.82040 
-1.05506 2.45000 -0.82579 
-1.04483 2.45000 -0.82579 
-0.82053 2.51500 -0.84770 
-0.74702 2.51500 -0.84770 
-0.58190 2.67300 -0.90096 
-0.55957 2.67300 -0.90096 
-0.47029 2.67300 -0.90096 
-0.46239 2.69200 -0.90736 
-0.44301 2.71100 -0.91377 
-0.43170 2.71100 -0.91377 
-0.36273 2.79000 -0.94039 
-0.33013 2.81000 -0.94713 
-0.19076 2.83100 -0.95421 
-0.18026 2.85200 -0.96129 
-0.14454 2.85200 -0.96129 
0.03759 2.33100 -0.78568 
0.19688 2.37400 -0.80018 
0.23540 2.46600 -0.83119 
0.33736 2.61800 -0.88242 
0.39201 2.61800 -0.88242 
0.40018 2.60000 -0.87635 
0.44261 2.04400 -0.68895 
0.54836 2.12300 -0.71558 
0.81463 2.91800 -0.98354 
0.91756 3.05800 -1.03072 
0.96863 3.05800 -1.03072 
1.16577 3.10700 -1.04724 
1.19171 3.10700 -1.04724 
1.30847 3.10700 -1.04724 
1.32144 3.10700 -1.04724 
1.46101 3.18500 -1.07353 
1.48760 3.18500 -1.07353 
1.55386 3.21200 -1.08263 
1.71186 3.13300 -1.05600 
1.71063 3.10700 -1.04724 
1.72195 3.05800 -1.03072 
1.38884 2.05500 -0.69266 
1.39742 2.05500 -0.69266 
1.45821 2.04400 -0.68895 
1.49317 2.02200 -0.68153 
1.51108 2.00100 -0.67445 
1.52830 1.98000 -0.66738 
1.56963 1.98000 -0.66738 
1.85577 2.23500 -0.75333 
2.10955 2.41900 -0.81534 
2.21306 2.38900 -0.80523 
2.23301 2.38900 -0.80523 
2.24299 2.38900 -0.80523 
2.29135 2.41900 -0.81534 
2.36205 2.41900 -0.81534 
2.37752 2.40400 -0.81029 
2.38756 2.40400 -0.81029 
-1.96642 2.15900 -0.73672 
-1.95106 2.17200 -0.74116 
-1.92536 2.18400 -0.74525 
-1.89392 2.22200 -0.75822 
-1.58784 2.28900 -0.78108 
-1.57756 2.31600 -0.79030 
-1.57805 2.33100 -0.79542 
-1.52878 2.34500 -0.80019 
-1.49851 2.35900 -0.80497 
-1.48866 2.35900 -0.80497 
-1.46839 2.37400 -0.81009 
-1.42874 2.37400 -0.81009 
-1.41781 2.38900 -0.81521 
-1.39786 2.38900 -0.81521 
-1.36794 2.38900 -0.81521 
-1.29422 2.41900 -0.82544 
-1.28411 2.41900 -0.82544 
-1.23361 2.41900 -0.82544 
-1.19045 2.43400 -0.83056 
-1.17012 2.43400 -0.83056 
-1.15996 2.43400 -0.83056 
-1.13964 2.43400 -0.83056 
-1.03460 2.45000 -0.83602 
-1.01414 2.45000 -0.83602 
-0.89721 2.46600 -0.84148 
-0.88230 2.48200 -0.84694 
-0.87194 2.48200 -0.84694 
-0.84627 2.49800 -0.85240 
-0.79952 2.51500 -0.85820 
-0.76802 2.51500 -0.85820 
-0.71427 2.54800 -0.86946 
-0.69761 2.56500 -0.87527 
-0.68690 2.56500 -0.87527 
-0.67456 2.60000 -0.88721 
-0.66830 2.61800 -0.89335 
-0.53343 2.65400 -0.90563 
-0.40346 2.75000 -0.93839 
-0.29493 2.81000 -0.95887 
-0.28320 2.81000 -0.95887 
-0.23804 2.83100 -0.96603 
-0.12072 2.85200 -0.97320 
-0.01114 2.34500 -0.80019 
-0.00133 2.31600 -0.79030 
0.01769 2.27500 -0.77631 
0.05603 2.28900 -0.78108 
0.09368 2.27500 -0.77631 
0.17169 2.30200 -0.78552 
0.20679 2.37400 -0.81009 
0.21944 2.40400 -0.82033 
0.25765 2.48200 -0.84694 
0.35922 2.61800 -0.89335 
0.45740 2.19700 -0.74969 
0.44976 2.07700 -0.70874 
0.44872 2.03300 -0.69373 
0.44529 1.98000 -0.67564 
0.86648 3.05800 -1.04349 
0.87925 3.05800 -1.04349 
0.89202 3.05800 -1.04349 
1.00693 3.05800 -1.04349 
1.08793 3.10700 -1.06021 
1.24093 3.13300 -1.06909 
1.28018 3.13300 -1.06909 
1.38483 3.13300 -1.06909 
1.72494 3.13300 -1.06909 
1.73657 3.10700 -1.06021 
1.73205 3.00900 -1.02677 
1.37902 2.06600 -0.70499 
1.44114 2.04400 -0.69748 
1.53703 1.97000 -0.67223 
1.94023 2.30200 -0.78552 
1.99606 2.34500 -0.80019 
2.06344 2.38900 -0.81521 
2.10955 2.41900 -0.82544 
2.14995 2.41900 -0.82544 
2.18314 2.38900 -0.81521 
-2.02051 2.15900 -0.74574 
-1.99347 2.15900 -0.74574 
-1.88464 2.22200 -0.76750 
-1.44773 1.88300 -0.65041 
-1.33792 1.76900 -0.61103 
-1.57756 2.31600 -0.79997 
-1.54885 2.33100 -0.80515 
-1.53857 2.34500 -0.80998 
-1.52878 2.34500 -0.80998 
-1.46896 2.35900 -0.81482 
-1.45911 2.35900 -0.81482 
-1.43865 2.37400 -0.82000 
-1.33638 2.40400 -0.83036 
-1.32452 2.41900 -0.83555 
-1.31442 2.41900 -0.83555 
-1.20061 2.43400 -0.84073 
-1.08882 2.43400 -0.84073 
-1.06529 2.45000 -0.84625 
-1.05506 2.45000 -0.84625 
-0.79952 2.51500 -0.86870 
-0.77852 2.51500 -0.86870 
-0.76802 2.51500 -0.86870 
-0.74120 2.53100 -0.87423 
-0.73064 2.53100 -0.87423 
-0.61538 2.67300 -0.92328 
-0.58190 2.67300 -0.92328 
-0.54451 2.65400 -0.91672 
-0.43170 2.71100 -0.93640 
-0.35108 2.79000 -0.96369 
-0.29493 2.81000 -0.97060 
-0.19076 2.83100 -0.97785 
0.04537 2.23500 -0.77199 
0.08270 2.23500 -0.77199 
0.16967 2.27500 -0.78581 
0.18130 2.30200 -0.79513 
0.46353 2.53100 -0.87423 
0.47222 2.46600 -0.85178 
0.47251 2.31600 -0.79997 
0.45236 2.08900 -0.72156 
0.44806 1.92100 -0.66353 
0.80821 2.89500 -0.99996 
0.86648 3.05800 -1.05626 
1.21477 3.13300 -1.08217 
1.26709 3.13300 -1.08217 
1.30634 3.13300 -1.08217 
1.47430 3.18500 -1.10013 
1.48760 3.18500 -1.10013 
1.56727 3.21200 -1.10945 
1.58068 3.21200 -1.10945 
1.71368 3.18500 -1.10013 
1.76121 3.08200 -1.06455 
1.74587 3.03300 -1.04763 
1.30303 2.05500 -0.70982 
1.40701 2.04400 -0.70602 
1.53656 1.98000 -0.68391 
1.65483 2.05500 -0.70982 
2.03066 2.37400 -0.82000 
2.05346 2.38900 -0.82518 
2.11965 2.41900 -0.83555 
2.14995 2.41900 -0.83555 
2.21306 2.38900 -0.82518 
2.26294 2.38900 -0.82518 
2.27291 2.38900 -0.82518 
2.39759 2.40400 -0.83036 
2.39261 2.38900 -0.82518 
-2.01150 2.15900 -0.75475 
-1.92536 2.18400 -0.76349 
-1.82897 2.22200 -0.77678 
-1.81970 2.22200 -0.77678 
-1.75336 2.19700 -0.76804 
-1.31938 1.79400 -0.62716 
-1.57805 2.33100 -0.81488 
-1.46896 2.35900 -0.82467 
-1.42956 2.35900 -0.82467 
-1.41971 2.35900 -0.82467 
-1.39786 2.38900 -0.83516 
-1.38789 2.38900 -0.83516 
-1.35796 2.38900 -0.83516 
-1.22094 2.43400 -0.85089 
-1.21873 2.45000 -0.85648 
-1.17012 2.43400 -0.85089 
-1.02437 2.45000 -0.85648 
-0.90750 2.46600 -0.86208 
-0.87194 2.48200 -0.86767 
-0.83584 2.49800 -0.87326 
-0.81498 2.49800 -0.87326 
-0.81002 2.51500 -0.87921 
-0.77852 2.51500 -0.87921 
-0.70832 2.56500 -0.89668 
-0.68542 2.60000 -0.90892 
-0.67456 2.60000 -0.90892 
-0.66830 2.61800 -0.91521 
-0.66189 2.63600 -0.92151 
-0.60422 2.67300 -0.93444 
-0.55560 2.65400 -0.92780 
-0.54451 2.65400 -0.92780 
-0.48145 2.67300 -0.93444 
-0.33013 2.81000 -0.98233 
-0.30667 2.81000 -0.98233 
-0.23627 2.81000 -0.98233 
-0.22454 2.81000 -0.98233 
-0.16965 2.87400 -1.00471 
-0.13068 2.81000 -0.98233 
-0.09082 2.67300 -0.93444 
-0.03034 2.31600 -0.80964 
0.02610 2.18400 -0.76349 
0.06258 2.18400 -0.76349 
0.14551 2.19700 -0.76804 
0.16572 2.22200 -0.77678 
0.24488 2.35900 -0.82467 
0.25635 2.37400 -0.82991 
0.40281 2.54800 -0.89074 
0.46492 2.48200 -0.86767 
0.45236 2.08900 -0.73028 
0.80235 2.87400 -1.00471 
1.21477 3.13300 -1.09525 
1.34558 3.13300 -1.09525 
1.37175 3.13300 -1.09525 
1.40951 3.15900 -1.10434 
1.59409 3.21200 -1.12287 
1.71368 3.18500 -1.11343 
1.59448 2.71100 -0.94772 
1.51932 2.56500 -0.89668 
1.35971 2.24800 -0.78587 
1.31489 2.15900 -0.75475 
1.29276 2.06600 -0.72224 
1.32877 2.05500 -0.71840 
1.38636 2.07700 -0.72609 
1.39627 2.06600 -0.72224 
1.39742 2.05500 -0.71840 
1.49317 2.02200 -0.70686 
1.57004 1.99100 -0.69602 
1.73708 2.13500 -0.74636 
1.82642 2.22200 -0.77678 
2.04349 2.38900 -0.83516 
2.13279 2.43400 -0.85089 
2.24299 2.38900 -0.83516 
2.27291 2.38900 -0.83516 
2.30284 2.38900 -0.83516 
2.36268 2.38900 -0.83516 
2.40258 2.38900 -0.83516 
-1.95741 2.15900 -0.76377 
-1.91247 2.22200 -0.78605 
-1.89567 2.23500 -0.79065 
-1.78138 2.20900 -0.78146 
-1.77216 2.20900 -0.78146 
-1.72434 2.17200 -0.76837 
-1.57992 2.02200 -0.71530 
-1.48496 1.92100 -0.67957 
-1.44081 1.87400 -0.66295 
-1.35824 1.78600 -0.63182 
-1.31850 1.75300 -0.62014 
-1.30981 1.76100 -0.62297 
-1.44484 2.02200 -0.71530 
-1.56831 2.33100 -0.82461 
-1.54836 2.34500 -0.82957 
-1.51899 2.34500 -0.82957 
-1.47982 2.34500 -0.82957 
-1.41971 2.35900 -0.83452 
-1.38909 2.37400 -0.83983 
-1.35796 2.38900 -0.84513 
-1.34642 2.40400 -0.85044 
-1.29422 2.41900 -0.85575 
-1.28411 2.41900 -0.85575 
-1.25381 2.41900 -0.85575 
-1.25143 2.43400 -0.86105 
-1.19045 2.43400 -0.86105 
-1.15996 2.43400 -0.86105 
-1.14980 2.43400 -0.86105 
-1.10231 2.41900 -0.85575 
-1.05833 2.43400 -0.86105 
-1.03460 2.45000 -0.86671 
-1.02437 2.45000 -0.86671 
-1.00017 2.46600 -0.87237 
-0.97958 2.46600 -0.87237 
-0.96928 2.46600 -0.87237 
-0.91780 2.46600 -0.87237 
-0.89721 2.46600 -0.87237 
-0.83584 2.49800 -0.88369 
-0.72490 2.54800 -0.90138 
-0.70832 2.56500 -0.90739 
-0.65533 2.65400 -0.93888 
-0.60422 2.67300 -0.94560 
-0.42332 2.73000 -0.96576 
-0.33013 2.81000 -0.99407 
-0.28320 2.81000 -0.99407 
-0.16835 2.85200 -1.00892 
-0.15529 2.83100 -1.00149 
-0.10057 2.63600 -0.93251 
0.11466 2.13500 -0.75528 
0.17200 2.18400 -0.77261 
0.28260 2.34500 -0.82957 
0.36686 2.45000 -0.86671 
0.38201 2.48200 -0.87803 
0.40274 2.48200 -0.87803 
0.46915 2.45000 -0.86671 
0.44439 1.94000 -0.68629 
0.45157 1.90200 -0.67285 
0.47765 1.91100 -0.67604 
0.88473 3.03300 -1.07295 
1.02770 3.08200 -1.09029 
1.04057 3.08200 -1.09029 
1.15280 3.10700 -1.09913 
1.21477 3.13300 -1.10833 
1.30634 3.13300 -1.10833 
1.58068 3.21200 -1.13628 
1.78185 3.21200 -1.13628 
1.79347 3.18500 -1.12673 
1.32877 2.05500 -0.72698 
1.37769 2.07700 -0.73476 
1.38764 2.06600 -0.73087 
1.44188 2.03300 -0.71919 
1.45036 2.03300 -0.71919 
1.47629 2.02200 -0.71530 
1.51944 2.00100 -0.70787 
1.52847 1.99100 -0.70434 
1.63744 2.04400 -0.72309 
1.83710 2.23500 -0.79065 
1.95494 2.33100 -0.82461 
1.97648 2.34500 -0.82957 
2.11247 2.43400 -0.86105 
2.13658 2.45000 -0.86671 
2.18361 2.43400 -0.86105 
2.32803 2.37400 -0.83983 
2.36268 2.38900 -0.84513 
2.38750 2.37400 -0.83983 
-1.96013 2.17200 -0.77744 
-1.94360 2.18400 -0.78173 
-1.93448 2.18400 -0.78173 
-1.91247 2.22200 -0.79533 
-1.87853 2.24800 -0.80464 
-1.81970 2.22200 -0.79533 
-1.81042 2.22200 -0.79533 
-1.67657 2.12300 -0.75990 
-1.62293 2.06600 -0.73949 
-1.39169 1.82000 -0.65144 
-1.31118 1.75300 -0.62746 
-1.33090 1.82000 -0.65144 
-1.44484 2.02200 -0.72375 
-1.47547 2.07700 -0.74343 
-1.56879 2.24800 -0.80464 
-1.57756 2.31600 -0.82898 
-1.51899 2.34500 -0.83936 
-1.47982 2.34500 -0.83936 
-1.36794 2.38900 -0.85511 
-1.35796 2.38900 -0.85511 
-1.29422 2.41900 -0.86585 
-1.17012 2.43400 -0.87121 
-1.07866 2.43400 -0.87121 
-1.04483 2.45000 -0.87694 
-1.00017 2.46600 -0.88267 
-0.97958 2.46600 -0.88267 
-0.95899 2.46600 -0.88267 
-0.83584 2.49800 -0.89412 
-0.81498 2.49800 -0.89412 
-0.77852 2.51500 -0.90021 
-0.77291 2.53100 -0.90593 
-0.60422 2.67300 -0.95676 
-0.52609 2.67300 -0.95676 
-0.31840 2.81000 -1.00580 
-0.25974 2.81000 -1.00580 
0.00756 2.10000 -0.75166 
0.01624 2.08900 -0.74773 
0.13106 2.11200 -0.75596 
0.14061 2.12300 -0.75990 
0.16815 2.13500 -0.76419 
0.17706 2.13500 -0.76419 
0.23854 2.20900 -0.79068 
0.46322 2.41900 -0.86585 
0.44629 2.02200 -0.72375 
0.47765 1.91100 -0.68401 
0.58663 2.23500 -0.79999 
0.68112 2.51500 -0.90021 
0.85940 3.03300 -1.08562 
0.88473 3.03300 -1.08562 
1.06199 3.10700 -1.11210 
1.18861 3.13300 -1.12141 
1.21477 3.13300 -1.12141 
1.24093 3.13300 -1.12141 
1.25401 3.13300 -1.12141 
1.33250 3.13300 -1.12141 
1.39632 3.15900 -1.13072 
1.50090 3.18500 -1.14002 
1.54045 3.21200 -1.14969 
1.75503 3.21200 -1.14969 
1.67834 2.87400 -1.02871 
1.29097 2.07700 -0.74343 
1.32019 2.05500 -0.73556 
1.40371 2.07700 -0.74343 
1.56173 1.99100 -0.71265 
1.72816 2.13500 -0.76419 
2.01083 2.37400 -0.84974 
2.06915 2.41900 -0.86585 
2.09214 2.43400 -0.87121 
2.11612 2.45000 -0.87694 
2.23105 2.34500 -0.83936 
2.24084 2.34500 -0.83936 
2.26042 2.34500 -0.83936 
2.31811 2.37400 -0.84974 
2.36256 2.35900 -0.84437 
-1.99640 2.17200 -0.78650 
-1.98733 2.17200 -0.78650 
-1.93103 2.22200 -0.80461 
-1.90500 2.23500 -0.80932 
-1.86915 2.24800 -0.81403 
-1.38148 1.91100 -0.69199 
-1.53324 2.18400 -0.79085 
-1.56879 2.24800 -0.81403 
-1.51899 2.34500 -0.84915 
-1.49940 2.34500 -0.84915 
-1.41971 2.35900 -0.85422 
-1.40001 2.35900 -0.85422 
-1.38909 2.37400 -0.85965 
-1.28411 2.41900 -0.87595 
-1.25143 2.43400 -0.88138 
-1.24126 2.43400 -0.88138 
-1.22896 2.45000 -0.88717 
-1.21873 2.45000 -0.88717 
-1.08211 2.41900 -0.87595 
-0.97958 2.46600 -0.89297 
-0.93839 2.46600 -0.89297 
-0.83584 2.49800 -0.90455 
-0.79952 2.51500 -0.91071 
-0.71301 2.58200 -0.93497 
-0.69016 2.61800 -0.94801 
-0.66189 2.63600 -0.95452 
-0.63317 2.65400 -0.96104 
-0.54841 2.67300 -0.96792 
-0.47363 2.69200 -0.97480 
-0.46565 2.71100 -0.98168 
-0.43472 2.73000 -0.98856 
-0.29493 2.81000 -1.01753 
-0.22454 2.81000 -1.01753 
-0.20107 2.81000 -1.01753 
-0.00987 2.07700 -0.75210 
-0.00119 2.06600 -0.74812 
0.11155 2.07700 -0.75210 
0.14708 2.08900 -0.75645 
0.15580 2.08900 -0.75645 
0.17416 2.10000 -0.76043 
0.20161 2.11200 -0.76478 
0.24977 2.14700 -0.77745 
0.32722 2.24800 -0.81403 
0.43203 2.35900 -0.85422 
0.44905 2.34500 -0.84915 
0.44409 2.01200 -0.72857 
0.67652 2.49800 -0.90455 
0.87206 3.03300 -1.09828 
0.98140 3.05800 -1.10733 
1.02770 3.08200 -1.11602 
1.11388 3.10700 -1.12508 
1.14936 3.13300 -1.13449 
1.17552 3.13300 -1.13449 
1.30399 3.15900 -1.14391 
1.33037 3.15900 -1.14391 
1.36994 3.15900 -1.14391 
1.46101 3.18500 -1.15332 
1.63433 3.21200 -1.16310 
1.74273 3.23900 -1.17288 
1.80343 3.13300 -1.13449 
1.41700 2.35900 -0.85422 
1.29508 2.11200 -0.76478 
1.29445 2.05500 -0.74414 
1.34451 2.06600 -0.74812 
1.35314 2.06600 -0.74812 
1.44968 2.04400 -0.74015 
1.47629 2.02200 -0.73219 
1.81714 2.22200 -0.80461 
1.97843 2.35900 -0.85422 
2.17485 2.48200 -0.89876 
2.19917 2.37400 -0.85965 
2.20167 2.34500 -0.84915 
2.24693 2.33100 -0.84408 
2.36813 2.34500 -0.84915 
-1.92895 2.20900 -0.80913 
-1.87853 2.24800 -0.82341 
-1.75336 2.19700 -0.80473 
-1.50775 1.94000 -0.71060 
-1.35215 1.77800 -0.65126 
-1.40872 1.96000 -0.71792 
-1.57805 2.33100 -0.85381 
-1.54885 2.33100 -0.85381 
-1.50019 2.33100 -0.85381 
-1.48961 2.34500 -0.85894 
-1.43087 2.34500 -0.85894 
-1.34799 2.38900 -0.87506 
-1.32634 2.40400 -0.88055 
-1.31442 2.41900 -0.88605 
-1.29422 2.41900 -0.88605 
-1.13261 2.41900 -0.88605 
-1.05833 2.43400 -0.89154 
-1.00391 2.45000 -0.89740 
-0.83584 2.49800 -0.91498 
-0.75682 2.54800 -0.93330 
-0.43791 2.75000 -1.00729 
-0.41494 2.75000 -1.00729 
-0.29493 2.81000 -1.02926 
-0.24800 2.81000 -1.02926 
-0.17508 2.77000 -1.01461 
-0.07730 2.27500 -0.83330 
-0.00966 2.03300 -0.74466 
0.04085 2.01200 -0.73697 
0.10124 2.04400 -0.74869 
0.12821 2.06600 -0.75675 
0.27215 2.11200 -0.77360 
0.34527 2.18400 -0.79997 
0.38132 2.23500 -0.81865 
0.47290 1.89200 -0.69301 
0.88473 3.03300 -1.11095 
0.92272 3.03300 -1.11095 
0.94805 3.03300 -1.11095 
1.00197 3.08200 -1.12889 
1.06199 3.10700 -1.13805 
1.12320 3.13300 -1.14757 
1.21166 3.15900 -1.15710 
1.23804 3.15900 -1.15710 
1.27761 3.15900 -1.15710 
1.30399 3.15900 -1.15710 
1.35675 3.15900 -1.15710 
1.36994 3.15900 -1.15710 
1.40951 3.15900 -1.15710 
1.47430 3.18500 -1.16662 
1.58068 3.21200 -1.17651 
1.59409 3.21200 -1.17651 
1.64774 3.21200 -1.17651 
1.68797 3.21200 -1.17651 
1.70138 3.21200 -1.17651 
1.71479 3.21200 -1.17651 
1.78185 3.21200 -1.17651 
1.80343 3.13300 -1.14757 
1.29097 2.07700 -0.76078 
1.29276 2.06600 -0.75675 
1.32019 2.05500 -0.75272 
1.39437 2.08900 -0.76517 
1.43798 2.08900 -0.76517 
1.45821 2.04400 -0.74869 
1.47629 2.02200 -0.74063 
1.49419 2.01200 -0.73697 
1.52016 1.99100 -0.72928 
1.54510 1.99100 -0.72928 
1.57792 2.00100 -0.73294 
1.75811 2.17200 -0.79557 
2.19930 2.49800 -0.91498 
2.21410 2.43400 -0.89154 
2.18412 2.31600 -0.84832 
2.21313 2.31600 -0.84832 
2.23247 2.31600 -0.84832 
-1.94599 2.19700 -0.81390 
-1.93818 2.20900 -0.81835 
-1.89023 2.26200 -0.83798 
-1.71401 2.15900 -0.79983 
-1.31850 1.75300 -0.64942 
-1.57829 2.28900 -0.84799 
-1.55858 2.33100 -0.86355 
-1.53857 2.34500 -0.86873 
-1.45045 2.34500 -0.86873 
-1.39016 2.35900 -0.87392 
-1.36926 2.37400 -0.87948 
-1.34799 2.38900 -0.88503 
-1.27401 2.41900 -0.89615 
-1.19045 2.43400 -0.90170 
-1.14980 2.43400 -0.90170 
-1.07201 2.41900 -0.89615 
-0.97958 2.46600 -0.91356 
-0.81002 2.51500 -0.93171 
-0.78902 2.51500 -0.93171 
-0.75682 2.54800 -0.94394 
-0.72380 2.58200 -0.95653 
-0.70713 2.60000 -0.96320 
-0.67923 2.61800 -0.96987 
-0.59992 2.65400 -0.98320 
-0.57776 2.65400 -0.98320 
-0.44612 2.73000 -1.01136 
-0.43791 2.75000 -1.01877 
-0.39483 2.77000 -1.02618 
-0.38326 2.77000 -1.02618 
-0.36273 2.79000 -1.03359 
-0.25789 2.79000 -1.03359 
-0.23459 2.79000 -1.03359 
-0.21129 2.79000 -1.03359 
-0.18530 2.75000 -1.01877 
-0.01786 2.00100 -0.74129 
0.32322 2.10000 -0.77797 
0.39998 2.18400 -0.80909 
0.40910 2.18400 -0.80909 
0.43721 2.10000 -0.77797 
0.43785 2.02200 -0.74907 
0.50596 1.99100 -0.73759 
0.57980 2.20900 -0.81835 
0.87773 3.00900 -1.11472 
0.89739 3.03300 -1.12361 
0.93538 3.03300 -1.12361 
1.07496 3.10700 -1.15102 
1.09704 3.13300 -1.16066 
1.14936 3.13300 -1.16066 
1.17209 3.15900 -1.17029 
1.27761 3.15900 -1.17029 
1.29080 3.15900 -1.17029 
1.31718 3.15900 -1.17029 
1.33037 3.15900 -1.17029 
1.38313 3.15900 -1.17029 
1.43441 3.18500 -1.17992 
1.47430 3.18500 -1.17992 
1.78185 3.21200 -1.18992 
1.79526 3.21200 -1.18992 
1.80867 3.21200 -1.18992 
1.40859 2.34500 -0.86873 
1.32019 2.05500 -0.76130 
1.47583 2.03300 -0.75315 
1.51099 2.01200 -0.74537 
1.76783 2.18400 -0.80909 
1.93731 2.34500 -0.86873 
2.02620 2.40400 -0.89059 
2.11965 2.46600 -0.91356 
2.15413 2.48200 -0.91949 
2.23059 2.49800 -0.92541 
2.22865 2.45000 -0.90763 
2.20688 2.40400 -0.89059 
2.19512 2.35900 -0.87392 
2.27664 2.30200 -0.85280 
2.28625 2.30200 -0.85280 
2.31950 2.31600 -0.85799 
-2.02361 2.17200 -0.81371 
-1.94740 2.20900 -0.82757 
-1.91433 2.23500 -0.83731 
-1.91608 2.24800 -0.84218 
-1.81168 2.23500 -0.83731 
-1.34531 1.76900 -0.66273 
-1.40872 1.96000 -0.73429 
-1.46766 2.06600 -0.77400 
-1.56831 2.33100 -0.87328 
-1.52938 2.33100 -0.87328 
-1.36926 2.37400 -0.88939 
-1.36794 2.38900 -0.89501 
-1.35796 2.38900 -0.89501 
-1.34642 2.40400 -0.90063 
-1.32452 2.41900 -0.90625 
-1.19045 2.43400 -0.91187 
-1.15996 2.43400 -0.91187 
-1.09221 2.41900 -0.90625 
-1.06850 2.43400 -0.91187 
-1.03460 2.45000 -0.91786 
-0.97958 2.46600 -0.92385 
-0.87756 2.49800 -0.93584 
-0.85670 2.49800 -0.93584 
-0.84627 2.49800 -0.93584 
-0.82541 2.49800 -0.93584 
-0.59585 2.63600 -0.98754 
-0.51859 2.69200 -1.00852 
-0.46565 2.71100 -1.01564 
-0.44612 2.73000 -1.02276 
-0.41494 2.75000 -1.03025 
-0.38326 2.77000 -1.03774 
-0.31840 2.81000 -1.05273 
-0.19535 2.73000 -1.02276 
-0.18267 2.71100 -1.01564 
-0.05210 2.03300 -0.76164 
-0.04316 2.01200 -0.75377 
0.03999 1.97000 -0.73803 
0.08153 1.98000 -0.74178 
0.12486 2.01200 -0.75377 
0.17709 2.03300 -0.76164 
0.19407 2.03300 -0.76164 
0.27744 2.02200 -0.75752 
0.35249 2.06600 -0.77400 
0.39336 2.10000 -0.78674 
0.40875 2.08900 -0.78262 
0.42729 2.01200 -0.75377 
0.50596 1.99100 -0.74590 
0.54242 2.10000 -0.78674 
0.67218 2.48200 -0.92985 
0.91005 3.03300 -1.13627 
1.06199 3.10700 -1.16400 
1.09704 3.13300 -1.17374 
1.14936 3.13300 -1.17374 
1.17209 3.15900 -1.18348 
1.19847 3.15900 -1.18348 
1.33037 3.15900 -1.18348 
1.36792 3.18500 -1.19322 
1.42111 3.18500 -1.19322 
1.43441 3.18500 -1.19322 
1.59409 3.21200 -1.20333 
1.59448 2.71100 -1.01564 
1.30758 2.14700 -0.80435 
1.32019 2.05500 -0.76988 
1.36034 2.07700 -0.77812 
1.43479 2.12300 -0.79535 
1.49317 2.02200 -0.75752 
1.51185 1.99100 -0.74590 
1.58660 2.01200 -0.75377 
1.96127 2.37400 -0.88939 
2.10935 2.46600 -0.92385 
2.23892 2.53100 -0.94821 
2.24740 2.48200 -0.92985 
2.20688 2.40400 -0.90063 
2.18053 2.30200 -0.86241 
2.23511 2.28900 -0.85754 
-1.98007 2.18400 -0.82733 
-1.97096 2.18400 -0.82733 
-1.96434 2.19700 -0.83225 
-1.88079 2.26200 -0.85687 
-1.83160 2.24800 -0.85157 
-1.50775 1.94000 -0.73490 
-1.30761 1.77800 -0.67353 
-1.53912 2.33100 -0.88301 
-1.47003 2.34500 -0.88831 
-1.43087 2.34500 -0.88831 
-1.31442 2.41900 -0.91635 
-1.24371 2.41900 -0.91635 
-1.21078 2.43400 -0.92203 
-1.10231 2.41900 -0.91635 
-1.08882 2.43400 -0.92203 
-1.01414 2.45000 -0.92809 
-0.96928 2.46600 -0.93415 
-0.90303 2.48200 -0.94021 
-0.86713 2.49800 -0.94627 
-0.83584 2.49800 -0.94627 
-0.72380 2.58200 -0.97809 
-0.71301 2.58200 -0.97809 
-0.55560 2.65400 -1.00537 
-0.54841 2.67300 -1.01256 
-0.49961 2.71100 -1.02696 
-0.48829 2.71100 -1.02696 
-0.46565 2.71100 -1.02696 
-0.40639 2.77000 -1.04931 
-0.34186 2.81000 -1.06446 
-0.33013 2.81000 -1.06446 
-0.20826 2.75000 -1.04173 
-0.17883 2.65400 -1.00537 
-0.00931 1.96000 -0.74247 
0.00702 1.95000 -0.73868 
0.02330 1.95000 -0.73868 
0.09757 1.97000 -0.74626 
0.13187 1.99100 -0.75422 
0.16595 2.00100 -0.75800 
0.29963 2.00100 -0.75800 
0.33488 2.01200 -0.76217 
0.39988 2.00100 -0.75800 
0.42009 1.94000 -0.73490 
0.46279 1.88300 -0.71330 
0.53958 2.08900 -0.79134 
0.79034 2.83100 -1.07242 
0.87206 3.03300 -1.14894 
0.91756 3.05800 -1.15841 
1.17209 3.15900 -1.19667 
1.25123 3.15900 -1.19667 
1.38121 3.18500 -1.20652 
1.39451 3.18500 -1.20652 
1.40781 3.18500 -1.20652 
1.46101 3.18500 -1.20652 
1.58068 3.21200 -1.21674 
1.62102 3.23900 -1.22697 
1.70138 3.21200 -1.21674 
1.77549 3.10700 -1.17697 
1.71795 2.96300 -1.12242 
1.30183 2.12300 -0.80422 
1.28970 2.08900 -0.79134 
1.29097 2.07700 -0.78679 
1.31161 2.05500 -0.77846 
1.32877 2.05500 -0.77846 
1.34451 2.06600 -0.78263 
1.36034 2.07700 -0.78679 
1.42507 2.13500 -0.80876 
1.47715 2.15900 -0.81786 
1.48909 2.11200 -0.80005 
1.49043 2.07700 -0.78679 
1.49116 2.06600 -0.78263 
1.51006 2.02200 -0.76596 
1.57820 2.01200 -0.76217 
1.70072 2.12300 -0.80422 
1.79859 2.22200 -0.84172 
1.93903 2.35900 -0.89362 
2.09905 2.46600 -0.93415 
2.12304 2.48200 -0.94021 
2.25627 2.51500 -0.95271 
2.19917 2.37400 -0.89930 
2.22144 2.27500 -0.86180 
2.27486 2.26200 -0.85687 
-2.03854 2.15900 -0.82687 
-2.01454 2.17200 -0.83185 
-1.97351 2.19700 -0.84142 
-1.96434 2.19700 -0.84142 
-1.94599 2.19700 -0.84142 
-1.93299 2.23500 -0.85598 
-1.84099 2.24800 -0.86096 
-1.82222 2.24800 -0.86096 
-1.75336 2.19700 -0.84142 
-1.72434 2.17200 -0.83185 
-1.65841 2.10000 -0.80427 
-1.60565 2.04400 -0.78283 
-1.55570 1.99100 -0.76253 
-1.41313 1.83800 -0.70393 
-1.56789 2.31600 -0.88700 
-1.54885 2.33100 -0.89274 
-1.53912 2.33100 -0.89274 
-1.51965 2.33100 -0.89274 
-1.45045 2.34500 -0.89811 
-1.37917 2.37400 -0.90921 
-1.36926 2.37400 -0.90921 
-1.31442 2.41900 -0.92645 
-1.29422 2.41900 -0.92645 
-1.28411 2.41900 -0.92645 
-1.21341 2.41900 -0.92645 
-1.18029 2.43400 -0.93219 
-1.17012 2.43400 -0.93219 
-1.14980 2.43400 -0.93219 
-1.13964 2.43400 -0.93219 
-1.09898 2.43400 -0.93219 
-1.07866 2.43400 -0.93219 
-1.01414 2.45000 -0.93832 
-0.96928 2.46600 -0.94445 
-0.82541 2.49800 -0.95670 
-0.78902 2.51500 -0.96321 
-0.77291 2.53100 -0.96934 
-0.76746 2.54800 -0.97585 
-0.69145 2.58200 -0.98887 
-0.62677 2.58200 -0.98887 
-0.46892 2.73000 -1.04556 
-0.33013 2.81000 -1.07619 
-0.17640 2.61800 -1.00266 
-0.06836 2.01200 -0.77057 
-0.04205 1.96000 -0.75066 
-0.01741 1.95000 -0.74683 
0.13870 1.97000 -0.75449 
0.14693 1.97000 -0.75449 
0.15515 1.97000 -0.75449 
0.22918 1.97000 -0.75449 
0.28676 1.97000 -0.75449 
0.37532 1.96000 -0.75066 
0.39169 1.96000 -0.75066 
0.45493 1.88300 -0.72117 
0.46500 1.89200 -0.72461 
0.47290 1.89200 -0.72461 
0.53958 2.08900 -0.80006 
0.94309 3.05800 -1.17118 
1.01484 3.08200 -1.18037 
1.07496 3.10700 -1.18994 
1.14936 3.13300 -1.19990 
1.54045 3.21200 -1.23016 
1.64806 3.23900 -1.24050 
1.68797 3.21200 -1.23016 
1.72820 3.21200 -1.23016 
1.44294 2.41900 -0.92645 
1.30183 2.12300 -0.81308 
1.28970 2.08900 -0.80006 
1.34451 2.06600 -0.79125 
1.43308 2.14700 -0.82227 
1.51136 2.20900 -0.84602 
1.53067 2.19700 -0.84142 
1.51422 2.13500 -0.81768 
1.49281 2.03300 -0.77861 
1.51099 2.01200 -0.77057 
1.71995 2.14700 -0.82227 
1.76918 2.19700 -0.84142 
1.97366 2.38900 -0.91496 
2.14715 2.49800 -0.95670 
2.24577 2.51500 -0.96321 
2.19917 2.37400 -0.90921 
2.21038 2.23500 -0.85598 
2.24201 2.24800 -0.86096 
2.25704 2.23500 -0.85598 
-1.98733 2.17200 -0.84092 
-1.97826 2.17200 -0.84092 
-1.95517 2.19700 -0.85060 
-1.94599 2.19700 -0.85060 
-1.93818 2.20900 -0.85524 
-1.94031 2.22200 -0.86028 
-1.93299 2.23500 -0.86531 
-1.33922 1.76100 -0.68179 
-1.31977 1.74500 -0.67560 
-1.31118 1.75300 -0.67870 
-1.55822 2.31600 -0.89667 
-1.53888 2.31600 -0.89667 
-1.44066 2.34500 -0.90790 
-1.32634 2.40400 -0.93074 
-1.19321 2.41900 -0.93655 
-1.15996 2.43400 -0.94235 
-1.09898 2.43400 -0.94235 
-0.88799 2.49800 -0.96713 
-0.80455 2.49800 -0.96713 
-0.71903 2.56500 -0.99307 
-0.67619 2.56500 -0.99307 
-0.65911 2.58200 -0.99965 
-0.61599 2.58200 -0.99965 
-0.60521 2.58200 -0.99965 
-0.59857 2.60000 -1.00662 
-0.56992 2.61800 -1.01359 
-0.56283 2.63600 -1.02056 
-0.53725 2.67300 -1.03489 
-0.51859 2.69200 -1.04224 
-0.48829 2.71100 -1.04960 
-0.45752 2.73000 -1.05695 
-0.40639 2.77000 -1.07244 
-0.36533 2.81000 -1.08793 
-0.31840 2.81000 -1.08793 
-0.26954 2.79000 -1.08018 
-0.15688 2.48200 -0.96094 
-0.11134 2.19700 -0.85060 
-0.05901 1.98000 -0.76658 
-0.05023 1.96000 -0.75884 
0.03098 1.92100 -0.74374 
0.07071 1.91100 -0.73987 
0.09515 1.92100 -0.74374 
0.10317 1.92100 -0.74374 
0.16172 1.95000 -0.75497 
0.17800 1.95000 -0.75497 
0.18614 1.95000 -0.75497 
0.32456 1.95000 -0.75497 
0.33270 1.95000 -0.75497 
0.34898 1.95000 -0.75497 
0.37149 1.94000 -0.75110 
0.39786 1.91100 -0.73987 
0.42550 1.89200 -0.73251 
0.46279 1.88300 -0.72903 
0.47290 1.89200 -0.73251 
0.53958 2.08900 -0.80878 
1.09704 3.13300 -1.21298 
1.14936 3.13300 -1.21298 
1.23804 3.15900 -1.22305 
1.25123 3.15900 -1.22305 
1.40781 3.18500 -1.23311 
1.51362 3.21200 -1.24357 
1.66115 3.21200 -1.24357 
1.31489 2.15900 -0.83588 
1.28970 2.08900 -0.80878 
1.30138 2.06600 -0.79988 
1.55707 2.26200 -0.87576 
1.57596 2.26200 -0.87576 
1.49281 2.03300 -0.78710 
1.51006 2.02200 -0.78284 
1.53679 1.99100 -0.77084 
2.24102 2.49800 -0.96713 
2.17897 2.22200 -0.86028 
2.18825 2.22200 -0.86028 
2.19752 2.22200 -0.86028 
-2.02721 2.14700 -0.84020 
-1.97544 2.15900 -0.84490 
-1.96184 2.18400 -0.85468 
-1.91433 2.23500 -0.87464 
-1.84099 2.24800 -0.87973 
-1.80235 2.23500 -0.87464 
-1.78259 2.22200 -0.86955 
-1.41313 1.83800 -0.71928 
-1.31248 1.74500 -0.68289 
-1.31503 1.77800 -0.69580 
-1.36256 1.87400 -0.73337 
-1.56863 2.27500 -0.89029 
-1.52921 2.31600 -0.90634 
-1.48961 2.34500 -0.91769 
-1.44066 2.34500 -0.91769 
-1.43941 2.35900 -0.92317 
-1.42956 2.35900 -0.92317 
-1.40001 2.35900 -0.92317 
-1.28411 2.41900 -0.94665 
-1.22351 2.41900 -0.94665 
-1.21341 2.41900 -0.94665 
-1.09898 2.43400 -0.95252 
-1.08882 2.43400 -0.95252 
-0.93839 2.46600 -0.96504 
-0.89267 2.48200 -0.97130 
-0.82541 2.49800 -0.97756 
-0.77852 2.51500 -0.98422 
-0.76234 2.53100 -0.99048 
-0.67171 2.54800 -0.99713 
-0.65043 2.54800 -0.99713 
-0.64406 2.56500 -1.00378 
-0.40933 2.79000 -1.09183 
-0.36533 2.81000 -1.09966 
-0.30667 2.81000 -1.09966 
-0.11008 2.17200 -0.84999 
-0.09715 2.08900 -0.81751 
-0.03369 1.95000 -0.76311 
0.23827 1.91100 -0.74785 
0.24625 1.91100 -0.74785 
0.30211 1.91100 -0.74785 
0.31009 1.91100 -0.74785 
0.31807 1.91100 -0.74785 
0.32775 1.92100 -0.75176 
0.35983 1.92100 -0.75176 
0.41760 1.89200 -0.74041 
0.45710 1.89200 -0.74041 
0.85260 3.00900 -1.17754 
1.00197 3.08200 -1.20610 
1.01484 3.08200 -1.20610 
1.07496 3.10700 -1.21589 
1.26442 3.15900 -1.23624 
1.46101 3.18500 -1.24641 
1.62091 3.21200 -1.25698 
1.71186 3.13300 -1.22606 
1.72360 3.10700 -1.21589 
1.52873 2.26200 -0.88521 
1.50130 2.03300 -0.79559 
1.50978 2.03300 -0.79559 
1.51099 2.01200 -0.78737 
1.69186 2.12300 -0.83081 
2.03116 2.43400 -0.95252 
2.14715 2.49800 -0.97756 
2.18887 2.49800 -0.97756 
2.20973 2.49800 -0.97756 
2.22426 2.43400 -0.95252 
2.13876 2.24800 -0.87973 
2.16363 2.19700 -0.85977 
2.20554 2.18400 -0.85468 
-2.01150 2.15900 -0.85391 
-1.93103 2.22200 -0.87883 
-1.90500 2.23500 -0.88397 
-1.88792 2.24800 -0.88911 
-1.85976 2.24800 -0.88911 
-1.80235 2.23500 -0.88397 
-1.76293 2.20900 -0.87369 
-1.31248 1.74500 -0.69017 
-1.31938 1.79400 -0.70955 
-1.51623 2.14700 -0.84917 
-1.56911 2.26200 -0.89465 
-1.52958 2.30200 -0.91047 
-1.47003 2.34500 -0.92748 
-1.43941 2.35900 -0.93302 
-1.42956 2.35900 -0.93302 
-1.31630 2.40400 -0.95081 
-1.17012 2.43400 -0.96268 
-1.13964 2.43400 -0.96268 
-1.12947 2.43400 -0.96268 
-1.06195 2.46600 -0.97534 
-0.94869 2.46600 -0.97534 
-0.80455 2.49800 -0.98799 
-0.73064 2.53100 -1.00104 
-0.56600 2.60000 -1.02833 
-0.55899 2.61800 -1.03545 
-0.51859 2.69200 -1.06472 
-0.50735 2.69200 -1.06472 
-0.46892 2.73000 -1.07975 
-0.36533 2.81000 -1.11139 
-0.27147 2.81000 -1.11139 
-0.22134 2.77000 -1.09557 
-0.13671 2.31600 -0.91601 
-0.10881 2.14700 -0.84917 
0.03861 1.90200 -0.75227 
0.06211 1.89200 -0.74831 
0.16481 1.89200 -0.74831 
0.20431 1.89200 -0.74831 
0.22692 1.88300 -0.74475 
0.23478 1.88300 -0.74475 
0.26623 1.88300 -0.74475 
0.30700 1.89200 -0.74831 
0.32280 1.89200 -0.74831 
0.46500 1.89200 -0.74831 
0.50316 1.98000 -0.78312 
0.87773 3.00900 -1.19010 
1.12320 3.13300 -1.23914 
1.16244 3.13300 -1.23914 
1.44657 3.21200 -1.27039 
1.55410 3.18500 -1.25971 
1.56739 3.18500 -1.25971 
1.70693 3.00900 -1.19010 
1.60605 2.77000 -1.09557 
1.34398 2.22200 -0.87883 
1.29649 2.10000 -0.83058 
1.30138 2.06600 -0.81713 
1.31001 2.06600 -0.81713 
1.35948 2.08900 -0.82623 
1.48315 2.22200 -0.87883 
1.54698 2.28900 -0.90533 
1.62325 2.31600 -0.91601 
1.51648 2.08900 -0.82623 
1.51099 2.01200 -0.79577 
1.56140 2.01200 -0.79577 
1.92918 2.35900 -0.93302 
1.96369 2.38900 -0.94488 
1.98605 2.40400 -0.95081 
2.00855 2.41900 -0.95675 
2.03116 2.43400 -0.96268 
2.15758 2.49800 -0.98799 
2.16801 2.49800 -0.98799 
2.21631 2.48200 -0.98166 
2.21842 2.45000 -0.96901 
2.13876 2.24800 -0.88911 
2.15445 2.19700 -0.86894 
2.18435 2.17200 -0.85906 
-2.03617 2.14700 -0.85813 
-2.00032 2.14700 -0.85813 
-1.96642 2.15900 -0.86293 
-1.95517 2.19700 -0.87812 
-1.92895 2.20900 -0.88291 
-1.90669 2.24800 -0.89850 
-1.78259 2.22200 -0.88811 
-1.55570 1.99100 -0.79578 
-1.41313 1.83800 -0.73463 
-1.31977 1.74500 -0.69746 
-1.31248 1.74500 -0.69746 
-1.46056 2.04400 -0.81696 
-1.55967 2.26200 -0.90410 
-1.46896 2.35900 -0.94287 
-1.37791 2.38900 -0.95486 
-1.32804 2.38900 -0.95486 
-1.12947 2.43400 -0.97284 
-1.05165 2.46600 -0.98563 
-1.00017 2.46600 -0.98563 
-0.95899 2.46600 -0.98563 
-0.90750 2.46600 -0.98563 
-0.74702 2.51500 -1.00522 
-0.71552 2.51500 -1.00522 
-0.70501 2.51500 -1.00522 
-0.67351 2.51500 -1.00522 
-0.63553 2.53100 -1.01161 
-0.55899 2.61800 -1.04639 
-0.54806 2.61800 -1.04639 
-0.51493 2.67300 -1.06837 
-0.42098 2.79000 -1.11513 
-0.40053 2.81000 -1.12313 
-0.28320 2.81000 -1.12313 
-0.25974 2.81000 -1.12313 
-0.23459 2.79000 -1.11513 
-0.16946 2.51500 -1.00522 
-0.13671 2.31600 -0.92568 
-0.05841 1.96000 -0.78339 
0.01486 1.91100 -0.76381 
0.13977 1.87400 -0.74902 
0.22463 1.86400 -0.74502 
0.27776 1.85500 -0.74142 
0.34137 1.86400 -0.74502 
0.34916 1.86400 -0.74502 
0.47540 1.90200 -0.76021 
0.89029 3.00900 -1.20266 
0.94309 3.05800 -1.22225 
0.96863 3.05800 -1.22225 
1.00197 3.08200 -1.23184 
1.14936 3.13300 -1.25222 
1.28812 3.18500 -1.27301 
1.36610 3.21200 -1.28380 
1.62059 3.18500 -1.27301 
1.67378 3.18500 -1.27301 
1.68708 3.18500 -1.27301 
1.69969 3.15900 -1.26262 
1.70973 3.08200 -1.23184 
1.70919 3.05800 -1.22225 
1.64168 2.85200 -1.13991 
1.65504 2.41900 -0.96685 
1.67547 2.43400 -0.97284 
1.63292 2.31600 -0.92568 
2.00855 2.41900 -0.96685 
2.17485 2.48200 -0.99203 
2.21232 2.46600 -0.98563 
2.14910 2.28900 -0.91489 
2.12010 2.20900 -0.88291 
2.14128 2.14700 -0.85813 
2.15921 2.14700 -0.85813 
-1.96642 2.15900 -0.87194 
-1.95741 2.15900 -0.87194 
-1.66788 2.11200 -0.85296 
-1.50775 1.94000 -0.78350 
-1.31977 1.74500 -0.70474 
-1.55972 2.23500 -0.90264 
-1.53919 2.30200 -0.92970 
-1.52958 2.30200 -0.92970 
-1.50019 2.33100 -0.94141 
-1.37917 2.37400 -0.95877 
-1.34799 2.38900 -0.96483 
-1.31806 2.38900 -0.96483 
-1.25381 2.41900 -0.97695 
-1.22351 2.41900 -0.97695 
-1.21341 2.41900 -0.97695 
-1.19321 2.41900 -0.97695 
-1.12947 2.43400 -0.98301 
-0.98987 2.46600 -0.99593 
-0.86632 2.46600 -0.99593 
-0.85602 2.46600 -0.99593 
-0.82012 2.48200 -1.00239 
-0.73652 2.51500 -1.01572 
-0.71552 2.51500 -1.01572 
-0.62496 2.53100 -1.02218 
-0.51493 2.67300 -1.07953 
-0.50735 2.69200 -1.08720 
-0.36533 2.81000 -1.13486 
-0.20531 2.71100 -1.09488 
-0.16832 2.49800 -1.00885 
-0.05871 1.97000 -0.79561 
0.01486 1.91100 -0.77178 
0.06152 1.87400 -0.75684 
0.06934 1.87400 -0.75684 
0.17545 1.83800 -0.74230 
0.22917 1.83800 -0.74230 
0.25220 1.83800 -0.74230 
0.37845 1.85500 -0.74917 
0.38620 1.85500 -0.74917 
0.40364 1.86400 -0.75280 
0.41363 1.87400 -0.75684 
0.45157 1.90200 -0.76815 
0.49808 1.96000 -0.79157 
0.69162 2.51500 -1.01572 
0.87102 2.98600 -1.20594 
0.98910 3.08200 -1.24471 
1.09205 3.08200 -1.24471 
1.10492 3.08200 -1.24471 
1.23804 3.15900 -1.27581 
1.35269 3.21200 -1.29721 
1.51564 3.13300 -1.26531 
1.59417 3.15900 -1.27581 
1.67378 3.18500 -1.28631 
1.68650 3.15900 -1.27581 
1.71186 3.13300 -1.26531 
1.70919 3.05800 -1.23502 
1.62959 2.83100 -1.14334 
1.32886 2.19700 -0.88729 
1.29649 2.10000 -0.84812 
1.33433 2.07700 -0.83883 
1.55556 2.31600 -0.93535 
1.71809 2.46600 -0.99593 
1.61351 2.27500 -0.91879 
1.50942 2.04400 -0.82550 
1.71098 2.14700 -0.86710 
1.97366 2.38900 -0.96483 
2.04133 2.43400 -0.98301 
2.17113 2.46600 -0.99593 
2.20819 2.45000 -0.98947 
2.19311 2.38900 -0.96483 
2.11403 2.22200 -0.89739 
2.12620 2.15900 -0.87194 
-2.03617 2.14700 -0.87606 
-1.92366 2.23500 -0.91197 
-1.85976 2.24800 -0.91727 
-1.83034 2.23500 -0.91197 
-1.72434 2.17200 -0.88626 
-1.50775 1.94000 -0.79160 
-1.33922 1.76100 -0.71856 
-1.31977 1.74500 -0.71203 
-1.40968 1.95000 -0.79568 
-1.53389 2.17200 -0.88626 
-1.55913 2.27500 -0.92829 
-1.54964 2.27500 -0.92829 
-1.51997 2.30200 -0.93931 
-1.37791 2.38900 -0.97481 
-1.36794 2.38900 -0.97481 
-1.33801 2.38900 -0.97481 
-1.26819 2.38900 -0.97481 
-1.26611 2.40400 -0.98093 
-1.23600 2.40400 -0.98093 
-1.23361 2.41900 -0.98705 
-1.14980 2.43400 -0.99317 
-1.11644 2.45000 -0.99970 
-1.08254 2.46600 -1.00623 
-1.07225 2.46600 -1.00623 
-0.92810 2.46600 -1.00623 
-0.86070 2.45000 -0.99970 
-0.84572 2.46600 -1.00623 
-0.83543 2.46600 -1.00623 
-0.71552 2.51500 -1.02622 
-0.64609 2.53100 -1.03275 
-0.61439 2.53100 -1.03275 
-0.60122 2.56500 -1.04662 
-0.54806 2.61800 -1.06825 
-0.48032 2.73000 -1.11395 
-0.46087 2.75000 -1.12211 
-0.33013 2.81000 -1.14659 
-0.22134 2.77000 -1.13027 
-0.20531 2.71100 -1.10620 
-0.07757 2.03300 -0.82954 
-0.06836 2.01200 -0.82098 
-0.01715 1.92100 -0.78384 
-0.00913 1.92100 -0.78384 
0.10638 1.83800 -0.74998 
0.12114 1.82900 -0.74630 
0.16614 1.82000 -0.74263 
0.27874 1.81100 -0.73896 
0.30898 1.81100 -0.73896 
0.33332 1.82000 -0.74263 
0.36551 1.82900 -0.74630 
0.37498 1.83800 -0.74998 
0.45157 1.90200 -0.77609 
0.89029 3.00900 -1.22779 
0.91005 3.03300 -1.23758 
1.06631 3.08200 -1.25758 
1.09205 3.08200 -1.25758 
1.10492 3.08200 -1.25758 
1.14352 3.08200 -1.25758 
1.48948 3.13300 -1.27839 
1.54180 3.13300 -1.27839 
1.67331 3.15900 -1.28900 
1.68650 3.15900 -1.28900 
1.69969 3.15900 -1.28900 
1.70973 3.08200 -1.25758 
1.57184 2.71100 -1.10620 
1.51834 2.60000 -1.06090 
1.38150 2.31600 -0.94502 
1.32100 2.18400 -0.89116 
1.49111 2.24800 -0.91727 
1.61457 2.38900 -0.97481 
1.71809 2.46600 -1.00623 
1.68493 2.40400 -0.98093 
1.66324 2.35900 -0.96257 
1.50942 2.04400 -0.83403 
1.61193 2.05500 -0.83852 
1.84149 2.27500 -0.92829 
1.88434 2.31600 -0.94502 
1.90628 2.33100 -0.95114 
2.05149 2.43400 -0.99317 
2.07521 2.45000 -0.99970 
2.08544 2.45000 -0.99970 
2.16083 2.46600 -1.00623 
2.17113 2.46600 -1.00623 
2.13319 2.26200 -0.92299 
-2.00248 2.15900 -0.88997 
-1.91433 2.23500 -0.92130 
-1.90500 2.23500 -0.92130 
-1.89567 2.23500 -0.92130 
-1.86767 2.23500 -0.92130 
-1.78259 2.22200 -0.91594 
-1.45559 1.88300 -0.77620 
-1.41691 1.96000 -0.80794 
-1.56879 2.24800 -0.92666 
-1.55913 2.27500 -0.93779 
-1.54014 2.27500 -0.93779 
-1.50992 2.33100 -0.96087 
-1.45911 2.35900 -0.97242 
-1.43941 2.35900 -0.97242 
-1.35796 2.38900 -0.98478 
-1.20061 2.43400 -1.00333 
-1.12947 2.43400 -1.00333 
-0.98987 2.46600 -1.01652 
-0.88116 2.45000 -1.00993 
-0.82513 2.46600 -1.01652 
-0.80976 2.48200 -1.02312 
-0.78369 2.49800 -1.02971 
-0.71552 2.51500 -1.03672 
-0.60788 2.54800 -1.05032 
-0.60122 2.56500 -1.05733 
-0.59443 2.58200 -1.06434 
-0.57286 2.58200 -1.06434 
-0.55899 2.61800 -1.07918 
-0.52609 2.67300 -1.10185 
-0.49961 2.71100 -1.11751 
-0.49172 2.73000 -1.12535 
-0.47235 2.75000 -1.13359 
-0.32778 2.79000 -1.15008 
-0.29493 2.81000 -1.15832 
-0.26168 2.83100 -1.16698 
-0.23627 2.81000 -1.15832 
-0.17283 2.56500 -1.05733 
-0.14279 2.41900 -0.99715 
-0.06945 2.04400 -0.84257 
-0.06026 2.02200 -0.83350 
-0.02542 1.94000 -0.79970 
-0.00908 1.91100 -0.78774 
0.10534 1.82000 -0.75023 
0.28361 1.79400 -0.73951 
0.45371 1.91100 -0.78774 
0.73088 2.61800 -1.07918 
0.99416 3.05800 -1.26055 
1.05801 3.05800 -1.26055 
1.07077 3.05800 -1.26055 
1.28812 3.18500 -1.31290 
1.36610 3.21200 -1.32403 
1.43316 3.21200 -1.32403 
1.44908 3.15900 -1.30219 
1.46332 3.13300 -1.29147 
1.47712 3.10700 -1.28075 
1.49009 3.10700 -1.28075 
1.51671 3.08200 -1.27045 
1.54198 3.10700 -1.28075 
1.37315 2.30200 -0.94892 
1.29649 2.10000 -0.86565 
1.34910 2.10000 -0.86565 
1.69814 2.48200 -1.02312 
1.64259 2.31600 -0.95469 
1.50978 2.03300 -0.83803 
1.72055 2.15900 -0.88997 
1.90628 2.33100 -0.96087 
2.02875 2.41900 -0.99715 
2.06165 2.43400 -1.00333 
2.18773 2.45000 -1.00993 
2.19796 2.45000 -1.00993 
2.20045 2.41900 -0.99715 
2.19684 2.40400 -0.99096 
2.12938 2.24800 -0.92666 
2.12330 2.22200 -0.91594 
2.12933 2.20900 -0.91058 
2.16906 2.18400 -0.90028 
2.17528 2.17200 -0.89533 
2.19342 2.17200 -0.89533 
-2.04755 2.15900 -0.89899 
-2.01150 2.15900 -0.89899 
-1.97544 2.15900 -0.89899 
-1.96642 2.15900 -0.89899 
-1.95517 2.19700 -0.91481 
-1.94599 2.19700 -0.91481 
-1.92366 2.23500 -0.93063 
-1.86767 2.23500 -0.93063 
-1.84901 2.23500 -0.93063 
-1.83034 2.23500 -0.93063 
-1.56352 2.00100 -0.83320 
-1.31977 1.74500 -0.72660 
-1.56879 2.24800 -0.93605 
-1.54964 2.27500 -0.94729 
-1.54961 2.28900 -0.95312 
-1.54006 2.28900 -0.95312 
-1.48961 2.34500 -0.97644 
-1.42956 2.35900 -0.98227 
-1.34799 2.38900 -0.99476 
-1.28814 2.38900 -0.99476 
-0.94869 2.46600 -1.02682 
-0.93839 2.46600 -1.02682 
-0.78369 2.49800 -1.04014 
-0.73652 2.51500 -1.04722 
-0.66723 2.53100 -1.05388 
-0.60122 2.56500 -1.06804 
-0.56600 2.60000 -1.08261 
-0.44939 2.75000 -1.14507 
-0.33943 2.79000 -1.16173 
-0.28320 2.81000 -1.17006 
-0.14557 2.46600 -1.02682 
-0.05210 2.03300 -0.84652 
-0.04292 2.00100 -0.83320 
0.05315 1.85500 -0.77240 
0.10482 1.81100 -0.75408 
0.14812 1.78600 -0.74367 
0.16972 1.77800 -0.74034 
0.24396 1.77800 -0.74034 
0.29593 1.77800 -0.74034 
0.42348 1.88300 -0.78406 
0.48240 1.93000 -0.80363 
0.83238 2.89500 -1.20545 
0.96336 3.08200 -1.28331 
1.25123 3.15900 -1.31538 
1.49097 3.08200 -1.28331 
1.52957 3.08200 -1.28331 
1.56793 3.10700 -1.29372 
1.60721 3.13300 -1.30455 
1.68650 3.15900 -1.31538 
1.70973 3.08200 -1.28331 
1.69388 2.98600 -1.24334 
1.33470 2.22200 -0.92522 
1.29508 2.11200 -0.87942 
1.67690 2.46600 -1.02682 
1.59448 2.22200 -0.92522 
1.52016 1.99100 -0.82903 
1.76000 2.19700 -0.91481 
2.00613 2.40400 -1.00100 
2.01617 2.40400 -1.00100 
2.11612 2.45000 -1.02016 
2.18773 2.45000 -1.02016 
2.19377 2.43400 -1.01349 
2.20688 2.40400 -1.00100 
2.15700 2.20900 -0.91981 
2.22536 2.22200 -0.92522 
2.24391 2.22200 -0.92522 
-2.05082 2.17200 -0.91347 
-2.01150 2.15900 -0.90800 
-1.96184 2.18400 -0.91852 
-1.95662 2.20900 -0.92903 
-1.92366 2.23500 -0.93996 
-1.86767 2.23500 -0.93996 
-1.85834 2.23500 -0.93996 
-1.83034 2.23500 -0.93996 
-1.30386 1.75300 -0.73725 
-1.31503 1.77800 -0.74777 
-1.54006 2.28900 -0.96268 
-1.51954 2.31600 -0.97403 
-1.36794 2.38900 -1.00473 
-1.35796 2.38900 -1.00473 
-1.27816 2.38900 -1.00473 
-1.24824 2.38900 -1.00473 
-1.24604 2.40400 -1.01104 
-1.23600 2.40400 -1.01104 
-1.12947 2.43400 -1.02366 
-1.08254 2.46600 -1.03711 
-1.07225 2.46600 -1.03711 
-0.95899 2.46600 -1.03711 
-0.92207 2.45000 -1.03039 
-0.86070 2.45000 -1.03039 
-0.83543 2.46600 -1.03711 
-0.82012 2.48200 -1.04384 
-0.72602 2.51500 -1.05772 
-0.67780 2.53100 -1.06445 
-0.64406 2.56500 -1.07875 
-0.62264 2.56500 -1.07875 
-0.58771 2.60000 -1.09347 
-0.56600 2.60000 -1.09347 
-0.55899 2.61800 -1.10104 
-0.51493 2.67300 -1.12417 
-0.45752 2.73000 -1.14814 
-0.43472 2.73000 -1.14814 
-0.32778 2.79000 -1.17338 
-0.29284 2.79000 -1.17338 
-0.17761 2.63600 -1.10861 
-0.07336 2.15900 -0.90800 
-0.04361 2.03300 -0.85501 
0.01479 1.90200 -0.79992 
0.02261 1.89200 -0.79571 
0.06801 1.83800 -0.77300 
0.10436 1.80300 -0.75828 
0.14745 1.77800 -0.74777 
0.24163 1.76100 -0.74062 
0.25634 1.76100 -0.74062 
0.27839 1.76100 -0.74062 
0.30780 1.76100 -0.74062 
0.31516 1.76100 -0.74062 
0.32251 1.76100 -0.74062 
0.50596 1.99100 -0.83735 
0.74093 2.65400 -1.11618 
0.97623 3.08200 -1.29618 
1.11268 3.03300 -1.27558 
1.13462 3.05800 -1.28609 
1.20469 3.10700 -1.30670 
1.24093 3.13300 -1.31763 
1.26442 3.15900 -1.32857 
1.36610 3.21200 -1.35086 
1.70973 3.08200 -1.29618 
1.69436 3.00900 -1.26548 
1.36539 2.28900 -0.96268 
1.29862 2.14700 -0.90295 
1.29649 2.10000 -0.88319 
1.30526 2.10000 -0.88319 
1.70595 2.43400 -1.02366 
1.65323 2.33100 -0.98034 
1.62301 2.27500 -0.95679 
1.51644 2.07700 -0.87352 
1.51108 2.00100 -0.84155 
1.54450 2.00100 -0.84155 
1.99361 2.38900 -1.00473 
2.11612 2.45000 -1.03039 
2.18143 2.46600 -1.03711 
2.17445 2.31600 -0.97403 
2.17631 2.24800 -0.94543 
2.21385 2.24800 -0.94543 
2.26542 2.26200 -0.95132 
-1.96434 2.19700 -0.93316 
-1.41313 1.83800 -0.78067 
-1.31248 1.74500 -0.74117 
-1.30520 1.74500 -0.74117 
-1.31503 1.77800 -0.75519 
-1.33850 1.82000 -0.77303 
-1.36307 1.86400 -0.79172 
-1.45329 2.02200 -0.85883 
-1.48414 2.07700 -0.88219 
-1.56905 2.23500 -0.94930 
-1.53888 2.31600 -0.98370 
-1.50992 2.33100 -0.99007 
-1.49940 2.34500 -0.99602 
-1.44066 2.34500 -0.99602 
-1.35796 2.38900 -1.01471 
-1.26819 2.38900 -1.01471 
-1.23600 2.40400 -1.02108 
-1.17012 2.43400 -1.03382 
-1.14980 2.43400 -1.03382 
-0.98987 2.46600 -1.04741 
-0.90162 2.45000 -1.04062 
-0.79412 2.49800 -1.06100 
-0.75752 2.51500 -1.06822 
-0.73652 2.51500 -1.06822 
-0.62677 2.58200 -1.09668 
-0.59857 2.60000 -1.10433 
-0.46565 2.71100 -1.15147 
-0.44612 2.73000 -1.15954 
-0.29284 2.79000 -1.18503 
-0.23459 2.79000 -1.18503 
-0.09926 2.34500 -0.99602 
0.01479 1.90200 -0.80786 
0.06060 1.84600 -0.78407 
0.08930 1.80300 -0.76581 
0.12518 1.77800 -0.75519 
0.15340 1.76100 -0.74797 
0.16075 1.76100 -0.74797 
0.23944 1.74500 -0.74117 
0.28315 1.74500 -0.74117 
0.32105 1.75300 -0.74457 
0.34790 1.77800 -0.75519 
0.38078 1.82900 -0.77685 
0.45822 1.93000 -0.81975 
0.47111 1.95000 -0.82825 
0.51383 2.02200 -0.85883 
0.61382 2.30200 -0.97775 
0.65512 2.41900 -1.02745 
0.79055 2.79000 -1.18503 
0.91005 3.03300 -1.28824 
0.93032 3.05800 -1.29886 
0.98910 3.08200 -1.30905 
0.99416 3.05800 -1.29886 
1.16015 3.05800 -1.29886 
1.20469 3.10700 -1.31967 
1.25401 3.13300 -1.33071 
1.29080 3.15900 -1.34176 
1.37951 3.21200 -1.36427 
1.39292 3.21200 -1.36427 
1.40633 3.21200 -1.36427 
1.45023 3.13300 -1.33071 
1.45236 3.08200 -1.30905 
1.50489 3.05800 -1.29886 
1.54244 3.08200 -1.30905 
1.60685 3.10700 -1.31967 
1.65954 3.13300 -1.33071 
1.40618 2.37400 -1.00833 
1.29862 2.14700 -0.91192 
1.30526 2.10000 -0.89196 
1.31403 2.10000 -0.89196 
1.34799 2.11200 -0.89705 
1.36388 2.12300 -0.90173 
1.60459 2.38900 -1.01471 
1.69814 2.48200 -1.05421 
1.50088 2.04400 -0.86817 
2.09214 2.43400 -1.03382 
