ply
format ascii 1.0
comment pointcloud saved from Realsense Viewer
element vertex 1828
property float32 x
property float32 y
property float32 z
end_header
-0.29574 -0.701553 -1.96 
-0.287556 -0.701553 -1.96 
-0.279373 -0.701553 -1.96 
-0.269805 -0.697974 -1.95 
-0.261663 -0.697974 -1.95 
-0.253521 -0.697974 -1.95 
-0.24538 -0.697974 -1.95 
-0.237238 -0.697974 -1.95 
-0.23027 -0.701553 -1.96 
-0.222087 -0.701553 -1.96 
-0.213903 -0.701553 -1.96 
-0.206769 -0.705132 -1.97 
-0.198544 -0.705132 -1.97 
-0.190318 -0.705132 -1.97 
-0.182093 -0.705132 -1.97 
-0.172985 -0.701553 -1.96 
-0.165642 -0.705132 -1.97 
-0.156617 -0.701553 -1.96 
-0.148433 -0.701553 -1.96 
-0.14025 -0.701553 -1.96 
-0.132066 -0.701553 -1.96 
-0.123882 -0.701553 -1.96 
-0.115699 -0.701553 -1.96 
-0.107515 -0.701553 -1.96 
-0.0993313 -0.701553 -1.96 
-0.0911476 -0.701553 -1.96 
-0.0829639 -0.701553 -1.96 
-0.0747802 -0.701553 -1.96 
-0.0665965 -0.701553 -1.96 
-0.0584128 -0.701553 -1.96 
-0.0502291 -0.701553 -1.96 
-0.0420454 -0.701553 -1.96 
-0.0336889 -0.697974 -1.95 
-0.025547 -0.697974 -1.95 
-0.017405 -0.697974 -1.95 
-0.00926306 -0.697974 -1.95 
-0.00112111 -0.697974 -1.95 
0.00702084 -0.697974 -1.95 
0.0151628 -0.697974 -1.95 
0.0234242 -0.701553 -1.96 
0.0316079 -0.701553 -1.96 
0.0397917 -0.701553 -1.96 
0.0482201 -0.705132 -1.97 
0.0564456 -0.705132 -1.97 
0.0649993 -0.708712 -1.98 
0.0736736 -0.712649 -1.991 
0.0823985 -0.716228 -2.001 
0.0907534 -0.716228 -2.001 
0.0996531 -0.720166 -2.012 
0.108054 -0.720166 -2.012 
0.120911 -0.747727 -2.089 
0.135529 -0.78173 -2.184 
0.151602 -0.819314 -2.289 
0.169256 -0.860476 -2.404 
0.188766 -0.905934 -2.531 
0.210517 -0.956761 -2.673 
0.234781 -1.01331 -2.831 
0.264197 -1.08562 -3.033 
0.295665 -1.15935 -3.239 
0.311862 -1.16937 -3.267 
0.328293 -1.1794 -3.295 
0.342051 -1.1794 -3.295 
0.355809 -1.1794 -3.295 
0.369566 -1.1794 -3.295 
0.386698 -1.18978 -3.324 
0.400577 -1.18978 -3.324 
0.414456 -1.18978 -3.324 
0.428335 -1.18978 -3.324 
0.442213 -1.18978 -3.324 
0.456092 -1.18978 -3.324 
0.469971 -1.18978 -3.324 
0.48385 -1.18978 -3.324 
0.502071 -1.20016 -3.353 
0.516071 -1.20016 -3.353 
0.530071 -1.20016 -3.353 
0.544071 -1.20016 -3.353 
0.558071 -1.20016 -3.353 
0.577019 -1.21054 -3.382 
0.59114 -1.21054 -3.382 
0.610809 -1.22163 -3.413 
0.62506 -1.22163 -3.413 
0.64493 -1.23237 -3.443 
0.659305 -1.23237 -3.443 
0.679942 -1.24382 -3.475 
0.694452 -1.24382 -3.475 
0.708961 -1.24382 -3.475 
0.723471 -1.24382 -3.475 
0.73798 -1.24382 -3.475 
0.752489 -1.24382 -3.475 
0.766999 -1.24382 -3.475 
0.774311 -1.23237 -3.443 
0.788687 -1.23237 -3.443 
0.803063 -1.23237 -3.443 
0.817439 -1.23237 -3.443 
0.831814 -1.23237 -3.443 
0.84619 -1.23237 -3.443 
0.860566 -1.23237 -3.443 
0.874942 -1.23237 -3.443 
0.889317 -1.23237 -3.443 
0.903693 -1.23237 -3.443 
0.926602 -1.24382 -3.475 
0.941111 -1.24382 -3.475 
0.95562 -1.24382 -3.475 
0.97013 -1.24382 -3.475 
0.984639 -1.24382 -3.475 
0.989948 -1.23237 -3.443 
1.00432 -1.23237 -3.443 
1.00982 -1.22163 -3.413 
1.02407 -1.22163 -3.413 
1.02889 -1.21054 -3.382 
1.04301 -1.21054 -3.382 
1.04807 -1.20016 -3.353 
1.06207 -1.20016 -3.353 
1.06676 -1.18978 -3.324 
1.08064 -1.18978 -3.324 
1.09452 -1.18978 -3.324 
1.1084 -1.18978 -3.324 
1.11249 -1.1794 -3.295 
1.12625 -1.1794 -3.295 
1.14 -1.1794 -3.295 
1.14396 -1.16937 -3.267 
1.1576 -1.16937 -3.267 
1.1612 -1.15935 -3.239 
1.17472 -1.15935 -3.239 
1.18825 -1.15935 -3.239 
1.20177 -1.15935 -3.239 
1.20517 -1.14969 -3.212 
1.21858 -1.14969 -3.212 
1.23199 -1.14969 -3.212 
1.2454 -1.14969 -3.212 
1.24823 -1.14002 -3.185 
1.26153 -1.14002 -3.185 
1.26442 -1.13072 -3.159 
1.27761 -1.13072 -3.159 
1.28018 -1.12141 -3.133 
1.29326 -1.12141 -3.133 
1.30634 -1.12141 -3.133 
1.30847 -1.1121 -3.107 
1.31081 -1.10316 -3.082 
1.32368 -1.10316 -3.082 
1.32614 -1.09457 -3.058 
1.33891 -1.09457 -3.058 
1.34063 -1.08562 -3.033 
1.34258 -1.07703 -3.009 
1.35514 -1.07703 -3.009 
1.35725 -1.06879 -2.986 
1.36972 -1.06879 -2.986 
1.38219 -1.06879 -2.986 
1.39466 -1.06879 -2.986 
1.40712 -1.06879 -2.986 
1.41959 -1.06879 -2.986 
1.42103 -1.06056 -2.963 
1.4334 -1.06056 -2.963 
1.43455 -1.05233 -2.94 
1.44682 -1.05233 -2.94 
1.44818 -1.04445 -2.918 
1.44886 -1.03622 -2.895 
1.46094 -1.03622 -2.895 
1.47303 -1.03622 -2.895 
1.48512 -1.03622 -2.895 
1.49721 -1.03622 -2.895 
1.49834 -1.02871 -2.874 
1.51034 -1.02871 -2.874 
1.52234 -1.02871 -2.874 
1.53434 -1.02871 -2.874 
1.54634 -1.02871 -2.874 
1.55834 -1.02871 -2.874 
1.57034 -1.02871 -2.874 
1.58234 -1.02871 -2.874 
1.58214 -1.02083 -2.852 
1.59405 -1.02083 -2.852 
1.60596 -1.02083 -2.852 
1.60595 -1.01331 -2.831 
1.61777 -1.01331 -2.831 
1.6175 -1.0058 -2.81 
1.61764 -0.998639 -2.79 
1.60593 -0.984322 -2.75 
1.60565 -0.977163 -2.73 
1.6058 -0.970362 -2.711 
1.59445 -0.956761 -2.673 
1.5942 -0.94996 -2.654 
1.59439 -0.943517 -2.636 
1.59443 -0.937074 -2.618 
1.59433 -0.930631 -2.6 
1.60518 -0.930631 -2.6 
1.61604 -0.930631 -2.6 
1.61563 -0.924189 -2.582 
1.6157 -0.918104 -2.565 
1.62641 -0.918104 -2.565 
1.63712 -0.918104 -2.565 
1.64783 -0.918104 -2.565 
1.65854 -0.918104 -2.565 
1.66925 -0.918104 -2.565 
1.67996 -0.918104 -2.565 
1.69067 -0.918104 -2.565 
1.70138 -0.918104 -2.565 
1.72344 -0.924189 -2.582 
1.7228 -0.918104 -2.565 
1.72202 -0.912019 -2.548 
1.7211 -0.905934 -2.531 
1.70909 -0.894122 -2.498 
1.70851 -0.888395 -2.482 
1.70779 -0.882668 -2.466 
1.69579 -0.871214 -2.434 
1.69544 -0.865845 -2.419 
1.69497 -0.860476 -2.404 
1.69436 -0.855107 -2.389 
1.69364 -0.849738 -2.374 
1.69279 -0.844369 -2.359 
1.70264 -0.844369 -2.359 
1.70232 -0.839358 -2.345 
1.71211 -0.839358 -2.345 
1.71163 -0.834347 -2.331 
1.72136 -0.834347 -2.331 
1.73109 -0.834347 -2.331 
1.74082 -0.834347 -2.331 
1.75056 -0.834347 -2.331 
1.76029 -0.834347 -2.331 
1.77002 -0.834347 -2.331 
1.77975 -0.834347 -2.331 
1.78949 -0.834347 -2.331 
1.79922 -0.834347 -2.331 
1.80895 -0.834347 -2.331 
1.81869 -0.834347 -2.331 
1.82842 -0.834347 -2.331 
1.83815 -0.834347 -2.331 
1.84788 -0.834347 -2.331 
1.85762 -0.834347 -2.331 
1.86735 -0.834347 -2.331 
1.87708 -0.834347 -2.331 
1.90948 -0.844369 -2.359 
1.94374 -0.855107 -2.389 
1.97825 -0.865845 -2.419 
2.00068 -0.871214 -2.434 
2.02406 -0.876941 -2.45 
2.06086 -0.888395 -2.482 
2.08457 -0.894122 -2.498 
2.12268 -0.905934 -2.531 
2.14757 -0.912019 -2.548 
2.17261 -0.918104 -2.565 
2.19779 -0.924189 -2.582 
2.20857 -0.924189 -2.582 
2.23483 -0.930631 -2.6 
2.26123 -0.937074 -2.618 
2.27216 -0.937074 -2.618 
2.29879 -0.943517 -2.636 
2.3098 -0.943517 -2.636 
2.3208 -0.943517 -2.636 
2.34773 -0.94996 -2.654 
2.35881 -0.94996 -2.654 
2.38686 -0.956761 -2.673 
2.41507 -0.963562 -2.692 
2.42631 -0.963562 -2.692 
2.45475 -0.970362 -2.711 
2.46607 -0.970362 -2.711 
2.49475 -0.977163 -2.73 
2.52451 -0.984322 -2.75 
2.53599 -0.984322 -2.75 
2.566 -0.99148 -2.77 
2.57757 -0.99148 -2.77 
2.60783 -0.998639 -2.79 
2.61948 -0.998639 -2.79 
2.66979 -1.01331 -2.831 
2.68161 -1.01331 -2.831 
2.71341 -1.02083 -2.852 
2.72532 -1.02083 -2.852 
2.73723 -1.02083 -2.852 
2.77034 -1.02871 -2.874 
2.80267 -1.03622 -2.895 
2.83712 -1.04445 -2.918 
2.84931 -1.04445 -2.918 
2.86149 -1.04445 -2.918 
2.89534 -1.05233 -2.94 
2.93036 -1.06056 -2.963 
2.96558 -1.06879 -2.986 
3.00098 -1.07703 -3.009 
3.01355 -1.07703 -3.009 
3.02611 -1.07703 -3.009 
3.03867 -1.07703 -3.009 
-1.99416 -0.764777 -2.112 
-1.96372 -0.756449 -2.089 
-1.94377 -0.752104 -2.077 
-1.9351 -0.752104 -2.077 
-1.91622 -0.74812 -2.066 
-1.89744 -0.744137 -2.055 
-1.87875 -0.740154 -2.044 
-1.87022 -0.740154 -2.044 
-1.86168 -0.740154 -2.044 
-1.85315 -0.740154 -2.044 
-1.84461 -0.740154 -2.044 
-1.83608 -0.740154 -2.044 
-1.82754 -0.740154 -2.044 
-1.81901 -0.740154 -2.044 
-1.81047 -0.740154 -2.044 
-1.80194 -0.740154 -2.044 
-1.79341 -0.740154 -2.044 
-1.78487 -0.740154 -2.044 
-1.77634 -0.740154 -2.044 
-1.7678 -0.740154 -2.044 
-1.76874 -0.744137 -2.055 
-1.76016 -0.744137 -2.055 
-1.75157 -0.744137 -2.055 
-1.74299 -0.744137 -2.055 
-1.73441 -0.744137 -2.055 
-1.72583 -0.744137 -2.055 
-1.72645 -0.74812 -2.066 
-1.71782 -0.74812 -2.066 
-1.71829 -0.752104 -2.077 
-1.70962 -0.752104 -2.077 
-1.70095 -0.752104 -2.077 
-1.69228 -0.752104 -2.077 
-1.6836 -0.752104 -2.077 
-1.67493 -0.752104 -2.077 
-1.66626 -0.752104 -2.077 
-1.65759 -0.752104 -2.077 
-1.65844 -0.756449 -2.089 
-1.64972 -0.756449 -2.089 
-1.641 -0.756449 -2.089 
-1.64087 -0.760432 -2.1 
-1.6321 -0.760432 -2.1 
-1.62333 -0.760432 -2.1 
-1.62379 -0.764777 -2.112 
-1.61497 -0.764777 -2.112 
-1.61452 -0.768761 -2.123 
-1.60566 -0.768761 -2.123 
-1.60582 -0.773106 -2.135 
-1.60588 -0.777451 -2.147 
-1.59691 -0.777451 -2.147 
-1.59683 -0.781797 -2.159 
-1.58781 -0.781797 -2.159 
-1.5883 -0.786504 -2.172 
-1.57923 -0.786504 -2.172 
-1.57884 -0.790849 -2.184 
-1.56972 -0.790849 -2.184 
-1.56989 -0.795557 -2.197 
-1.56924 -0.799902 -2.209 
-1.5692 -0.80461 -2.222 
-1.55992 -0.80461 -2.222 
-1.55972 -0.809317 -2.235 
-1.55038 -0.809317 -2.235 
-1.55002 -0.814025 -2.248 
-1.54063 -0.814025 -2.248 
-1.53124 -0.814025 -2.248 
-1.53134 -0.819094 -2.262 
-1.52189 -0.819094 -2.262 
-1.51245 -0.819094 -2.262 
-1.503 -0.819094 -2.262 
-1.49356 -0.819094 -2.262 
-1.48411 -0.819094 -2.262 
-1.47467 -0.819094 -2.262 
-1.47364 -0.823801 -2.275 
-1.46414 -0.823801 -2.275 
-1.4636 -0.828871 -2.289 
-1.45404 -0.828871 -2.289 
-1.44448 -0.828871 -2.289 
-1.44307 -0.833578 -2.302 
-1.43346 -0.833578 -2.302 
-1.42385 -0.833578 -2.302 
-1.42284 -0.838648 -2.316 
-1.41317 -0.838648 -2.316 
-1.4035 -0.838648 -2.316 
-1.39383 -0.838648 -2.316 
-1.39312 -0.84408 -2.331 
-1.38339 -0.84408 -2.331 
-1.37366 -0.84408 -2.331 
-1.36393 -0.84408 -2.331 
-1.35419 -0.84408 -2.331 
-1.35254 -0.849149 -2.345 
-1.34274 -0.849149 -2.345 
-1.33295 -0.849149 -2.345 
-1.33106 -0.854219 -2.359 
-1.32121 -0.854219 -2.359 
-1.3197 -0.85965 -2.374 
-1.30979 -0.85965 -2.374 
-1.29988 -0.85965 -2.374 
-1.28996 -0.85965 -2.374 
-1.28005 -0.85965 -2.374 
-1.27014 -0.85965 -2.374 
-1.26023 -0.85965 -2.374 
-1.25031 -0.85965 -2.374 
-1.2404 -0.85965 -2.374 
-1.23049 -0.85965 -2.374 
-1.22058 -0.85965 -2.374 
-1.21067 -0.85965 -2.374 
-1.20834 -0.865082 -2.389 
-1.19837 -0.865082 -2.389 
-1.18839 -0.865082 -2.389 
-1.17842 -0.865082 -2.389 
-1.16844 -0.865082 -2.389 
-1.15847 -0.865082 -2.389 
-1.14849 -0.865082 -2.389 
-1.13852 -0.865082 -2.389 
-1.12854 -0.865082 -2.389 
-1.12559 -0.870514 -2.404 
-1.11555 -0.870514 -2.404 
-1.11241 -0.875945 -2.419 
-1.10231 -0.875945 -2.419 
-1.09221 -0.875945 -2.419 
-1.08882 -0.881377 -2.434 
-1.07866 -0.881377 -2.434 
-1.07552 -0.887171 -2.45 
-1.06529 -0.887171 -2.45 
-1.05506 -0.887171 -2.45 
-1.04483 -0.887171 -2.45 
-1.0346 -0.887171 -2.45 
-1.03106 -0.892965 -2.466 
-1.02076 -0.892965 -2.466 
-1.01047 -0.892965 -2.466 
-1.00017 -0.892965 -2.466 
-0.989875 -0.892965 -2.466 
-0.985935 -0.898758 -2.482 
-0.975571 -0.898758 -2.482 
-0.965208 -0.898758 -2.482 
-0.954845 -0.898758 -2.482 
-0.944482 -0.898758 -2.482 
-0.934118 -0.898758 -2.482 
-0.923755 -0.898758 -2.482 
-0.91928 -0.904552 -2.498 
-0.90885 -0.904552 -2.498 
-0.904534 -0.910708 -2.515 
-0.894033 -0.910708 -2.515 
-0.889153 -0.916502 -2.531 
-0.878585 -0.916502 -2.531 
-0.873847 -0.922658 -2.548 
-0.868968 -0.928814 -2.565 
-0.858258 -0.928814 -2.565 
-0.853166 -0.934969 -2.582 
-0.848257 -0.941487 -2.6 
-0.837401 -0.941487 -2.6 
-0.832268 -0.948005 -2.618 
-0.821337 -0.948005 -2.618 
-0.810406 -0.948005 -2.618 
-0.804971 -0.954523 -2.636 
-0.793965 -0.954523 -2.636 
-0.788305 -0.961041 -2.654 
-0.777224 -0.961041 -2.654 
-0.771627 -0.967921 -2.673 
-0.760467 -0.967921 -2.673 
-0.749306 -0.967921 -2.673 
-0.732898 -0.961041 -2.654 
-0.716921 -0.954523 -2.636 
-0.691454 -0.934969 -2.582 
-0.667228 -0.916502 -2.531 
-0.639797 -0.892965 -2.466 
-0.613673 -0.870514 -2.404 
-0.585306 -0.84408 -2.331 
-0.558535 -0.819094 -2.262 
-0.533312 -0.795557 -2.197 
-0.509348 -0.773106 -2.135 
-0.489651 -0.756449 -2.089 
-0.470569 -0.740154 -2.044 
-0.457061 -0.732188 -2.022 
-0.441741 -0.720962 -1.991 
-0.431033 -0.716979 -1.98 
-0.420631 -0.713358 -1.97 
-0.410312 -0.709737 -1.96 
-0.402128 -0.709737 -1.96 
-0.391935 -0.706116 -1.95 
-0.385761 -0.709737 -1.96 
-0.375651 -0.706116 -1.95 
-0.369393 -0.709737 -1.96 
-0.36121 -0.709737 -1.96 
-0.351225 -0.706116 -1.95 
-0.343083 -0.706116 -1.95 
-0.334941 -0.706116 -1.95 
-0.326799 -0.706116 -1.95 
-0.318657 -0.706116 -1.95 
-0.310515 -0.706116 -1.95 
-0.300823 -0.702494 -1.94 
-0.291213 -0.698873 -1.93 
-0.283155 -0.698873 -1.93 
-0.275097 -0.698873 -1.93 
-0.265793 -0.695614 -1.921 
-0.257772 -0.695614 -1.921 
-0.249751 -0.695614 -1.921 
-0.24173 -0.695614 -1.921 
-0.233709 -0.695614 -1.921 
-0.225689 -0.695614 -1.921 
-0.218688 -0.698873 -1.93 
-0.210629 -0.698873 -1.93 
-0.202571 -0.698873 -1.93 
-0.19552 -0.702494 -1.94 
-0.18742 -0.702494 -1.94 
-0.17932 -0.702494 -1.94 
-0.170337 -0.698873 -1.93 
-0.163119 -0.702494 -1.94 
-0.15422 -0.698873 -1.93 
-0.146162 -0.698873 -1.93 
-0.138103 -0.698873 -1.93 
-0.130045 -0.698873 -1.93 
-0.121986 -0.698873 -1.93 
-0.113928 -0.698873 -1.93 
-0.106418 -0.702494 -1.94 
-0.0983177 -0.702494 -1.94 
-0.0902175 -0.702494 -1.94 
-0.0821173 -0.702494 -1.94 
-0.0740171 -0.702494 -1.94 
-0.0655771 -0.698873 -1.93 
-0.0575187 -0.698873 -1.93 
-0.0494603 -0.698873 -1.93 
-0.0414018 -0.698873 -1.93 
-0.0333434 -0.698873 -1.93 
-0.025167 -0.695614 -1.921 
-0.0172265 -0.698873 -1.93 
-0.0091253 -0.695614 -1.921 
-0.00110961 -0.698873 -1.93 
0.00694883 -0.698873 -1.93 
0.015085 -0.702494 -1.94 
0.0233047 -0.706116 -1.95 
0.0314467 -0.706116 -1.95 
0.0397917 -0.709737 -1.96 
0.0479754 -0.709737 -1.96 
0.0564456 -0.713358 -1.97 
0.0649993 -0.716979 -1.98 
0.0736736 -0.720962 -1.991 
0.0823985 -0.724583 -2.001 
0.0912523 -0.728566 -2.012 
0.0996531 -0.728566 -2.012 
0.108054 -0.728566 -2.012 
0.120911 -0.756449 -2.089 
0.134784 -0.786504 -2.172 
0.150675 -0.823801 -2.275 
0.1682 -0.865082 -2.389 
0.210517 -0.967921 -2.673 
0.234781 -1.02513 -2.831 
0.262107 -1.08959 -3.009 
0.293201 -1.1631 -3.212 
0.311862 -1.18302 -3.267 
0.325503 -1.18302 -3.267 
0.342051 -1.19315 -3.295 
0.355809 -1.19315 -3.295 
0.369566 -1.19315 -3.295 
0.386698 -1.20366 -3.324 
0.397082 -1.19315 -3.295 
0.41084 -1.19315 -3.295 
0.424598 -1.19315 -3.295 
0.442213 -1.20366 -3.324 
0.456092 -1.20366 -3.324 
0.469971 -1.20366 -3.324 
0.479629 -1.19315 -3.295 
0.497729 -1.20366 -3.324 
0.511608 -1.20366 -3.324 
0.525487 -1.20366 -3.324 
0.539366 -1.20366 -3.324 
0.558071 -1.21416 -3.353 
0.572071 -1.21416 -3.353 
0.59114 -1.22466 -3.382 
0.605261 -1.22466 -3.382 
0.62506 -1.23588 -3.413 
0.63931 -1.23588 -3.413 
0.659305 -1.24675 -3.443 
0.673681 -1.24675 -3.443 
0.688057 -1.24675 -3.443 
0.702433 -1.24675 -3.443 
0.716808 -1.24675 -3.443 
0.731184 -1.24675 -3.443 
0.74556 -1.24675 -3.443 
0.759936 -1.24675 -3.443 
0.774311 -1.24675 -3.443 
0.788687 -1.24675 -3.443 
0.796066 -1.23588 -3.413 
0.810316 -1.23588 -3.413 
0.824567 -1.23588 -3.413 
0.831198 -1.22466 -3.382 
0.845319 -1.22466 -3.382 
0.85944 -1.22466 -3.382 
0.881568 -1.23588 -3.413 
0.895819 -1.23588 -3.413 
0.91007 -1.23588 -3.413 
0.92432 -1.23588 -3.413 
0.93857 -1.23588 -3.413 
0.952821 -1.23588 -3.413 
0.967072 -1.23588 -3.413 
0.981322 -1.23588 -3.413 
0.98653 -1.22466 -3.382 
1.00065 -1.22466 -3.382 
1.00607 -1.21416 -3.353 
1.02007 -1.21416 -3.353 
1.03407 -1.21416 -3.353 
1.03901 -1.20366 -3.324 
1.05288 -1.20366 -3.324 
1.06676 -1.20366 -3.324 
1.07121 -1.19315 -3.295 
1.08497 -1.19315 -3.295 
1.09873 -1.19315 -3.295 
1.11249 -1.19315 -3.295 
1.11668 -1.18302 -3.267 
1.13032 -1.18302 -3.267 
1.13415 -1.17288 -3.239 
1.14768 -1.17288 -3.239 
1.1612 -1.17288 -3.239 
1.16493 -1.1631 -3.212 
1.18825 -1.17288 -3.239 
1.19175 -1.1631 -3.212 
1.20517 -1.1631 -3.212 
1.20833 -1.15332 -3.185 
1.22163 -1.15332 -3.185 
1.23493 -1.15332 -3.185 
1.23804 -1.14391 -3.159 
1.25123 -1.14391 -3.159 
1.26442 -1.14391 -3.159 
1.26709 -1.13449 -3.133 
1.26955 -1.12508 -3.107 
1.28252 -1.12508 -3.107 
1.28507 -1.11602 -3.082 
1.29794 -1.11602 -3.082 
1.3006 -1.10733 -3.058 
1.30263 -1.09828 -3.033 
1.3153 -1.09828 -3.033 
1.31745 -1.08959 -3.009 
1.31985 -1.08126 -2.986 
1.33232 -1.08126 -2.986 
1.34479 -1.08126 -2.986 
1.3468 -1.07293 -2.963 
1.35917 -1.07293 -2.963 
1.37154 -1.07293 -2.963 
1.38391 -1.07293 -2.963 
1.39629 -1.07293 -2.963 
1.40866 -1.07293 -2.963 
1.42103 -1.07293 -2.963 
1.42227 -1.0646 -2.94 
1.43455 -1.0646 -2.94 
1.436 -1.05664 -2.918 
1.43677 -1.04831 -2.895 
1.44886 -1.04831 -2.895 
1.45034 -1.04071 -2.874 
1.46234 -1.04071 -2.874 
1.47434 -1.04071 -2.874 
1.49721 -1.04831 -2.895 
1.50929 -1.04831 -2.895 
1.51034 -1.04071 -2.874 
1.52234 -1.04071 -2.874 
1.53434 -1.04071 -2.874 
1.55764 -1.04831 -2.895 
1.55834 -1.04071 -2.874 
1.57034 -1.04071 -2.874 
1.58234 -1.04071 -2.874 
1.58214 -1.03274 -2.852 
1.60634 -1.04071 -2.874 
1.60596 -1.03274 -2.852 
1.61786 -1.03274 -2.852 
1.61777 -1.02513 -2.831 
1.6175 -1.01753 -2.81 
1.61764 -1.01029 -2.79 
1.61761 -1.00305 -2.77 
1.60565 -0.988562 -2.73 
1.6058 -0.981682 -2.711 
1.60578 -0.974802 -2.692 
1.5942 -0.961041 -2.654 
1.59439 -0.954523 -2.636 
1.59443 -0.948005 -2.618 
1.60536 -0.948005 -2.618 
1.60518 -0.941487 -2.6 
1.61604 -0.941487 -2.6 
1.61563 -0.934969 -2.582 
1.6157 -0.928814 -2.565 
1.62641 -0.928814 -2.565 
1.62627 -0.922658 -2.548 
1.64783 -0.928814 -2.565 
1.65854 -0.928814 -2.565 
1.66925 -0.928814 -2.565 
1.67996 -0.928814 -2.565 
1.69067 -0.928814 -2.565 
1.70138 -0.928814 -2.565 
1.71209 -0.928814 -2.565 
1.7228 -0.928814 -2.565 
1.72202 -0.922658 -2.548 
1.7211 -0.916502 -2.531 
1.70909 -0.904552 -2.498 
1.71952 -0.904552 -2.498 
1.70779 -0.892965 -2.466 
1.70694 -0.887171 -2.45 
1.70595 -0.881377 -2.434 
1.70554 -0.875945 -2.419 
1.705 -0.870514 -2.404 
1.70434 -0.865082 -2.389 
1.71431 -0.865082 -2.389 
1.71346 -0.85965 -2.374 
1.71249 -0.854219 -2.359 
1.71211 -0.849149 -2.345 
1.72191 -0.849149 -2.345 
1.7317 -0.849149 -2.345 
1.73109 -0.84408 -2.331 
1.74082 -0.84408 -2.331 
1.75056 -0.84408 -2.331 
1.76029 -0.84408 -2.331 
1.77002 -0.84408 -2.331 
1.77975 -0.84408 -2.331 
1.78949 -0.84408 -2.331 
1.79922 -0.84408 -2.331 
1.80895 -0.84408 -2.331 
1.81869 -0.84408 -2.331 
1.82842 -0.84408 -2.331 
1.83815 -0.84408 -2.331 
1.84788 -0.84408 -2.331 
1.85762 -0.84408 -2.331 
1.86735 -0.84408 -2.331 
1.88836 -0.849149 -2.345 
1.92162 -0.85965 -2.374 
1.94374 -0.865082 -2.389 
1.97825 -0.875945 -2.419 
2.01383 -0.887171 -2.45 
2.03728 -0.892965 -2.466 
2.07414 -0.904552 -2.498 
2.11211 -0.916502 -2.531 
2.13694 -0.922658 -2.548 
2.17623 -0.934969 -2.582 
2.18701 -0.934969 -2.582 
2.21311 -0.941487 -2.6 
2.23937 -0.948005 -2.618 
2.2503 -0.948005 -2.618 
2.27678 -0.954523 -2.636 
2.28778 -0.954523 -2.636 
2.29879 -0.954523 -2.636 
2.3098 -0.954523 -2.636 
2.3208 -0.954523 -2.636 
2.34773 -0.961041 -2.654 
2.35881 -0.961041 -2.654 
2.38686 -0.967921 -2.673 
2.39802 -0.967921 -2.673 
2.40918 -0.967921 -2.673 
2.43755 -0.974802 -2.692 
2.44879 -0.974802 -2.692 
2.47739 -0.981682 -2.711 
2.50615 -0.988562 -2.73 
2.53599 -0.995804 -2.75 
2.54748 -0.995804 -2.75 
2.57757 -1.00305 -2.77 
2.58913 -1.00305 -2.77 
2.63825 -1.01753 -2.81 
2.64999 -1.01753 -2.81 
2.7015 -1.03274 -2.852 
2.71341 -1.03274 -2.852 
2.74634 -1.04071 -2.874 
2.75834 -1.04071 -2.874 
2.77034 -1.04071 -2.874 
2.80267 -1.04831 -2.895 
2.83712 -1.05664 -2.918 
2.84931 -1.05664 -2.918 
2.88306 -1.0646 -2.94 
2.89534 -1.0646 -2.94 
2.93036 -1.07293 -2.963 
2.96558 -1.08126 -2.986 
2.97804 -1.08126 -2.986 
2.99051 -1.08126 -2.986 
3.00298 -1.08126 -2.986 
3.03867 -1.08959 -3.009 
-1.99416 -0.773596 -2.112 
-1.97406 -0.7692 -2.1 
-1.955 -0.765171 -2.089 
-1.9351 -0.760776 -2.077 
-1.91622 -0.756747 -2.066 
-1.89744 -0.752718 -2.055 
-1.87875 -0.748688 -2.044 
-1.87022 -0.748688 -2.044 
-1.86168 -0.748688 -2.044 
-1.85315 -0.748688 -2.044 
-1.84461 -0.748688 -2.044 
-1.83608 -0.748688 -2.044 
-1.82754 -0.748688 -2.044 
-1.81901 -0.748688 -2.044 
-1.81047 -0.748688 -2.044 
-1.80194 -0.748688 -2.044 
-1.79341 -0.748688 -2.044 
-1.78487 -0.748688 -2.044 
-1.77634 -0.748688 -2.044 
-1.7678 -0.748688 -2.044 
-1.76874 -0.752718 -2.055 
-1.76016 -0.752718 -2.055 
-1.75157 -0.752718 -2.055 
-1.74299 -0.752718 -2.055 
-1.73441 -0.752718 -2.055 
-1.73507 -0.756747 -2.066 
-1.72645 -0.756747 -2.066 
-1.71782 -0.756747 -2.066 
-1.71829 -0.760776 -2.077 
-1.70962 -0.760776 -2.077 
-1.70095 -0.760776 -2.077 
-1.69228 -0.760776 -2.077 
-1.6836 -0.760776 -2.077 
-1.67493 -0.760776 -2.077 
-1.66626 -0.760776 -2.077 
-1.65759 -0.760776 -2.077 
-1.65844 -0.765171 -2.089 
-1.64972 -0.765171 -2.089 
-1.641 -0.765171 -2.089 
-1.64087 -0.7692 -2.1 
-1.6321 -0.7692 -2.1 
-1.63261 -0.773596 -2.112 
-1.62379 -0.773596 -2.112 
-1.61497 -0.773596 -2.112 
-1.61452 -0.777625 -2.123 
-1.60566 -0.777625 -2.123 
-1.60582 -0.78202 -2.135 
-1.5969 -0.78202 -2.135 
-1.59691 -0.786416 -2.147 
-1.59683 -0.790811 -2.159 
-1.58781 -0.790811 -2.159 
-1.5883 -0.795573 -2.172 
-1.57923 -0.795573 -2.172 
-1.57884 -0.799968 -2.184 
-1.56972 -0.799968 -2.184 
-1.56989 -0.80473 -2.197 
-1.56924 -0.809126 -2.209 
-1.56002 -0.809126 -2.209 
-1.55992 -0.813887 -2.222 
-1.55064 -0.813887 -2.222 
-1.55038 -0.818649 -2.235 
-1.54105 -0.818649 -2.235 
-1.54063 -0.823411 -2.248 
-1.53124 -0.823411 -2.248 
-1.53134 -0.828539 -2.262 
-1.51247 -0.823411 -2.248 
-1.50309 -0.823411 -2.248 
-1.503 -0.828539 -2.262 
-1.49356 -0.828539 -2.262 
-1.48411 -0.828539 -2.262 
-1.47467 -0.828539 -2.262 
-1.46522 -0.828539 -2.262 
-1.46414 -0.8333 -2.275 
-1.4636 -0.838428 -2.289 
-1.45404 -0.838428 -2.289 
-1.44448 -0.838428 -2.289 
-1.44307 -0.84319 -2.302 
-1.43346 -0.84319 -2.302 
-1.42385 -0.84319 -2.302 
-1.41424 -0.84319 -2.302 
-1.41317 -0.848318 -2.316 
-1.4035 -0.848318 -2.316 
-1.39383 -0.848318 -2.316 
-1.38416 -0.848318 -2.316 
-1.38339 -0.853812 -2.331 
-1.37366 -0.853812 -2.331 
-1.36393 -0.853812 -2.331 
-1.35419 -0.853812 -2.331 
-1.34446 -0.853812 -2.331 
-1.34274 -0.85894 -2.345 
-1.33295 -0.85894 -2.345 
-1.32316 -0.85894 -2.345 
-1.31337 -0.85894 -2.345 
-1.31136 -0.864069 -2.359 
-1.30979 -0.869563 -2.374 
-1.29988 -0.869563 -2.374 
-1.28996 -0.869563 -2.374 
-1.28005 -0.869563 -2.374 
-1.27014 -0.869563 -2.374 
-1.26023 -0.869563 -2.374 
-1.25031 -0.869563 -2.374 
-1.2404 -0.869563 -2.374 
-1.23049 -0.869563 -2.374 
-1.22058 -0.869563 -2.374 
-1.21832 -0.875057 -2.389 
-1.20834 -0.875057 -2.389 
-1.19837 -0.875057 -2.389 
-1.18839 -0.875057 -2.389 
-1.17842 -0.875057 -2.389 
-1.16844 -0.875057 -2.389 
-1.15847 -0.875057 -2.389 
-1.14849 -0.875057 -2.389 
-1.13852 -0.875057 -2.389 
-1.13563 -0.880551 -2.404 
-1.12559 -0.880551 -2.404 
-1.11555 -0.880551 -2.404 
-1.11241 -0.886046 -2.419 
-1.10231 -0.886046 -2.419 
-1.09221 -0.886046 -2.419 
-1.08882 -0.89154 -2.434 
-1.07866 -0.89154 -2.434 
-1.07552 -0.8974 -2.45 
-1.06529 -0.8974 -2.45 
-1.05506 -0.8974 -2.45 
-1.04483 -0.8974 -2.45 
-1.0346 -0.8974 -2.45 
-1.03106 -0.903261 -2.466 
-1.02076 -0.903261 -2.466 
-1.01047 -0.903261 -2.466 
-1.00017 -0.903261 -2.466 
-0.989875 -0.903261 -2.466 
-0.985935 -0.909122 -2.482 
-0.975571 -0.909122 -2.482 
-0.965208 -0.909122 -2.482 
-0.954845 -0.909122 -2.482 
-0.944482 -0.909122 -2.482 
-0.94014 -0.914982 -2.498 
-0.92971 -0.914982 -2.498 
-0.91928 -0.914982 -2.498 
-0.90885 -0.914982 -2.498 
-0.89842 -0.914982 -2.498 
-0.894033 -0.921209 -2.515 
-0.883532 -0.921209 -2.515 
-0.878585 -0.92707 -2.531 
-0.873847 -0.933297 -2.548 
-0.868968 -0.939523 -2.565 
-0.858258 -0.939523 -2.565 
-0.853166 -0.94575 -2.582 
-0.842385 -0.94575 -2.582 
-0.837401 -0.952343 -2.6 
-0.832268 -0.958936 -2.618 
-0.821337 -0.958936 -2.618 
-0.810406 -0.958936 -2.618 
-0.804971 -0.96553 -2.636 
-0.793965 -0.96553 -2.636 
-0.782959 -0.96553 -2.636 
-0.777224 -0.972123 -2.654 
-0.766142 -0.972123 -2.654 
-0.755061 -0.972123 -2.654 
-0.74398 -0.972123 -2.654 
-0.727928 -0.96553 -2.636 
-0.70713 -0.952343 -2.6 
-0.686901 -0.939523 -2.565 
-0.654311 -0.909122 -2.482 
-0.627603 -0.886046 -2.419 
-0.602186 -0.864069 -2.359 
-0.571244 -0.8333 -2.275 
-0.542486 -0.80473 -2.197 
-0.518262 -0.78202 -2.135 
-0.495511 -0.760776 -2.077 
-0.473947 -0.74063 -2.022 
-0.458367 -0.729275 -1.991 
-0.447568 -0.725246 -1.98 
-0.434863 -0.71792 -1.96 
-0.424502 -0.714257 -1.95 
-0.414225 -0.710595 -1.94 
-0.404032 -0.706932 -1.93 
-0.395973 -0.706932 -1.93 
-0.389925 -0.710595 -1.94 
-0.379856 -0.706932 -1.93 
-0.371798 -0.706932 -1.93 
-0.363739 -0.706932 -1.93 
-0.355681 -0.706932 -1.93 
-0.347623 -0.706932 -1.93 
-0.339564 -0.706932 -1.93 
-0.331506 -0.706932 -1.93 
-0.323447 -0.706932 -1.93 
-0.315389 -0.706932 -1.93 
-0.305897 -0.703635 -1.921 
-0.297876 -0.703635 -1.921 
-0.288347 -0.699972 -1.911 
-0.279047 -0.696676 -1.902 
-0.271106 -0.696676 -1.902 
-0.263164 -0.696676 -1.902 
-0.253881 -0.693013 -1.892 
-0.245981 -0.693013 -1.892 
-0.238081 -0.693013 -1.892 
-0.230181 -0.693013 -1.892 
-0.222282 -0.693013 -1.892 
-0.214382 -0.693013 -1.892 
-0.207573 -0.696676 -1.902 
-0.199632 -0.696676 -1.902 
-0.192597 -0.699972 -1.911 
-0.184618 -0.699972 -1.911 
-0.176639 -0.699972 -1.911 
-0.16866 -0.699972 -1.911 
-0.160681 -0.699972 -1.911 
-0.152702 -0.699972 -1.911 
-0.144723 -0.699972 -1.911 
-0.136744 -0.699972 -1.911 
-0.128764 -0.699972 -1.911 
-0.120785 -0.699972 -1.911 
-0.112806 -0.699972 -1.911 
-0.104827 -0.699972 -1.911 
-0.096848 -0.699972 -1.911 
-0.0888689 -0.699972 -1.911 
-0.0808898 -0.699972 -1.911 
-0.0729107 -0.699972 -1.911 
-0.0646258 -0.696676 -1.902 
-0.0566842 -0.696676 -1.902 
-0.0487427 -0.696676 -1.902 
-0.0408012 -0.696676 -1.902 
-0.0328596 -0.696676 -1.902 
-0.0249181 -0.696676 -1.902 
-0.0169766 -0.696676 -1.902 
-0.00903504 -0.696676 -1.902 
-0.00109869 -0.699972 -1.911 
0.00688042 -0.699972 -1.911 
0.0149373 -0.703635 -1.921 
0.0230657 -0.706932 -1.93 
0.0312854 -0.710595 -1.94 
0.0395886 -0.714257 -1.95 
0.0479754 -0.71792 -1.96 
0.0567321 -0.725246 -1.98 
0.0649993 -0.725246 -1.98 
0.0736736 -0.729275 -1.991 
0.0823985 -0.732938 -2.001 
0.0912523 -0.736967 -2.012 
0.0996531 -0.736967 -2.012 
0.108054 -0.736967 -2.012 
0.120911 -0.765171 -2.089 
0.134784 -0.795573 -2.172 
0.151602 -0.838428 -2.289 
0.1682 -0.875057 -2.389 
0.187573 -0.921209 -2.515 
0.210517 -0.979082 -2.673 
0.234781 -1.03696 -2.831 
0.262107 -1.10215 -3.009 
0.293201 -1.17651 -3.212 
0.309189 -1.1864 -3.239 
0.325503 -1.19666 -3.267 
0.342051 -1.20691 -3.295 
0.355809 -1.20691 -3.295 
0.369566 -1.20691 -3.295 
0.383324 -1.20691 -3.295 
0.397082 -1.20691 -3.295 
0.41084 -1.20691 -3.295 
0.424598 -1.20691 -3.295 
0.438355 -1.20691 -3.295 
0.452113 -1.20691 -3.295 
0.465871 -1.20691 -3.295 
0.479629 -1.20691 -3.295 
0.493387 -1.20691 -3.295 
0.507144 -1.20691 -3.295 
0.520902 -1.20691 -3.295 
0.53466 -1.20691 -3.295 
0.553245 -1.21753 -3.324 
0.567123 -1.21753 -3.324 
0.586071 -1.22816 -3.353 
0.600071 -1.22816 -3.353 
0.619382 -1.23878 -3.382 
0.633503 -1.23878 -3.382 
0.653561 -1.25013 -3.413 
0.667811 -1.25013 -3.413 
0.682062 -1.25013 -3.413 
0.696312 -1.25013 -3.413 
0.710563 -1.25013 -3.413 
0.724813 -1.25013 -3.413 
0.739064 -1.25013 -3.413 
0.753314 -1.25013 -3.413 
0.767565 -1.25013 -3.413 
0.774714 -1.23878 -3.382 
0.788835 -1.23878 -3.382 
0.796071 -1.22816 -3.353 
0.810071 -1.22816 -3.353 
0.824071 -1.22816 -3.353 
0.838071 -1.22816 -3.353 
0.852071 -1.22816 -3.353 
0.866071 -1.22816 -3.353 
0.880071 -1.22816 -3.353 
0.894071 -1.22816 -3.353 
0.908071 -1.22816 -3.353 
0.922071 -1.22816 -3.353 
0.936071 -1.22816 -3.353 
0.950071 -1.22816 -3.353 
0.964071 -1.22816 -3.353 
0.97807 -1.22816 -3.353 
0.99207 -1.22816 -3.353 
0.997369 -1.21753 -3.324 
1.01125 -1.21753 -3.324 
1.02513 -1.21753 -3.324 
1.03901 -1.21753 -3.324 
1.0437 -1.20691 -3.295 
1.05746 -1.20691 -3.295 
1.07121 -1.20691 -3.295 
1.07575 -1.19666 -3.267 
1.08939 -1.19666 -3.267 
1.10303 -1.19666 -3.267 
1.1071 -1.1864 -3.239 
1.12063 -1.1864 -3.239 
1.13415 -1.1864 -3.239 
1.13811 -1.17651 -3.212 
1.15152 -1.17651 -3.212 
1.16493 -1.17651 -3.212 
1.17834 -1.17651 -3.212 
1.19175 -1.17651 -3.212 
1.19504 -1.16662 -3.185 
1.20833 -1.16662 -3.185 
1.22163 -1.16662 -3.185 
1.22485 -1.1571 -3.159 
1.23804 -1.1571 -3.159 
1.25123 -1.1571 -3.159 
1.25401 -1.14757 -3.133 
1.25658 -1.13805 -3.107 
1.25934 -1.12889 -3.082 
1.2722 -1.12889 -3.082 
1.27507 -1.1201 -3.058 
1.28783 -1.1201 -3.058 
1.28997 -1.11095 -3.033 
1.29233 -1.10215 -3.009 
1.29492 -1.09373 -2.986 
1.30738 -1.09373 -2.986 
1.31985 -1.09373 -2.986 
1.32206 -1.08531 -2.963 
1.33443 -1.08531 -2.963 
1.33634 -1.07688 -2.94 
1.34862 -1.07688 -2.94 
1.3609 -1.07688 -2.94 
1.37317 -1.07688 -2.94 
1.38545 -1.07688 -2.94 
1.39772 -1.07688 -2.94 
1.41 -1.07688 -2.94 
1.41163 -1.06882 -2.918 
1.42381 -1.06882 -2.918 
1.42468 -1.0604 -2.895 
1.43677 -1.0604 -2.895 
1.44886 -1.0604 -2.895 
1.45034 -1.05271 -2.874 
1.46234 -1.05271 -2.874 
1.47434 -1.05271 -2.874 
1.48634 -1.05271 -2.874 
1.49834 -1.05271 -2.874 
1.51034 -1.05271 -2.874 
1.52234 -1.05271 -2.874 
1.53434 -1.05271 -2.874 
1.54634 -1.05271 -2.874 
1.55834 -1.05271 -2.874 
1.57034 -1.05271 -2.874 
1.58234 -1.05271 -2.874 
1.59434 -1.05271 -2.874 
1.60634 -1.05271 -2.874 
1.60596 -1.04465 -2.852 
1.61786 -1.04465 -2.852 
1.61777 -1.03696 -2.831 
1.6175 -1.02926 -2.81 
1.61764 -1.02194 -2.79 
1.61761 -1.01461 -2.77 
1.60565 -0.99996 -2.73 
1.6058 -0.993001 -2.711 
1.60578 -0.986042 -2.692 
1.60561 -0.979082 -2.673 
1.59439 -0.96553 -2.636 
1.6054 -0.96553 -2.636 
1.60536 -0.958936 -2.618 
1.6163 -0.958936 -2.618 
1.61604 -0.952343 -2.6 
1.61563 -0.94575 -2.582 
1.6157 -0.939523 -2.565 
1.62641 -0.939523 -2.565 
1.62627 -0.933297 -2.548 
1.63691 -0.933297 -2.548 
1.65854 -0.939523 -2.565 
1.66925 -0.939523 -2.565 
1.66883 -0.933297 -2.548 
1.69067 -0.939523 -2.565 
1.70138 -0.939523 -2.565 
1.71209 -0.939523 -2.565 
1.7228 -0.939523 -2.565 
1.72202 -0.933297 -2.548 
1.7211 -0.92707 -2.531 
1.72072 -0.921209 -2.515 
1.71952 -0.914982 -2.498 
1.71887 -0.909122 -2.482 
1.71809 -0.903261 -2.466 
1.71717 -0.8974 -2.45 
1.71612 -0.89154 -2.434 
1.71564 -0.886046 -2.419 
1.72574 -0.886046 -2.419 
1.72508 -0.880551 -2.404 
1.72429 -0.875057 -2.389 
1.72338 -0.869563 -2.374 
1.73329 -0.869563 -2.374 
1.73219 -0.864069 -2.359 
1.74204 -0.864069 -2.359 
1.75188 -0.864069 -2.359 
1.75128 -0.85894 -2.345 
1.75056 -0.853812 -2.331 
1.76029 -0.853812 -2.331 
1.77002 -0.853812 -2.331 
1.77975 -0.853812 -2.331 
1.78949 -0.853812 -2.331 
1.79922 -0.853812 -2.331 
1.80895 -0.853812 -2.331 
1.81869 -0.853812 -2.331 
1.82842 -0.853812 -2.331 
1.83815 -0.853812 -2.331 
1.84788 -0.853812 -2.331 
1.85762 -0.853812 -2.331 
1.86735 -0.853812 -2.331 
1.88836 -0.85894 -2.345 
1.92162 -0.869563 -2.374 
1.94374 -0.875057 -2.389 
1.99051 -0.89154 -2.434 
2.01383 -0.8974 -2.45 
2.05049 -0.909122 -2.482 
2.07414 -0.914982 -2.498 
2.11211 -0.92707 -2.531 
2.15119 -0.939523 -2.565 
2.1914 -0.952343 -2.6 
2.20226 -0.952343 -2.6 
2.22844 -0.958936 -2.618 
2.23937 -0.958936 -2.618 
2.2503 -0.958936 -2.618 
2.27678 -0.96553 -2.636 
2.28778 -0.96553 -2.636 
2.29879 -0.96553 -2.636 
2.3098 -0.96553 -2.636 
2.30495 -0.958936 -2.618 
2.33181 -0.96553 -2.636 
2.34281 -0.96553 -2.636 
2.35382 -0.96553 -2.636 
2.38098 -0.972123 -2.654 
2.39206 -0.972123 -2.654 
2.42034 -0.979082 -2.673 
2.44879 -0.986042 -2.692 
2.47739 -0.993001 -2.711 
2.48871 -0.993001 -2.711 
2.51755 -0.99996 -2.73 
2.54748 -1.00729 -2.75 
2.57757 -1.01461 -2.77 
2.60783 -1.02194 -2.79 
2.63825 -1.02926 -2.81 
2.66979 -1.03696 -2.831 
2.7015 -1.04465 -2.852 
2.73434 -1.05271 -2.874 
2.74634 -1.05271 -2.874 
2.75834 -1.05271 -2.874 
2.79059 -1.0604 -2.895 
2.80267 -1.0604 -2.895 
2.83712 -1.06882 -2.918 
2.84931 -1.06882 -2.918 
2.88306 -1.07688 -2.94 
2.89534 -1.07688 -2.94 
2.93036 -1.08531 -2.963 
2.94273 -1.08531 -2.963 
2.95511 -1.08531 -2.963 
2.99051 -1.09373 -2.986 
3.00298 -1.09373 -2.986 
3.01545 -1.09373 -2.986 
-1.99416 -0.782414 -2.112 
-1.97406 -0.777969 -2.1 
-1.955 -0.773894 -2.089 
-1.9351 -0.769448 -2.077 
-1.92643 -0.769448 -2.077 
-1.89744 -0.761298 -2.055 
-1.88886 -0.761298 -2.055 
-1.87022 -0.757223 -2.044 
-1.86168 -0.757223 -2.044 
-1.85315 -0.757223 -2.044 
-1.84461 -0.757223 -2.044 
-1.83608 -0.757223 -2.044 
-1.82754 -0.757223 -2.044 
-1.81901 -0.757223 -2.044 
-1.81047 -0.757223 -2.044 
-1.80194 -0.757223 -2.044 
-1.79341 -0.757223 -2.044 
-1.78487 -0.757223 -2.044 
-1.7859 -0.761298 -2.055 
-1.77732 -0.761298 -2.055 
-1.76874 -0.761298 -2.055 
-1.76016 -0.761298 -2.055 
-1.75157 -0.761298 -2.055 
-1.74299 -0.761298 -2.055 
-1.73441 -0.761298 -2.055 
-1.73507 -0.765373 -2.066 
-1.72645 -0.765373 -2.066 
-1.72697 -0.769448 -2.077 
-1.71829 -0.769448 -2.077 
-1.70962 -0.769448 -2.077 
-1.70095 -0.769448 -2.077 
-1.69228 -0.769448 -2.077 
-1.6836 -0.769448 -2.077 
-1.67493 -0.769448 -2.077 
-1.66626 -0.769448 -2.077 
-1.65759 -0.769448 -2.077 
-1.65844 -0.773894 -2.089 
-1.64972 -0.773894 -2.089 
-1.641 -0.773894 -2.089 
-1.64087 -0.777969 -2.1 
-1.6321 -0.777969 -2.1 
-1.63261 -0.782414 -2.112 
-1.62379 -0.782414 -2.112 
-1.61497 -0.782414 -2.112 
-1.61452 -0.786489 -2.123 
-1.60566 -0.786489 -2.123 
-1.60582 -0.790935 -2.135 
-1.5969 -0.790935 -2.135 
-1.59691 -0.79538 -2.147 
-1.59683 -0.799826 -2.159 
-1.58781 -0.799826 -2.159 
-1.5788 -0.799826 -2.159 
-1.57923 -0.804642 -2.172 
-1.57016 -0.804642 -2.172 
-1.56972 -0.809087 -2.184 
-1.56989 -0.813903 -2.197 
-1.56072 -0.813903 -2.197 
-1.56002 -0.818349 -2.209 
-1.55992 -0.823165 -2.222 
-1.55064 -0.823165 -2.222 
-1.55038 -0.827981 -2.235 
-1.54105 -0.827981 -2.235 
-1.54063 -0.832797 -2.248 
-1.53124 -0.832797 -2.248 
-1.52186 -0.832797 -2.248 
-1.51247 -0.832797 -2.248 
-1.50309 -0.832797 -2.248 
-1.503 -0.837983 -2.262 
-1.49356 -0.837983 -2.262 
-1.48411 -0.837983 -2.262 
-1.47467 -0.837983 -2.262 
-1.46522 -0.837983 -2.262 
-1.46414 -0.842799 -2.275 
-1.45465 -0.842799 -2.275 
-1.45404 -0.847986 -2.289 
-1.44448 -0.847986 -2.289 
-1.43493 -0.847986 -2.289 
-1.43346 -0.852802 -2.302 
-1.42385 -0.852802 -2.302 
-1.41424 -0.852802 -2.302 
-1.40463 -0.852802 -2.302 
-1.39502 -0.852802 -2.302 
-1.3854 -0.852802 -2.302 
-1.38416 -0.857988 -2.316 
-1.37449 -0.857988 -2.316 
-1.37366 -0.863545 -2.331 
-1.36393 -0.863545 -2.331 
-1.35419 -0.863545 -2.331 
-1.34446 -0.863545 -2.331 
-1.34274 -0.868732 -2.345 
-1.33295 -0.868732 -2.345 
-1.32316 -0.868732 -2.345 
-1.31337 -0.868732 -2.345 
-1.31136 -0.873918 -2.359 
-1.30151 -0.873918 -2.359 
-1.29988 -0.879475 -2.374 
-1.28996 -0.879475 -2.374 
-1.28005 -0.879475 -2.374 
-1.27014 -0.879475 -2.374 
-1.26023 -0.879475 -2.374 
-1.25031 -0.879475 -2.374 
-1.2404 -0.879475 -2.374 
-1.23049 -0.879475 -2.374 
-1.22058 -0.879475 -2.374 
-1.21832 -0.885032 -2.389 
-1.20834 -0.885032 -2.389 
-1.19837 -0.885032 -2.389 
-1.18839 -0.885032 -2.389 
-1.17842 -0.885032 -2.389 
-1.16844 -0.885032 -2.389 
-1.15847 -0.885032 -2.389 
-1.14849 -0.885032 -2.389 
-1.13852 -0.885032 -2.389 
-1.13563 -0.890589 -2.404 
-1.12559 -0.890589 -2.404 
-1.11555 -0.890589 -2.404 
-1.11241 -0.896146 -2.419 
-1.10231 -0.896146 -2.419 
-1.09221 -0.896146 -2.419 
-1.08882 -0.901703 -2.434 
-1.07866 -0.901703 -2.434 
-1.0685 -0.901703 -2.434 
-1.06529 -0.90763 -2.45 
-1.05506 -0.90763 -2.45 
-1.04483 -0.90763 -2.45 
-1.0346 -0.90763 -2.45 
-1.03106 -0.913557 -2.466 
-1.02076 -0.913557 -2.466 
-1.01047 -0.913557 -2.466 
-1.00666 -0.919485 -2.482 
-0.996298 -0.919485 -2.482 
-0.985935 -0.919485 -2.482 
-0.975571 -0.919485 -2.482 
-0.965208 -0.919485 -2.482 
-0.961 -0.925412 -2.498 
-0.95057 -0.925412 -2.498 
-0.94014 -0.925412 -2.498 
-0.92971 -0.925412 -2.498 
-0.91928 -0.925412 -2.498 
-0.90885 -0.925412 -2.498 
-0.89842 -0.925412 -2.498 
-0.894033 -0.93171 -2.515 
-0.883532 -0.93171 -2.515 
-0.878585 -0.937638 -2.531 
-0.873847 -0.943935 -2.548 
-0.863209 -0.943935 -2.548 
-0.858258 -0.950233 -2.565 
-0.853166 -0.956531 -2.582 
-0.842385 -0.956531 -2.582 
-0.837401 -0.963199 -2.6 
-0.832268 -0.969868 -2.618 
-0.821337 -0.969868 -2.618 
-0.810406 -0.969868 -2.618 
-0.804971 -0.976536 -2.636 
-0.793965 -0.976536 -2.636 
-0.782959 -0.976536 -2.636 
-0.771953 -0.976536 -2.636 
-0.766142 -0.983204 -2.654 
-0.755061 -0.983204 -2.654 
-0.738934 -0.976536 -2.636 
-0.722957 -0.969868 -2.618 
-0.702235 -0.956531 -2.582 
-0.677796 -0.937638 -2.531 
-0.645875 -0.90763 -2.45 
-0.615927 -0.879475 -2.374 
-0.587636 -0.852802 -2.302 
-0.557936 -0.823165 -2.222 
-0.530139 -0.79538 -2.147 
-0.509766 -0.777969 -2.1 
-0.485013 -0.753148 -2.033 
-0.46668 -0.737588 -1.991 
-0.453533 -0.729809 -1.97 
-0.440786 -0.722399 -1.95 
-0.430426 -0.718695 -1.94 
-0.420149 -0.71499 -1.93 
-0.41209 -0.71499 -1.93 
-0.402148 -0.711656 -1.921 
-0.394127 -0.711656 -1.921 
-0.386106 -0.711656 -1.921 
-0.378085 -0.711656 -1.921 
-0.370064 -0.711656 -1.921 
-0.360159 -0.707951 -1.911 
-0.352179 -0.707951 -1.911 
-0.3442 -0.707951 -1.911 
-0.336221 -0.707951 -1.911 
-0.328242 -0.707951 -1.911 
-0.320263 -0.707951 -1.911 
-0.310813 -0.704617 -1.902 
-0.302872 -0.704617 -1.902 
-0.29493 -0.704617 -1.902 
-0.28548 -0.700913 -1.892 
-0.27626 -0.697579 -1.883 
-0.267115 -0.694244 -1.874 
-0.25929 -0.694244 -1.874 
-0.251465 -0.694244 -1.874 
-0.242341 -0.69054 -1.864 
-0.234558 -0.69054 -1.864 
-0.226775 -0.69054 -1.864 
-0.218992 -0.69054 -1.864 
-0.211209 -0.69054 -1.864 
-0.204518 -0.694244 -1.874 
-0.196693 -0.694244 -1.874 
-0.189775 -0.697579 -1.883 
-0.181913 -0.697579 -1.883 
-0.174051 -0.697579 -1.883 
-0.166189 -0.697579 -1.883 
-0.158327 -0.697579 -1.883 
-0.150464 -0.697579 -1.883 
-0.142602 -0.697579 -1.883 
-0.13474 -0.697579 -1.883 
-0.126878 -0.697579 -1.883 
-0.119016 -0.697579 -1.883 
-0.111153 -0.697579 -1.883 
-0.103291 -0.697579 -1.883 
-0.095429 -0.697579 -1.883 
-0.0875668 -0.697579 -1.883 
-0.0797046 -0.697579 -1.883 
-0.0718424 -0.697579 -1.883 
-0.0639802 -0.697579 -1.883 
-0.0558498 -0.694244 -1.874 
-0.0480251 -0.694244 -1.874 
-0.0402005 -0.694244 -1.874 
-0.0323759 -0.694244 -1.874 
-0.0245513 -0.694244 -1.874 
-0.0167267 -0.694244 -1.874 
-0.00894479 -0.697579 -1.883 
-0.00108259 -0.697579 -1.883 
0.00681201 -0.700913 -1.892 
0.0148595 -0.707951 -1.911 
0.0229582 -0.711656 -1.921 
0.0311242 -0.71499 -1.93 
0.0395886 -0.722399 -1.95 
0.0479754 -0.726104 -1.96 
0.0567321 -0.733513 -1.98 
0.0653604 -0.737588 -1.991 
0.0740436 -0.741293 -2.001 
0.0828514 -0.745368 -2.012 
0.0912523 -0.745368 -2.012 
0.0996531 -0.745368 -2.012 
0.108591 -0.749073 -2.022 
0.120911 -0.773894 -2.089 
0.135529 -0.809087 -2.184 
0.151602 -0.847986 -2.289 
0.169256 -0.890589 -2.404 
0.190034 -0.943935 -2.548 
0.212013 -0.997282 -2.692 
0.236523 -1.05656 -2.852 
0.264197 -1.12361 -3.033 
0.290736 -1.17992 -3.185 
0.309189 -1.19992 -3.239 
0.325503 -1.2103 -3.267 
0.339144 -1.2103 -3.267 
0.355809 -1.22067 -3.295 
0.369566 -1.22067 -3.295 
0.383324 -1.22067 -3.295 
0.397082 -1.22067 -3.295 
0.41084 -1.22067 -3.295 
0.424598 -1.22067 -3.295 
0.43463 -1.2103 -3.267 
0.448271 -1.2103 -3.267 
0.461912 -1.2103 -3.267 
0.475553 -1.2103 -3.267 
0.489194 -1.2103 -3.267 
0.502835 -1.2103 -3.267 
0.516476 -1.2103 -3.267 
0.530117 -1.2103 -3.267 
0.548418 -1.22067 -3.295 
0.562176 -1.22067 -3.295 
0.581002 -1.23141 -3.324 
0.594881 -1.23141 -3.324 
0.614071 -1.24216 -3.353 
0.628071 -1.24216 -3.353 
0.642071 -1.24216 -3.353 
0.661745 -1.2529 -3.382 
0.675866 -1.2529 -3.382 
0.689988 -1.2529 -3.382 
0.704109 -1.2529 -3.382 
0.71823 -1.2529 -3.382 
0.732351 -1.2529 -3.382 
0.746472 -1.2529 -3.382 
0.754071 -1.24216 -3.353 
0.768071 -1.24216 -3.353 
0.775307 -1.23141 -3.324 
0.789186 -1.23141 -3.324 
0.796058 -1.22067 -3.295 
0.809816 -1.22067 -3.295 
0.823574 -1.22067 -3.295 
0.837332 -1.22067 -3.295 
0.851089 -1.22067 -3.295 
0.864847 -1.22067 -3.295 
0.878605 -1.22067 -3.295 
0.892363 -1.22067 -3.295 
0.906121 -1.22067 -3.295 
0.919878 -1.22067 -3.295 
0.941853 -1.23141 -3.324 
0.955732 -1.23141 -3.324 
0.969611 -1.23141 -3.324 
0.97491 -1.22067 -3.295 
0.988667 -1.22067 -3.295 
1.00243 -1.22067 -3.295 
1.01618 -1.22067 -3.295 
1.02994 -1.22067 -3.295 
1.03483 -1.2103 -3.267 
1.04847 -1.2103 -3.267 
1.06211 -1.2103 -3.267 
1.06653 -1.19992 -3.239 
1.08006 -1.19992 -3.239 
1.09358 -1.19992 -3.239 
1.1071 -1.19992 -3.239 
1.11129 -1.18992 -3.212 
1.1247 -1.18992 -3.212 
1.13811 -1.18992 -3.212 
1.15152 -1.18992 -3.212 
1.16493 -1.18992 -3.212 
1.17834 -1.18992 -3.212 
1.18174 -1.17992 -3.185 
1.19504 -1.17992 -3.185 
1.20833 -1.17992 -3.185 
1.21166 -1.17029 -3.159 
1.22485 -1.17029 -3.159 
1.23804 -1.17029 -3.159 
1.24093 -1.16066 -3.133 
1.24361 -1.15102 -3.107 
1.24647 -1.14176 -3.082 
1.25934 -1.14176 -3.082 
1.2623 -1.13287 -3.058 
1.26464 -1.12361 -3.033 
1.27731 -1.12361 -3.033 
1.27976 -1.11472 -3.009 
1.29233 -1.11472 -3.009 
1.29492 -1.1062 -2.986 
1.29731 -1.09768 -2.963 
1.30968 -1.09768 -2.963 
1.32206 -1.09768 -2.963 
1.33443 -1.09768 -2.963 
1.33634 -1.08916 -2.94 
1.34862 -1.08916 -2.94 
1.3609 -1.08916 -2.94 
1.37317 -1.08916 -2.94 
1.38545 -1.08916 -2.94 
1.39772 -1.08916 -2.94 
1.41 -1.08916 -2.94 
1.41163 -1.08101 -2.918 
1.42381 -1.08101 -2.918 
1.42468 -1.07249 -2.895 
1.43677 -1.07249 -2.895 
1.43835 -1.06471 -2.874 
1.45034 -1.06471 -2.874 
1.46234 -1.06471 -2.874 
1.47434 -1.06471 -2.874 
1.48634 -1.06471 -2.874 
1.49834 -1.06471 -2.874 
1.51034 -1.06471 -2.874 
1.52234 -1.06471 -2.874 
1.54556 -1.07249 -2.895 
1.54634 -1.06471 -2.874 
1.55834 -1.06471 -2.874 
1.58182 -1.07249 -2.895 
1.58234 -1.06471 -2.874 
1.59434 -1.06471 -2.874 
1.60634 -1.06471 -2.874 
1.61834 -1.06471 -2.874 
1.61786 -1.05656 -2.852 
1.61777 -1.04878 -2.831 
1.6175 -1.041 -2.81 
1.61764 -1.03359 -2.79 
1.61761 -1.02618 -2.77 
1.60565 -1.01136 -2.73 
1.6058 -1.00432 -2.711 
1.60578 -0.997282 -2.692 
1.60561 -0.990243 -2.673 
1.60528 -0.983204 -2.654 
1.6054 -0.976536 -2.636 
1.6164 -0.976536 -2.636 
1.6163 -0.969868 -2.618 
1.61604 -0.963199 -2.6 
1.62689 -0.963199 -2.6 
1.62641 -0.956531 -2.582 
1.62641 -0.950233 -2.565 
1.63712 -0.950233 -2.565 
1.63691 -0.943935 -2.548 
1.64755 -0.943935 -2.548 
1.65819 -0.943935 -2.548 
1.66883 -0.943935 -2.548 
1.67947 -0.943935 -2.548 
1.69011 -0.943935 -2.548 
1.70074 -0.943935 -2.548 
1.71138 -0.943935 -2.548 
1.72202 -0.943935 -2.548 
1.7211 -0.937638 -2.531 
1.72072 -0.93171 -2.515 
1.71952 -0.925412 -2.498 
1.71887 -0.919485 -2.482 
1.72923 -0.919485 -2.482 
1.72838 -0.913557 -2.466 
1.71612 -0.901703 -2.434 
1.72628 -0.901703 -2.434 
1.72574 -0.896146 -2.419 
1.72508 -0.890589 -2.404 
1.73512 -0.890589 -2.404 
1.73426 -0.885032 -2.389 
1.74424 -0.885032 -2.389 
1.7432 -0.879475 -2.374 
1.74204 -0.873918 -2.359 
1.75188 -0.873918 -2.359 
1.75128 -0.868732 -2.345 
1.76107 -0.868732 -2.345 
1.77086 -0.868732 -2.345 
1.78065 -0.868732 -2.345 
1.77975 -0.863545 -2.331 
1.78949 -0.863545 -2.331 
1.79922 -0.863545 -2.331 
1.80895 -0.863545 -2.331 
1.81869 -0.863545 -2.331 
1.82842 -0.863545 -2.331 
1.83815 -0.863545 -2.331 
1.84788 -0.863545 -2.331 
1.85762 -0.863545 -2.331 
1.86735 -0.863545 -2.331 
1.88836 -0.868732 -2.345 
1.90948 -0.873918 -2.359 
1.94374 -0.885032 -2.389 
1.97825 -0.896146 -2.419 
2.01383 -0.90763 -2.45 
2.05049 -0.919485 -2.482 
2.07414 -0.925412 -2.498 
2.1263 -0.943935 -2.548 
2.15119 -0.950233 -2.565 
2.1914 -0.963199 -2.6 
2.20226 -0.963199 -2.6 
2.22844 -0.969868 -2.618 
2.25476 -0.976536 -2.636 
2.2503 -0.969868 -2.618 
2.26123 -0.969868 -2.618 
2.27216 -0.969868 -2.618 
2.28309 -0.969868 -2.618 
2.27825 -0.963199 -2.6 
2.28911 -0.963199 -2.6 
2.31589 -0.969868 -2.618 
2.32682 -0.969868 -2.618 
2.33775 -0.969868 -2.618 
2.36483 -0.976536 -2.636 
2.37583 -0.976536 -2.636 
2.40314 -0.983204 -2.654 
2.4315 -0.990243 -2.673 
2.46003 -0.997282 -2.692 
2.48871 -1.00432 -2.711 
2.51755 -1.01136 -2.73 
2.54748 -1.01877 -2.75 
2.57757 -1.02618 -2.77 
2.60783 -1.03359 -2.79 
2.63825 -1.041 -2.81 
2.66979 -1.04878 -2.831 
2.7015 -1.05656 -2.852 
2.73434 -1.06471 -2.874 
2.74634 -1.06471 -2.874 
2.75834 -1.06471 -2.874 
2.79059 -1.07249 -2.895 
2.80267 -1.07249 -2.895 
2.83712 -1.08101 -2.918 
2.84931 -1.08101 -2.918 
2.88306 -1.08916 -2.94 
2.89534 -1.08916 -2.94 
2.90762 -1.08916 -2.94 
2.94273 -1.09768 -2.963 
2.95511 -1.09768 -2.963 
2.96748 -1.09768 -2.963 
2.97985 -1.09768 -2.963 
2.99222 -1.09768 -2.963 
-2.09862 -0.818206 -2.184 
-2.06558 -0.80884 -2.159 
-2.04514 -0.804345 -2.147 
-2.01341 -0.795354 -2.123 
-1.99416 -0.791232 -2.112 
-1.97406 -0.786737 -2.1 
-1.9653 -0.786737 -2.1 
-1.94628 -0.782616 -2.089 
-1.92643 -0.77812 -2.077 
-1.89744 -0.769878 -2.055 
-1.88886 -0.769878 -2.055 
-1.88028 -0.769878 -2.055 
-1.86168 -0.765757 -2.044 
-1.85315 -0.765757 -2.044 
-1.84461 -0.765757 -2.044 
-1.83608 -0.765757 -2.044 
-1.82754 -0.765757 -2.044 
-1.81901 -0.765757 -2.044 
-1.81047 -0.765757 -2.044 
-1.81164 -0.769878 -2.055 
-1.80306 -0.769878 -2.055 
-1.79448 -0.769878 -2.055 
-1.7859 -0.769878 -2.055 
-1.77732 -0.769878 -2.055 
-1.76874 -0.769878 -2.055 
-1.76016 -0.769878 -2.055 
-1.75157 -0.769878 -2.055 
-1.75232 -0.773999 -2.066 
-1.7437 -0.773999 -2.066 
-1.73507 -0.773999 -2.066 
-1.73564 -0.77812 -2.077 
-1.72697 -0.77812 -2.077 
-1.71829 -0.77812 -2.077 
-1.70962 -0.77812 -2.077 
-1.70095 -0.77812 -2.077 
-1.69228 -0.77812 -2.077 
-1.6836 -0.77812 -2.077 
-1.67493 -0.77812 -2.077 
-1.66626 -0.77812 -2.077 
-1.66716 -0.782616 -2.089 
-1.65844 -0.782616 -2.089 
-1.64972 -0.782616 -2.089 
-1.641 -0.782616 -2.089 
-1.64087 -0.786737 -2.1 
-1.6321 -0.786737 -2.1 
-1.63261 -0.791232 -2.112 
-1.62379 -0.791232 -2.112 
-1.61497 -0.791232 -2.112 
-1.61452 -0.795354 -2.123 
-1.61473 -0.799849 -2.135 
-1.60582 -0.799849 -2.135 
-1.5969 -0.799849 -2.135 
-1.59691 -0.804345 -2.147 
-1.59683 -0.80884 -2.159 
-1.58781 -0.80884 -2.159 
-1.5788 -0.80884 -2.159 
-1.57923 -0.813711 -2.172 
-1.57016 -0.813711 -2.172 
-1.56972 -0.818206 -2.184 
-1.56989 -0.823077 -2.197 
-1.56072 -0.823077 -2.197 
-1.56002 -0.827572 -2.209 
-1.55992 -0.832443 -2.222 
-1.55064 -0.832443 -2.222 
-1.54137 -0.832443 -2.222 
-1.54105 -0.837313 -2.235 
-1.54063 -0.842183 -2.248 
-1.53124 -0.842183 -2.248 
-1.52186 -0.842183 -2.248 
-1.51247 -0.842183 -2.248 
-1.50309 -0.842183 -2.248 
-1.4937 -0.842183 -2.248 
-1.48431 -0.842183 -2.248 
-1.47493 -0.842183 -2.248 
-1.47467 -0.847428 -2.262 
-1.46522 -0.847428 -2.262 
-1.45578 -0.847428 -2.262 
-1.45465 -0.852298 -2.275 
-1.44515 -0.852298 -2.275 
-1.44448 -0.857543 -2.289 
-1.43493 -0.857543 -2.289 
-1.42537 -0.857543 -2.289 
-1.42385 -0.862413 -2.302 
-1.41424 -0.862413 -2.302 
-1.40463 -0.862413 -2.302 
-1.39502 -0.862413 -2.302 
-1.3854 -0.862413 -2.302 
-1.37579 -0.862413 -2.302 
-1.37449 -0.867658 -2.316 
-1.36482 -0.867658 -2.316 
-1.36393 -0.873278 -2.331 
-1.35419 -0.873278 -2.331 
-1.34446 -0.873278 -2.331 
-1.34274 -0.878523 -2.345 
-1.33295 -0.878523 -2.345 
-1.32316 -0.878523 -2.345 
-1.31337 -0.878523 -2.345 
-1.31136 -0.883768 -2.359 
-1.30151 -0.883768 -2.359 
-1.29988 -0.889387 -2.374 
-1.28996 -0.889387 -2.374 
-1.28005 -0.889387 -2.374 
-1.27014 -0.889387 -2.374 
-1.26023 -0.889387 -2.374 
-1.25031 -0.889387 -2.374 
-1.2404 -0.889387 -2.374 
-1.23049 -0.889387 -2.374 
-1.22058 -0.889387 -2.374 
-1.21832 -0.895007 -2.389 
-1.20834 -0.895007 -2.389 
-1.19837 -0.895007 -2.389 
-1.18839 -0.895007 -2.389 
-1.18581 -0.900626 -2.404 
-1.17578 -0.900626 -2.404 
-1.15847 -0.895007 -2.389 
-1.1557 -0.900626 -2.404 
-1.14566 -0.900626 -2.404 
-1.13563 -0.900626 -2.404 
-1.12559 -0.900626 -2.404 
-1.11555 -0.900626 -2.404 
-1.11241 -0.906246 -2.419 
-1.10231 -0.906246 -2.419 
-1.09221 -0.906246 -2.419 
-1.08211 -0.906246 -2.419 
-1.07866 -0.911865 -2.434 
-1.0685 -0.911865 -2.434 
-1.05833 -0.911865 -2.434 
-1.05506 -0.91786 -2.45 
-1.04483 -0.91786 -2.45 
-1.0346 -0.91786 -2.45 
-1.03106 -0.923854 -2.466 
-1.02076 -0.923854 -2.466 
-1.01702 -0.929848 -2.482 
-1.00666 -0.929848 -2.482 
-0.996298 -0.929848 -2.482 
-0.985935 -0.929848 -2.482 
-0.975571 -0.929848 -2.482 
-0.97143 -0.935842 -2.498 
-0.961 -0.935842 -2.498 
-0.95057 -0.935842 -2.498 
-0.94014 -0.935842 -2.498 
-0.92971 -0.935842 -2.498 
-0.91928 -0.935842 -2.498 
