ply
format ascii 1.0
comment pointcloud saved from Realsense Viewer
element vertex 1813
property float32 x
property float32 y
property float32 z
end_header
2.27163 3.13600 -0.13880 
2.23086 2.98300 -0.13203 
2.24363 2.96900 -0.13141 
2.32886 2.96900 -0.13141 
2.42547 2.98300 -0.13203 
2.44104 2.98300 -0.13203 
-1.72957 2.29000 -0.10734 
-1.81548 2.44600 -0.11465 
-1.38623 2.03200 -0.09524 
-1.37310 2.05200 -0.09618 
-1.45633 2.73000 -0.12796 
-1.34234 2.73000 -0.12796 
-1.14269 2.42700 -0.11376 
-0.97873 2.13800 -0.10021 
-1.01121 2.44600 -0.11465 
-1.01715 2.47600 -0.11605 
-1.01786 2.55900 -0.11994 
-1.02639 2.92600 -0.13715 
-1.01442 3.02700 -0.14188 
-0.97693 3.05800 -0.14333 
-0.90087 2.94000 -0.13780 
-0.88044 2.89800 -0.13583 
-0.47132 2.06600 -0.09684 
-0.46435 2.05900 -0.09651 
-0.41599 2.05900 -0.09651 
-0.38506 2.06600 -0.09684 
-0.35931 2.07300 -0.09716 
-0.31167 2.08000 -0.09749 
-0.29440 2.07300 -0.09716 
-0.24192 2.08700 -0.09782 
-0.22634 2.09400 -0.09815 
-0.10610 2.33400 -0.10940 
-0.01040 2.80500 -0.13147 
0.00422 2.79200 -0.13086 
0.05499 2.78000 -0.13030 
0.10528 2.76700 -0.12969 
0.15582 2.76700 -0.12969 
0.09780 0.62900 -0.02948 
0.10576 0.61800 -0.02897 
0.11380 0.57700 -0.02704 
0.11903 0.53300 -0.02498 
0.13010 0.48600 -0.02278 
0.13487 0.47600 -0.02231 
0.13971 0.44400 -0.02081 
0.14157 0.43200 -0.02025 
0.14931 0.40700 -0.01908 
0.15205 0.40300 -0.01889 
0.15277 0.39400 -0.01847 
0.15762 0.36700 -0.01720 
0.16486 0.33500 -0.01570 
1.56339 2.80500 -0.13147 
1.64437 2.83100 -0.13269 
1.67392 2.83100 -0.13269 
2.21917 3.20200 -0.15008 
2.25118 3.23600 -0.15168 
2.22814 2.96900 -0.13916 
2.25913 2.96900 -0.13916 
-1.77762 2.37000 -0.11727 
-1.84464 2.54800 -0.12608 
-1.38482 2.09400 -0.10361 
-1.29691 2.02500 -0.10020 
-1.16495 1.92900 -0.09545 
-1.28372 2.27300 -0.11247 
-1.33117 2.37900 -0.11771 
-1.45059 2.70600 -0.13390 
-1.41582 2.80500 -0.13879 
-1.40197 2.79200 -0.13815 
-1.03711 2.24000 -0.11084 
-0.98239 2.14600 -0.10619 
-1.01121 2.44600 -0.12103 
-1.01888 2.61300 -0.12929 
-1.04729 2.85800 -0.14142 
-1.03668 2.91200 -0.14409 
-0.62698 2.21600 -0.10965 
-0.41599 2.05900 -0.10188 
-0.31710 2.08000 -0.10292 
-0.26825 2.08000 -0.10292 
-0.18454 2.11600 -0.10470 
-0.13625 2.13800 -0.10579 
-0.12556 2.14600 -0.10619 
-0.10237 2.38900 -0.11821 
0.06917 2.76700 -0.13691 
0.10846 0.61500 -0.03043 
0.11307 0.59700 -0.02954 
0.12989 0.49000 -0.02425 
0.13964 0.45900 -0.02271 
0.13980 0.44800 -0.02217 
0.14043 0.43900 -0.02172 
0.14414 0.42300 -0.02093 
0.14610 0.41600 -0.02058 
0.15137 0.40400 -0.01999 
0.15289 0.39700 -0.01964 
0.15655 0.36900 -0.01826 
0.15910 0.36600 -0.01811 
0.15936 0.35800 -0.01771 
0.15988 0.35500 -0.01757 
0.16295 0.34200 -0.01692 
0.17283 0.31600 -0.01564 
1.84651 2.85800 -0.14142 
1.88654 2.88500 -0.14275 
1.91016 2.89800 -0.14340 
2.10861 3.08900 -0.15285 
2.13791 3.12000 -0.15438 
2.22427 3.02700 -0.14978 
2.24363 2.96900 -0.14691 
2.26688 2.96900 -0.14691 
2.30562 2.96900 -0.14691 
2.45283 2.96900 -0.14691 
2.47607 2.96900 -0.14691 
-1.64321 2.14600 -0.11179 
-1.72957 2.29000 -0.11929 
-1.82482 2.47600 -0.12898 
-1.85314 2.56900 -0.13382 
-1.21295 1.96600 -0.10241 
-1.20044 1.95400 -0.10178 
-1.02491 2.52700 -0.13163 
-1.03169 2.89800 -0.15096 
-0.99863 3.02700 -0.15768 
-0.49080 2.08000 -0.10835 
-0.48374 2.07300 -0.10798 
-0.46751 2.07300 -0.10798 
-0.37838 2.05900 -0.10725 
-0.26825 2.08000 -0.10835 
-0.21145 2.10900 -0.10986 
-0.20595 2.10900 -0.10986 
-0.06025 2.74200 -0.14283 
-0.01756 2.78000 -0.14481 
0.10465 0.62100 -0.03235 
0.11586 0.56500 -0.02943 
0.11751 0.55200 -0.02875 
0.11929 0.52800 -0.02750 
0.12940 0.49300 -0.02568 
0.14011 0.44900 -0.02339 
0.14720 0.41300 -0.02151 
0.15316 0.39500 -0.02058 
0.15286 0.38900 -0.02026 
0.15962 0.36500 -0.01901 
0.15969 0.36300 -0.01891 
0.16295 0.34200 -0.01781 
0.16377 0.34000 -0.01771 
0.16524 0.33400 -0.01740 
0.16648 0.33300 -0.01735 
0.16809 0.32600 -0.01698 
0.16959 0.32400 -0.01688 
1.54886 2.79200 -0.14544 
1.91016 2.89800 -0.15096 
2.21637 3.02700 -0.15768 
2.33984 2.98300 -0.15539 
2.35541 2.98300 -0.15539 
2.40990 2.98300 -0.15539 
-1.83305 2.49600 -0.13653 
-1.37013 2.08000 -0.11378 
-1.21436 1.96000 -0.10721 
-1.16771 1.91700 -0.10486 
-1.12701 1.89900 -0.10388 
-1.18164 2.04500 -0.11186 
-1.21311 2.10900 -0.11536 
-1.42119 2.61300 -0.14293 
-1.39469 2.79200 -0.15272 
-1.20110 2.53700 -0.13877 
-1.03711 2.24000 -0.12253 
-0.95995 2.10900 -0.11536 
-0.93793 2.10900 -0.11536 
-1.02479 2.68200 -0.14671 
-1.03145 2.71800 -0.14867 
-1.03739 2.83100 -0.15486 
-1.04212 2.88500 -0.15781 
-1.02598 2.96900 -0.16240 
-1.01525 2.98300 -0.16317 
-1.00940 3.01200 -0.16476 
-0.54147 2.08700 -0.11416 
-0.52689 2.09400 -0.11454 
-0.39316 2.05200 -0.11224 
-0.37838 2.05900 -0.11263 
-0.25826 2.08700 -0.11416 
-0.17902 2.11600 -0.11575 
-0.10610 2.33400 -0.12767 
-0.04594 2.74200 -0.14999 
0.01146 2.78000 -0.15207 
0.09806 2.76700 -0.15135 
0.13416 2.76700 -0.15135 
0.10223 0.62600 -0.03424 
0.11531 0.57700 -0.03156 
0.11794 0.55400 -0.03030 
0.12746 0.51100 -0.02795 
0.14075 0.44000 -0.02407 
0.14270 0.43200 -0.02363 
0.14316 0.43000 -0.02352 
0.14414 0.42300 -0.02314 
0.15339 0.40100 -0.02193 
0.15910 0.36600 -0.02002 
0.16006 0.36600 -0.02002 
0.16448 0.33600 -0.01838 
0.16611 0.33400 -0.01827 
0.16648 0.33300 -0.01822 
0.16959 0.32400 -0.01772 
0.17255 0.31700 -0.01734 
1.62946 2.81800 -0.15414 
1.65914 2.83100 -0.15486 
1.75582 2.84400 -0.15557 
1.92699 2.91200 -0.15929 
2.00511 2.98300 -0.16317 
2.06065 3.04200 -0.16640 
2.19907 3.18500 -0.17422 
2.23764 3.16900 -0.17334 
2.21605 3.10400 -0.16979 
2.25913 2.96900 -0.16240 
2.34763 2.98300 -0.16317 
2.49157 2.96900 -0.16240 
-0.38246 0.54600 -0.03129 
-0.38737 0.57000 -0.03267 
-1.36308 2.04500 -0.11720 
-1.20631 2.54800 -0.14602 
-0.93850 2.16100 -0.12385 
-0.94624 2.19200 -0.12562 
-0.97939 2.32500 -0.13324 
-1.01786 2.55900 -0.14666 
-0.70644 2.40800 -0.13800 
-0.63276 2.21600 -0.12700 
-0.52142 2.09400 -0.12001 
-0.41599 2.05900 -0.11800 
-0.32686 2.07300 -0.11880 
-0.28454 2.08000 -0.11920 
-0.06652 2.70600 -0.15508 
-0.03879 2.74200 -0.15714 
0.09806 2.76700 -0.15858 
0.13416 2.76700 -0.15858 
0.23423 2.75500 -0.15789 
0.12067 0.52800 -0.03026 
0.13964 0.45900 -0.02631 
0.14899 0.41200 -0.02361 
0.15386 0.40500 -0.02321 
0.15387 0.37900 -0.02172 
0.16128 0.35000 -0.02006 
0.16409 0.33700 -0.01931 
0.16792 0.32900 -0.01885 
0.16894 0.32600 -0.01868 
0.17107 0.32200 -0.01845 
0.17365 0.31600 -0.01811 
1.79293 2.84400 -0.16299 
1.83905 2.85800 -0.16379 
1.98795 2.96900 -0.17015 
2.08967 3.07300 -0.17611 
2.21529 2.98300 -0.17095 
-0.38723 0.57200 -0.03427 
-1.25016 1.96000 -0.11744 
-1.40998 2.58000 -0.15459 
-1.40118 2.80500 -0.16807 
-1.38740 2.79200 -0.16729 
-0.95995 2.10900 -0.12637 
-0.99216 2.37000 -0.14201 
-1.00708 2.43600 -0.14596 
-1.01948 2.58000 -0.15459 
-1.00471 2.99800 -0.17964 
-0.67341 2.31600 -0.13877 
-0.57851 2.12300 -0.12721 
-0.54328 2.09400 -0.12547 
-0.44976 2.06600 -0.12379 
-0.34193 2.06600 -0.12379 
-0.33226 2.07300 -0.12421 
-0.17902 2.11600 -0.12679 
-0.14741 2.13800 -0.12811 
-0.14183 2.13800 -0.12811 
-0.04554 2.71800 -0.16286 
0.00421 2.78000 -0.16658 
0.03322 2.78000 -0.16658 
0.05499 2.78000 -0.16658 
0.10577 2.78000 -0.16658 
0.13416 2.76700 -0.16580 
0.16873 2.74200 -0.16430 
0.10239 0.62700 -0.03757 
0.10465 0.62100 -0.03721 
0.11208 0.60000 -0.03595 
0.11538 0.58500 -0.03505 
0.12563 0.52000 -0.03116 
0.12625 0.51700 -0.03098 
0.12746 0.51100 -0.03062 
0.14055 0.44300 -0.02654 
0.14223 0.43400 -0.02600 
0.14371 0.42500 -0.02547 
0.14422 0.42000 -0.02517 
0.15366 0.39900 -0.02391 
0.15290 0.38400 -0.02301 
0.15405 0.37700 -0.02259 
0.16033 0.35600 -0.02133 
0.16171 0.34700 -0.02079 
0.16792 0.32900 -0.01971 
0.17197 0.31900 -0.01911 
0.17309 0.31800 -0.01905 
0.17448 0.31600 -0.01893 
1.87901 2.88500 -0.17287 
1.92699 2.91200 -0.17448 
2.19514 2.99800 -0.17964 
2.22308 2.98300 -0.17874 
2.26688 2.96900 -0.17790 
2.36320 2.98300 -0.17874 
-0.38308 0.55100 -0.03445 
-0.38723 0.57200 -0.03577 
-1.24664 1.92300 -0.12024 
-1.23614 1.95400 -0.12218 
-1.13420 1.87000 -0.11693 
-1.15853 2.00500 -0.12537 
-1.43574 2.71800 -0.16995 
-0.97939 2.32500 -0.14538 
-0.99216 2.37000 -0.14819 
-0.65036 2.25700 -0.14113 
-0.51596 2.09400 -0.13094 
-0.08129 0.36900 -0.02307 
-0.26459 2.09400 -0.13094 
-0.23258 2.10100 -0.13137 
-0.17902 2.11600 -0.13231 
-0.17407 2.12300 -0.13275 
-0.10569 2.32500 -0.14538 
-0.05920 2.69400 -0.16845 
0.09126 2.78000 -0.17383 
0.13416 2.76700 -0.17302 
0.10576 0.61800 -0.03864 
0.12037 0.53900 -0.03370 
0.12746 0.51100 -0.03195 
0.13678 0.47400 -0.02964 
0.13779 0.46900 -0.02933 
0.14283 0.42900 -0.02682 
0.15290 0.38400 -0.02401 
0.15643 0.37100 -0.02320 
0.15997 0.36800 -0.02301 
0.16300 0.34400 -0.02151 
0.16721 0.33100 -0.02070 
0.16927 0.32500 -0.02032 
1.73463 2.85800 -0.17871 
1.98795 2.96900 -0.18565 
2.20751 2.98300 -0.18652 
2.44104 2.98300 -0.18652 
2.45283 2.96900 -0.18565 
2.47490 2.94000 -0.18383 
-0.38308 0.55100 -0.03589 
-0.38504 0.55800 -0.03635 
-1.19272 1.91700 -0.12487 
-1.15928 1.88700 -0.12292 
-1.12661 1.94100 -0.12643 
-1.40080 2.52700 -0.16460 
-1.42087 2.62500 -0.17099 
-1.41896 2.64700 -0.17242 
-1.42432 2.67000 -0.17392 
-1.42314 2.80500 -0.18271 
-1.28949 2.69400 -0.17548 
-1.17518 2.49600 -0.16259 
-0.94993 2.08700 -0.13594 
-0.95082 2.21600 -0.14435 
-1.01477 2.48600 -0.16193 
-1.01573 2.53700 -0.16526 
-0.61566 2.17600 -0.14174 
-0.08011 0.36800 -0.02397 
-0.07702 0.36700 -0.02391 
-0.39182 2.04500 -0.13321 
-0.36103 2.05200 -0.13366 
-0.32796 2.08000 -0.13549 
-0.09803 2.43600 -0.15868 
-0.03149 2.73000 -0.17783 
0.16234 2.75500 -0.17946 
0.19109 2.75500 -0.17946 
0.10775 0.61100 -0.03980 
0.11251 0.59400 -0.03869 
0.12275 0.53100 -0.03459 
0.12915 0.49700 -0.03237 
0.13335 0.48400 -0.03153 
0.13406 0.48200 -0.03140 
0.13714 0.47100 -0.03068 
0.14972 0.41400 -0.02697 
0.15377 0.40200 -0.02619 
0.15290 0.38400 -0.02501 
0.15350 0.38300 -0.02495 
0.15795 0.37000 -0.02410 
0.15997 0.36800 -0.02397 
0.16081 0.35500 -0.02312 
0.16173 0.34900 -0.02273 
0.16573 0.33500 -0.02182 
0.16927 0.32500 -0.02117 
1.62211 2.81800 -0.18356 
1.72718 2.85800 -0.18617 
1.88654 2.88500 -0.18792 
1.91939 2.91200 -0.18968 
2.11667 3.08900 -0.20121 
2.13505 3.10400 -0.20219 
2.27757 2.98300 -0.19431 
2.40990 2.98300 -0.19431 
2.44508 2.96900 -0.19340 
-0.38388 0.54600 -0.03699 
-1.25881 1.91100 -0.12947 
-1.22155 1.92300 -0.13028 
-1.12389 1.85300 -0.12554 
-1.11603 1.84800 -0.12520 
-1.10492 1.87000 -0.12669 
-1.41995 2.63600 -0.17858 
-1.42941 2.70600 -0.18333 
-1.43411 2.74200 -0.18577 
-0.08107 0.36800 -0.02493 
-0.24903 2.10100 -0.14234 
-0.03149 2.73000 -0.18495 
0.06980 2.79200 -0.18915 
0.12754 2.78000 -0.18834 
0.13479 2.78000 -0.18834 
0.15515 2.75500 -0.18665 
0.10092 0.62800 -0.04255 
0.10239 0.62700 -0.04248 
0.10542 0.61600 -0.04173 
0.11702 0.57800 -0.03916 
0.12321 0.53300 -0.03611 
0.12587 0.52100 -0.03530 
0.13874 0.46400 -0.03144 
0.14680 0.41800 -0.02832 
0.15377 0.40200 -0.02723 
0.16377 0.34000 -0.02303 
1.61476 2.81800 -0.19091 
1.63698 2.83100 -0.19179 
1.78748 2.87100 -0.19450 
2.17687 3.02700 -0.20507 
2.31649 2.98300 -0.20209 
-0.38777 0.57500 -0.04046 
-1.13356 1.85300 -0.13037 
-1.31606 2.35200 -0.16548 
-1.42087 2.62500 -0.18469 
-1.36693 2.78000 -0.19559 
-0.09951 0.37600 -0.02645 
-0.07490 0.36600 -0.02575 
-0.37838 2.05900 -0.14487 
-0.31377 2.09400 -0.14733 
-0.09726 2.41700 -0.17005 
-0.03828 2.70600 -0.19039 
0.05548 2.80500 -0.19735 
0.10931 0.60200 -0.04236 
0.15450 0.38300 -0.02695 
0.16860 0.32700 -0.02301 
0.17420 0.31700 -0.02230 
1.67418 2.84400 -0.20010 
1.68161 2.84400 -0.20010 
1.70480 2.85800 -0.20108 
1.97791 2.95400 -0.20784 
2.14891 3.08900 -0.21733 
2.17310 3.08900 -0.21733 
2.39073 2.99800 -0.21093 
-0.38602 0.54500 -0.03977 
-1.22497 1.88200 -0.13732 
-1.20743 1.89300 -0.13813 
-1.10369 1.89300 -0.13813 
-1.21595 2.15300 -0.15710 
-0.11705 0.39200 -0.02860 
-0.11632 0.39300 -0.02868 
-0.09534 0.37500 -0.02736 
-0.09215 0.37400 -0.02729 
-0.38375 2.05900 -0.15024 
-0.36349 2.06600 -0.15075 
-0.34424 2.08000 -0.15177 
-0.19007 2.11600 -0.15440 
-0.18454 2.11600 -0.15440 
-0.14236 2.14600 -0.15659 
-0.11271 2.22400 -0.16228 
0.16953 2.75500 -0.20102 
0.17671 2.75500 -0.20102 
0.21359 2.76700 -0.20190 
0.23525 2.76700 -0.20190 
0.11232 0.59300 -0.04327 
0.11329 0.59000 -0.04305 
0.12071 0.56700 -0.04137 
0.12674 0.51900 -0.03787 
0.12753 0.50600 -0.03692 
0.13779 0.46900 -0.03422 
0.13905 0.46100 -0.03364 
0.14395 0.42900 -0.03130 
0.15185 0.41100 -0.02999 
0.15601 0.37700 -0.02751 
0.16171 0.35700 -0.02605 
0.16912 0.32800 -0.02393 
0.17251 0.32000 -0.02335 
1.60005 2.81800 -0.20562 
1.65176 2.83100 -0.20657 
1.74252 2.87100 -0.20949 
1.77249 2.87100 -0.20949 
1.77998 2.87100 -0.20949 
1.94389 2.92600 -0.21350 
2.13778 3.07300 -0.22423 
2.20539 3.01200 -0.21978 
2.23683 3.01200 -0.21978 
2.34378 2.99800 -0.21876 
2.37508 2.99800 -0.21876 
2.39855 2.99800 -0.21876 
2.42202 2.99800 -0.21876 
2.48669 2.95400 -0.21555 
-0.38744 0.54500 -0.04119 
-0.38694 0.57600 -0.04353 
-1.21127 1.87600 -0.14178 
-1.18077 1.88200 -0.14224 
-1.11241 1.84200 -0.13921 
-1.11303 1.93500 -0.14624 
-1.35035 2.43600 -0.18411 
-1.42087 2.62500 -0.19839 
-1.42071 2.73000 -0.20632 
-1.38144 2.78000 -0.21010 
-0.11879 0.39100 -0.02955 
-0.09411 0.37400 -0.02827 
-0.37428 2.06600 -0.15614 
-0.33996 2.08700 -0.15773 
-0.25999 2.10100 -0.15879 
-0.24903 2.10100 -0.15879 
-0.07689 2.58000 -0.19499 
0.07012 2.80500 -0.21199 
0.19828 2.75500 -0.20821 
0.10223 0.62600 -0.04731 
0.12456 0.54500 -0.04119 
0.13218 0.48900 -0.03696 
0.13434 0.48300 -0.03650 
0.13612 0.47600 -0.03597 
0.14550 0.42700 -0.03227 
0.16554 0.34000 -0.02570 
0.16672 0.33700 -0.02547 
0.16912 0.32800 -0.02479 
0.17334 0.32000 -0.02418 
1.62220 2.83100 -0.21396 
1.65914 2.83100 -0.21396 
1.73503 2.87100 -0.21698 
1.77249 2.87100 -0.21698 
1.88654 2.88500 -0.21804 
2.16184 3.07300 -0.23225 
2.18321 3.05800 -0.23111 
2.18477 3.02700 -0.22877 
2.25587 3.02700 -0.22877 
2.27956 3.02700 -0.22877 
2.42202 2.99800 -0.22658 
2.42984 2.99800 -0.22658 
2.44104 2.98300 -0.22545 
2.44882 2.98300 -0.22545 
2.48669 2.95400 -0.22325 
-1.09674 1.84800 -0.14449 
-0.11981 0.39100 -0.03057 
-0.09631 0.37500 -0.02932 
-0.33563 2.09400 -0.16372 
-0.28193 2.10100 -0.16427 
-0.25999 2.10100 -0.16427 
-0.24355 2.10100 -0.16427 
-0.14741 2.13800 -0.16716 
-0.12124 2.16900 -0.16959 
-0.11681 2.19200 -0.17138 
-0.03121 2.70600 -0.21157 
-0.01732 2.74200 -0.21439 
-0.01021 2.75500 -0.21540 
0.10672 2.80500 -0.21931 
0.13479 2.78000 -0.21736 
0.13363 0.48500 -0.03792 
0.13874 0.46000 -0.03597 
0.13987 0.45200 -0.03534 
0.14139 0.44200 -0.03456 
0.15185 0.41100 -0.03213 
0.15601 0.37700 -0.02948 
0.15848 0.36900 -0.02885 
0.16308 0.34800 -0.02721 
0.16432 0.34300 -0.02682 
0.16760 0.33700 -0.02635 
0.16798 0.33600 -0.02627 
1.58535 2.80500 -0.21931 
1.65176 2.83100 -0.22135 
1.75751 2.87100 -0.22447 
1.76500 2.87100 -0.22447 
1.79497 2.87100 -0.22447 
1.94389 2.92600 -0.22877 
2.02068 2.98300 -0.23323 
2.05605 3.01200 -0.23550 
2.14580 3.07300 -0.24027 
2.18590 3.07300 -0.24027 
2.18321 3.05800 -0.23909 
2.23217 3.02700 -0.23667 
2.24797 3.02700 -0.23667 
2.29536 3.02700 -0.23667 
2.47218 2.98300 -0.23323 
2.49553 2.98300 -0.23323 
-1.19764 1.87000 -0.15109 
-1.15975 1.86400 -0.15060 
-1.09487 1.85300 -0.14972 
-1.09378 1.87600 -0.15157 
-0.11705 0.39200 -0.03167 
-0.09631 0.37500 -0.03030 
-0.09411 0.37400 -0.03022 
-0.37681 2.08000 -0.16806 
-0.31052 2.10900 -0.17040 
-0.15857 2.13800 -0.17274 
-0.10492 2.30800 -0.18648 
-0.09650 2.39800 -0.19375 
-0.01021 2.75500 -0.22259 
0.06309 2.81800 -0.22768 
0.17588 2.74200 -0.22154 
0.24142 2.75500 -0.22259 
0.10207 0.62500 -0.05050 
0.12395 0.55500 -0.04484 
0.12834 0.52000 -0.04201 
0.13930 0.45400 -0.03668 
0.14066 0.44700 -0.03612 
0.14971 0.41700 -0.03369 
0.15325 0.39000 -0.03151 
0.15568 0.38100 -0.03078 
0.16514 0.34100 -0.02755 
0.16643 0.34000 -0.02747 
1.75751 2.87100 -0.23197 
2.07418 3.02700 -0.24457 
2.35066 3.02700 -0.24457 
2.44549 2.99800 -0.24223 
2.46114 2.99800 -0.24223 
2.46439 2.98300 -0.24101 
-1.18407 1.86400 -0.15547 
-1.12683 1.84200 -0.15363 
-1.09165 1.86400 -0.15547 
-1.09028 1.87000 -0.15597 
-1.15100 2.03800 -0.16998 
-0.14364 0.34100 -0.02844 
-0.14091 0.34300 -0.02861 
-0.13492 0.34600 -0.02886 
-0.13401 0.34600 -0.02886 
-0.12679 0.34600 -0.02886 
-0.12529 0.38900 -0.03244 
-0.11981 0.39100 -0.03261 
-0.09093 0.37300 -0.03111 
-0.27644 2.10100 -0.17524 
-0.19007 2.11600 -0.17649 
-0.18454 2.11600 -0.17649 
-0.13207 2.16100 -0.18024 
-0.10492 2.30800 -0.19250 
-0.02437 2.73000 -0.22770 
-0.01732 2.74200 -0.22870 
0.09986 2.81800 -0.23504 
0.12080 2.79200 -0.23287 
0.14138 2.76700 -0.23078 
0.11538 0.58500 -0.04879 
0.12214 0.56000 -0.04671 
0.12494 0.55300 -0.04612 
0.12853 0.53200 -0.04437 
0.13532 0.48200 -0.04020 
0.13640 0.47700 -0.03978 
0.13779 0.46900 -0.03912 
0.14970 0.42000 -0.03503 
0.15212 0.39500 -0.03295 
0.15387 0.38900 -0.03244 
0.15728 0.37300 -0.03111 
0.15901 0.36800 -0.03069 
0.16057 0.36500 -0.03044 
0.16355 0.34900 -0.02911 
0.17213 0.32400 -0.02702 
1.75751 2.87100 -0.23946 
1.76500 2.87100 -0.23946 
1.93625 2.92600 -0.24404 
2.18321 3.05800 -0.25505 
2.22427 3.02700 -0.25247 
2.30674 3.04200 -0.25372 
2.46114 2.99800 -0.25005 
-0.38458 0.54700 -0.04705 
-0.14546 0.33900 -0.02916 
-0.14139 0.34200 -0.02942 
-0.12769 0.34600 -0.02976 
-0.12552 0.34500 -0.02968 
-0.12598 0.38800 -0.03337 
-0.12427 0.38900 -0.03346 
-0.11705 0.39200 -0.03372 
-0.08851 0.37100 -0.03191 
-0.08468 0.36700 -0.03157 
-0.37263 2.08700 -0.17951 
-0.28850 2.10900 -0.18141 
-0.21065 2.10100 -0.18072 
-0.20517 2.10100 -0.18072 
-0.03794 2.68200 -0.23069 
0.24744 2.74200 -0.23585 
0.12111 0.56200 -0.04834 
0.12904 0.51200 -0.04404 
0.13245 0.49000 -0.04215 
0.14516 0.43600 -0.03750 
0.14630 0.43600 -0.03750 
0.15167 0.40200 -0.03458 
0.15301 0.39200 -0.03372 
0.15427 0.39000 -0.03355 
0.15805 0.36800 -0.03165 
0.16006 0.36600 -0.03148 
0.16108 0.36400 -0.03131 
0.16963 0.32900 -0.02830 
1.77998 2.87100 -0.24695 
1.95319 2.94000 -0.25288 
2.22735 3.04200 -0.26166 
2.23529 3.04200 -0.26166 
2.32261 3.04200 -0.26166 
2.35437 3.04200 -0.26166 
2.39805 3.02700 -0.26037 
2.40595 3.02700 -0.26037 
-0.38382 0.55000 -0.04874 
-0.38642 0.56000 -0.04963 
-1.20352 1.86400 -0.16520 
-1.18192 1.85300 -0.16422 
-0.13130 0.34600 -0.03066 
-0.11981 0.39100 -0.03465 
-0.07618 0.36300 -0.03217 
-0.28850 2.10900 -0.18691 
-0.13207 2.16100 -0.19152 
-0.08706 2.48600 -0.22032 
-0.06453 2.62500 -0.23264 
-0.03121 2.70600 -0.23982 
0.04861 2.83100 -0.25090 
0.12754 2.78000 -0.24638 
0.22597 2.74200 -0.24301 
0.24744 2.74200 -0.24301 
0.10465 0.62100 -0.05504 
0.14222 0.44100 -0.03908 
0.14305 0.44000 -0.03899 
0.14946 0.43200 -0.03829 
0.16057 0.36500 -0.03235 
0.16312 0.35200 -0.03120 
0.16603 0.34100 -0.03022 
0.16810 0.33800 -0.02996 
0.17586 0.31700 -0.02809 
1.62220 2.83100 -0.25090 
1.81667 2.85800 -0.25329 
1.91939 2.91200 -0.25808 
1.97020 2.95400 -0.26180 
2.09240 3.04200 -0.26960 
2.13778 3.07300 -0.27234 
2.41761 3.01200 -0.26694 
2.51590 2.99800 -0.26570 
2.52373 2.99800 -0.26570 
-1.18192 1.85300 -0.16906 
-1.16741 1.85300 -0.16906 
-0.13960 0.34200 -0.03120 
-0.13822 0.34300 -0.03129 
-0.09729 0.37500 -0.03421 
-0.08232 0.36500 -0.03330 
-0.07692 0.36200 -0.03303 
-0.33916 2.11600 -0.19305 
-0.22559 2.08700 -0.19041 
-0.13207 2.16100 -0.19716 
-0.11681 2.19200 -0.19999 
-0.01026 2.76700 -0.25245 
0.01888 2.80500 -0.25591 
0.02632 2.81800 -0.25710 
0.03368 2.81800 -0.25710 
0.12028 2.78000 -0.25363 
0.19019 2.74200 -0.25016 
0.19735 2.74200 -0.25016 
0.09928 0.62800 -0.05730 
0.11796 0.56800 -0.05182 
0.11986 0.56300 -0.05136 
0.12787 0.54700 -0.04991 
0.12925 0.53500 -0.04881 
0.13678 0.47400 -0.04325 
0.13808 0.47000 -0.04288 
0.14582 0.43800 -0.03996 
0.15212 0.40600 -0.03704 
0.17475 0.31800 -0.02901 
1.62220 2.83100 -0.25828 
1.65888 2.81800 -0.25710 
1.80246 2.87100 -0.26193 
1.83992 2.87100 -0.26193 
1.93625 2.92600 -0.26695 
2.06628 3.02700 -0.27617 
2.16503 3.08900 -0.28182 
2.21513 3.05800 -0.27899 
2.25503 3.05800 -0.27899 
2.32261 3.04200 -0.27753 
2.41761 3.01200 -0.27480 
2.48049 3.01200 -0.27480 
2.50026 2.99800 -0.27352 
-0.14139 0.34200 -0.03209 
-0.12067 0.34400 -0.03228 
-0.12395 0.38800 -0.03641 
-0.12193 0.38800 -0.03641 
-0.11705 0.39200 -0.03679 
-0.08537 0.37000 -0.03472 
-0.40387 2.05200 -0.19257 
-0.38353 2.08700 -0.19585 
-0.28193 2.10100 -0.19717 
-0.20517 2.10100 -0.19717 
-0.16415 2.13800 -0.20064 
-0.15356 2.14600 -0.20139 
-0.10849 2.25700 -0.21181 
-0.07105 2.61300 -0.24521 
0.11351 2.79200 -0.26201 
0.19735 2.74200 -0.25732 
0.11578 0.58700 -0.05509 
0.12517 0.55400 -0.05199 
0.12943 0.53000 -0.04974 
0.13601 0.48000 -0.04505 
0.14119 0.44500 -0.04176 
0.14989 0.43000 -0.04035 
0.15506 0.39200 -0.03679 
0.15529 0.39000 -0.03660 
0.15728 0.37300 -0.03500 
0.16057 0.36500 -0.03425 
0.17083 0.32800 -0.03078 
0.17418 0.32000 -0.03003 
0.17668 0.31700 -0.02975 
1.60739 2.84400 -0.26689 
1.69608 2.83100 -0.26567 
1.97020 2.95400 -0.27722 
2.05839 3.02700 -0.28407 
2.28695 3.05800 -0.28697 
2.35856 3.02700 -0.28407 
-0.13822 0.34300 -0.03308 
-0.12695 0.34400 -0.03318 
-0.38353 2.08700 -0.20130 
-0.37106 2.10900 -0.20342 
-0.15916 2.14600 -0.20699 
-0.13207 2.16100 -0.20844 
-0.09573 2.37900 -0.22946 
-0.09133 2.42700 -0.23409 
-0.08671 2.47600 -0.23882 
0.01897 2.81800 -0.27181 
0.07816 2.83100 -0.27306 
0.12694 2.76700 -0.26689 
0.15441 2.74200 -0.26448 
0.20547 2.75500 -0.26573 
0.21166 2.74200 -0.26448 
0.11541 0.59300 -0.05720 
0.11722 0.57900 -0.05585 
0.12540 0.55500 -0.05353 
0.13353 0.49400 -0.04765 
0.14811 0.43800 -0.04225 
0.15016 0.43400 -0.04186 
0.15078 0.41100 -0.03964 
0.15506 0.39200 -0.03781 
0.17297 0.32400 -0.03125 
1.68869 2.83100 -0.27306 
1.72614 2.84400 -0.27431 
1.83992 2.87100 -0.27692 
2.04033 3.01200 -0.29052 
2.21119 3.12000 -0.30094 
2.28695 3.05800 -0.29496 
2.40595 3.02700 -0.29196 
2.40189 3.01200 -0.29052 
2.40975 3.01200 -0.29052 
2.51590 2.99800 -0.28917 
-0.38564 0.56100 -0.05557 
-0.12569 0.34300 -0.03398 
-0.11818 0.34200 -0.03388 
-0.09932 0.37900 -0.03754 
-0.28741 2.10100 -0.20813 
-0.27552 2.09400 -0.20744 
-0.26915 2.08700 -0.20674 
-0.25826 2.08700 -0.20674 
-0.21065 2.10100 -0.20813 
-0.20111 2.11600 -0.20962 
-0.09501 2.36100 -0.23389 
-0.03828 2.70600 -0.26806 
-0.01030 2.78000 -0.27540 
0.04122 2.83100 -0.28045 
0.09251 2.81800 -0.27916 
0.19109 2.75500 -0.27292 
0.09795 0.63000 -0.06241 
0.10863 0.61600 -0.06102 
0.11837 0.57000 -0.05647 
0.13629 0.48100 -0.04765 
0.13837 0.47100 -0.04666 
0.14049 0.45400 -0.04497 
0.14074 0.45100 -0.04468 
0.14936 0.41600 -0.04121 
0.15546 0.39300 -0.03893 
0.15709 0.36800 -0.03646 
0.16164 0.36100 -0.03576 
0.16898 0.33800 -0.03348 
0.17135 0.32900 -0.03259 
1.91939 2.91200 -0.28847 
2.09543 3.05800 -0.30294 
2.17048 3.12000 -0.30908 
2.37024 3.04200 -0.30135 
-0.14097 0.34100 -0.03467 
-0.09462 0.38400 -0.03904 
-0.39442 2.08700 -0.21219 
-0.39028 2.09400 -0.21290 
-0.38206 2.10900 -0.21443 
-0.32920 2.12300 -0.21585 
-0.13772 2.16100 -0.21972 
-0.10333 2.27300 -0.23110 
-0.05768 2.62500 -0.26689 
-0.02470 2.76700 -0.28133 
-0.01035 2.79200 -0.28387 
0.17748 2.76700 -0.28133 
0.25459 2.74200 -0.27879 
0.10988 0.61400 -0.06243 
0.11637 0.59000 -0.05999 
0.14080 0.45500 -0.04626 
0.15005 0.43700 -0.04443 
0.15873 0.38600 -0.03925 
0.15866 0.38100 -0.03874 
0.16443 0.34700 -0.03528 
0.16528 0.34500 -0.03508 
0.16898 0.33800 -0.03437 
0.17328 0.32300 -0.03284 
1.62265 2.87100 -0.29190 
2.23907 3.05800 -0.31092 
2.28292 3.04200 -0.30929 
2.33055 3.04200 -0.30929 
2.44905 3.01200 -0.30624 
2.48775 2.98300 -0.30329 
-0.13643 0.34300 -0.03577 
-0.13285 0.34300 -0.03577 
-0.09687 0.38500 -0.04015 
-0.30501 2.10900 -0.21993 
-0.22162 2.10100 -0.21910 
-0.19623 2.12300 -0.22139 
-0.03845 2.71800 -0.28344 
0.11351 2.79200 -0.29116 
0.11521 0.60000 -0.06257 
0.11986 0.57000 -0.05944 
0.12197 0.56600 -0.05902 
0.12630 0.55900 -0.05829 
0.14214 0.44800 -0.04672 
0.14649 0.44000 -0.04588 
0.15339 0.40100 -0.04182 
0.15732 0.39000 -0.04067 
0.15914 0.38700 -0.04036 
0.15815 0.36600 -0.03817 
0.15962 0.36500 -0.03806 
0.16013 0.36400 -0.03796 
0.17135 0.32900 -0.03431 
0.17443 0.32200 -0.03358 
1.65259 2.85800 -0.29804 
1.74780 2.83100 -0.29522 
1.87991 2.89800 -0.30221 
2.17048 3.12000 -0.32536 
2.21434 3.13600 -0.32703 
2.23758 3.08900 -0.32213 
2.24203 3.07300 -0.32046 
2.23907 3.05800 -0.31890 
2.26301 3.05800 -0.31890 
-0.11983 0.24500 -0.02619 
-0.13919 0.34100 -0.03645 
-0.12979 0.34200 -0.03656 
-0.12459 0.34000 -0.03634 
-0.11889 0.38800 -0.04147 
-0.10190 0.38500 -0.04115 
-0.34712 2.13100 -0.22779 
-0.27460 2.08700 -0.22308 
-0.24192 2.08700 -0.22308 
-0.23103 2.08700 -0.22308 
-0.22634 2.09400 -0.22383 
-0.15968 2.15300 -0.23014 
-0.12690 2.16900 -0.23185 
-0.12163 2.17600 -0.23260 
0.00430 2.84400 -0.30400 
0.06368 2.84400 -0.30400 
0.09251 2.81800 -0.30122 
0.13736 0.47600 -0.05088 
0.13934 0.46600 -0.04981 
0.14111 0.45600 -0.04874 
0.14989 0.43000 -0.04596 
0.15188 0.41400 -0.04425 
0.15418 0.39500 -0.04222 
0.15608 0.39200 -0.04190 
0.16015 0.38700 -0.04137 
0.15962 0.36500 -0.03902 
0.16860 0.33900 -0.03624 
0.16898 0.33800 -0.03613 
0.16986 0.33800 -0.03613 
0.17585 0.32000 -0.03421 
1.64513 2.87100 -0.30689 
1.83243 2.87100 -0.30689 
1.92862 2.92600 -0.31277 
2.16234 3.12000 -0.33350 
2.18979 3.13600 -0.33521 
2.19798 3.13600 -0.33521 
2.22747 3.12000 -0.33350 
2.32261 3.04200 -0.32517 
-0.12163 0.22800 -0.02497 
-0.12103 0.22800 -0.02497 
-0.11855 0.24500 -0.02683 
-0.14233 0.34000 -0.03723 
-0.13603 0.34200 -0.03745 
-0.13553 0.34300 -0.03756 
-0.13246 0.34200 -0.03745 
-0.13157 0.34200 -0.03745 
-0.12121 0.33800 -0.03701 
-0.37058 2.13800 -0.23411 
-0.35384 2.13800 -0.23411 
-0.22634 2.09400 -0.22930 
-0.12690 2.16900 -0.23751 
-0.10183 2.24000 -0.24528 
-0.09671 2.25700 -0.24715 
0.01933 2.87100 -0.31438 
0.17832 2.78000 -0.30441 
0.11024 0.61600 -0.06745 
0.12177 0.57200 -0.06263 
0.12262 0.56900 -0.06231 
0.12987 0.51000 -0.05585 
0.13697 0.47900 -0.05245 
0.13837 0.47100 -0.05158 
0.14777 0.43700 -0.04785 
0.15393 0.39700 -0.04347 
0.15936 0.39000 -0.04271 
0.15719 0.36600 -0.04008 
0.15962 0.36500 -0.03997 
0.16451 0.35500 -0.03887 
0.16860 0.33900 -0.03712 
1.62303 2.88500 -0.31591 
1.70347 2.83100 -0.31000 
1.74780 2.83100 -0.31000 
1.76257 2.83100 -0.31000 
1.77809 2.84400 -0.31142 
2.10570 3.07300 -0.33650 
2.18161 3.13600 -0.34340 
2.26705 3.04200 -0.33310 
2.40665 3.05800 -0.33486 
-0.12481 0.22100 -0.02478 
-0.12480 0.22200 -0.02489 
-0.12287 0.22700 -0.02545 
-0.11934 0.24400 -0.02736 
-0.11599 0.24500 -0.02747 
-0.12941 0.34100 -0.03823 
-0.12763 0.34100 -0.03823 
-0.10445 0.38700 -0.04339 
-0.41385 2.13100 -0.23891 
-0.35384 2.13800 -0.23969 
-0.34826 2.13800 -0.23969 
-0.33044 2.13100 -0.23891 
-0.16972 2.13800 -0.23969 
-0.16476 2.14600 -0.24059 
-0.09147 2.27300 -0.25483 
-0.06760 2.48600 -0.27871 
-0.01044 2.81800 -0.31593 
0.09894 2.79200 -0.31301 
0.11920 2.75500 -0.30887 
0.12639 2.75500 -0.30887 
0.13358 2.75500 -0.30887 
0.11440 0.60400 -0.06772 
0.14383 0.44600 -0.05000 
0.14649 0.44000 -0.04933 
0.15037 0.42500 -0.04765 
0.15116 0.41800 -0.04686 
0.15339 0.40100 -0.04496 
0.15773 0.39100 -0.04384 
0.16451 0.35500 -0.03980 
0.16497 0.35400 -0.03969 
0.16576 0.34600 -0.03879 
0.16986 0.33800 -0.03789 
0.17187 0.33000 -0.03700 
0.17221 0.32900 -0.03688 
1.69608 2.83100 -0.31739 
2.02302 2.99800 -0.33611 
2.18979 3.13600 -0.35158 
2.30326 3.02700 -0.33936 
2.39069 3.05800 -0.34284 
2.41463 3.05800 -0.34284 
2.45757 3.04200 -0.34104 
2.46312 2.92600 -0.32804 
-0.12228 0.22700 -0.02604 
-0.12044 0.22800 -0.02616 
-0.11471 0.24500 -0.02811 
-0.14008 0.34100 -0.03912 
-0.13375 0.34300 -0.03935 
-0.13068 0.34200 -0.03923 
-0.11874 0.33600 -0.03855 
-0.09581 0.39300 -0.04509 
-0.42237 2.14600 -0.24619 
-0.39848 2.13800 -0.24527 
-0.31155 2.11600 -0.24275 
-0.16415 2.13800 -0.24527 
-0.01763 2.79200 -0.32030 
0.09852 2.78000 -0.31892 
0.28529 2.69400 -0.30906 
0.12128 0.58400 -0.06700 
0.12740 0.54500 -0.06252 
0.13686 0.48300 -0.05541 
0.14518 0.44300 -0.05082 
0.14697 0.43800 -0.05025 
0.14743 0.43600 -0.05002 
0.14857 0.43600 -0.05002 
0.14996 0.42700 -0.04899 
0.15329 0.41200 -0.04726 
0.15354 0.39600 -0.04543 
0.15443 0.39300 -0.04509 
0.15546 0.39300 -0.04509 
0.15910 0.36600 -0.04199 
0.16585 0.35000 -0.04015 
0.17187 0.33000 -0.03786 
0.17752 0.32000 -0.03671 
1.64562 2.88500 -0.33097 
1.68988 2.85800 -0.32787 
2.24209 3.15200 -0.36160 
2.33849 3.04200 -0.34898 
2.46915 3.02700 -0.34726 
2.45283 2.96900 -0.34061 
2.46723 2.94000 -0.33728 
-0.12417 0.22400 -0.02628 
-0.11261 0.24600 -0.02886 
-0.11178 0.24700 -0.02898 
-0.12852 0.34100 -0.04001 
-0.35071 2.15300 -0.25261 
-0.31812 2.12300 -0.24909 
-0.30501 2.10900 -0.24745 
-0.19070 2.12300 -0.24909 
-0.15857 2.13800 -0.25085 
-0.11068 2.18400 -0.25625 
0.02682 2.87100 -0.33686 
0.10528 2.76700 -0.32465 
0.10881 0.61700 -0.07239 
0.12432 0.57000 -0.06688 
0.12690 0.54900 -0.06441 
0.12834 0.52000 -0.06101 
0.13150 0.50100 -0.05878 
0.13380 0.49500 -0.05808 
0.14363 0.44900 -0.05268 
0.14777 0.43700 -0.05127 
0.15189 0.41700 -0.04893 
0.15329 0.41200 -0.04834 
0.15910 0.36600 -0.04294 
0.17585 0.32000 -0.03755 
1.66068 2.88500 -0.33850 
1.68243 2.85800 -0.33533 
1.69608 2.83100 -0.33216 
1.75518 2.83100 -0.33216 
2.07652 3.04200 -0.35692 
2.25807 3.07300 -0.36056 
2.27498 3.04200 -0.35692 
2.31468 3.04200 -0.35692 
2.35437 3.04200 -0.35692 
2.48261 3.07300 -0.36056 
2.46477 3.01200 -0.35340 
-0.12422 0.22200 -0.02663 
-0.12296 0.22500 -0.02699 
-0.11997 0.22600 -0.02711 
-0.11879 0.22600 -0.02711 
-0.11343 0.24500 -0.02939 
-0.13871 0.34200 -0.04102 
-0.13068 0.34200 -0.04102 
-0.11699 0.33600 -0.04030 
-0.09605 0.39400 -0.04726 
-0.38442 2.15300 -0.25823 
-0.33837 2.14600 -0.25739 
-0.24654 2.08000 -0.24948 
-0.20044 2.10900 -0.25295 
-0.10038 2.20800 -0.26483 
-0.08523 2.26500 -0.27166 
-0.02459 2.75500 -0.33043 
0.01184 2.87100 -0.34435 
0.06368 2.84400 -0.34111 
0.17026 2.76700 -0.33187 
0.21985 2.75500 -0.33043 
0.23923 2.73000 -0.32744 
0.27002 2.68200 -0.32168 
0.11459 0.60500 -0.07256 
0.13043 0.50700 -0.06081 
0.13686 0.48300 -0.05793 
0.13995 0.46400 -0.05565 
0.14055 0.46200 -0.05541 
0.14550 0.44400 -0.05325 
0.14649 0.44000 -0.05277 
0.16209 0.36200 -0.04342 
0.16590 0.35600 -0.04270 
1.68243 2.85800 -0.34279 
2.05839 3.02700 -0.36306 
2.16234 3.12000 -0.37421 
2.32261 3.04200 -0.36486 
2.47075 2.92600 -0.35094 
-0.12540 0.21900 -0.02684 
-0.12089 0.24200 -0.02966 
-0.11885 0.24300 -0.02978 
-0.11822 0.24300 -0.02978 
-0.10876 0.24600 -0.03015 
-0.13157 0.34200 -0.04191 
-0.12523 0.39200 -0.04804 
-0.11645 0.39000 -0.04779 
-0.09575 0.39700 -0.04865 
-0.36329 2.16100 -0.26483 
-0.35765 2.16100 -0.26483 
-0.32595 2.13800 -0.26201 
-0.27460 2.08700 -0.25576 
-0.13116 2.14600 -0.26299 
-0.11596 2.17600 -0.26667 
-0.07120 2.38900 -0.29277 
0.01933 2.87100 -0.35184 
0.08437 2.79200 -0.34216 
0.14661 2.73000 -0.33456 
0.18471 2.76700 -0.33909 
0.12344 0.58700 -0.07194 
0.12477 0.57900 -0.07096 
0.12498 0.57300 -0.07022 
0.12717 0.54400 -0.06667 
0.14055 0.46200 -0.05662 
0.14912 0.43100 -0.05282 
0.15189 0.41700 -0.05110 
0.15462 0.40700 -0.04988 
0.15608 0.39200 -0.04804 
0.16049 0.36700 -0.04498 
0.16449 0.35900 -0.04400 
0.16676 0.35000 -0.04289 
1.64513 2.87100 -0.35184 
1.71036 2.81800 -0.34534 
1.82494 2.87100 -0.35184 
2.29880 3.04200 -0.37280 
2.39440 3.07300 -0.37659 
2.49956 3.10400 -0.38039 
2.48138 3.04200 -0.37280 
2.46723 2.94000 -0.36030 
-0.12767 0.21800 -0.02728 
-0.11716 0.22400 -0.02804 
-0.11631 0.24300 -0.03041 
-0.11216 0.24500 -0.03066 
-0.10683 0.24600 -0.03079 
-0.12173 0.33700 -0.04218 
-0.39149 2.16100 -0.27047 
-0.36893 2.16100 -0.27047 
-0.27460 2.08700 -0.26121 
-0.23181 2.09400 -0.26208 
-0.15141 2.11600 -0.26484 
-0.08083 2.30800 -0.28887 
0.18471 2.76700 -0.34632 
0.25013 2.69400 -0.33718 
0.11198 0.60800 -0.07610 
0.13120 0.51000 -0.06383 
0.13228 0.49900 -0.06245 
0.13427 0.49200 -0.06158 
0.13573 0.48800 -0.06108 
0.14920 0.42800 -0.05357 
0.14961 0.42600 -0.05332 
0.15538 0.40900 -0.05119 
0.16720 0.34900 -0.04368 
0.16790 0.34300 -0.04293 
0.16830 0.34200 -0.04280 
0.17047 0.33400 -0.04180 
0.17307 0.32900 -0.04118 
0.17413 0.32300 -0.04043 
0.17919 0.32000 -0.04005 
1.92862 2.92600 -0.36622 
2.26004 3.12000 -0.39050 
2.27411 3.07300 -0.38461 
-0.12596 0.21800 -0.02785 
-0.12425 0.22000 -0.02811 
-0.12367 0.22000 -0.02811 
-0.12278 0.24200 -0.03092 
-0.11647 0.24200 -0.03092 
-0.11233 0.24400 -0.03118 
-0.11042 0.24400 -0.03118 
-0.10768 0.24500 -0.03130 
-0.10555 0.24600 -0.03143 
-0.13773 0.34400 -0.04395 
-0.12760 0.39300 -0.05021 
-0.09911 0.39800 -0.05085 
-0.36329 2.16100 -0.27611 
-0.34637 2.16100 -0.27611 
-0.34073 2.16100 -0.27611 
-0.25282 2.08700 -0.26665 
-0.23727 2.09400 -0.26755 
-0.22634 2.09400 -0.26755 
-0.19902 2.09400 -0.26755 
-0.15091 2.10900 -0.26946 
0.21166 2.74200 -0.35034 
0.12336 0.59400 -0.07589 
0.12621 0.54600 -0.06976 
0.14716 0.44200 -0.05647 
0.16145 0.36700 -0.04689 
0.16590 0.35800 -0.04574 
0.16729 0.35500 -0.04536 
0.16936 0.33700 -0.04306 
1.66005 2.85800 -0.36516 
1.67418 2.84400 -0.36337 
1.73302 2.83100 -0.36171 
2.25526 3.13600 -0.40068 
2.26004 3.12000 -0.39864 
2.32685 3.05800 -0.39072 
2.50766 3.10400 -0.39659 
2.49865 3.07300 -0.39263 
2.49443 3.05800 -0.39072 
-0.12653 0.21800 -0.02842 
-0.12596 0.21800 -0.02842 
-0.12483 0.21800 -0.02842 
-0.12310 0.22000 -0.02868 
-0.12308 0.22100 -0.02881 
-0.12012 0.22300 -0.02907 
-0.11721 0.22300 -0.02907 
-0.11547 0.22300 -0.02907 
-0.09460 0.41000 -0.05346 
-0.37457 2.16100 -0.28175 
-0.32716 2.14600 -0.27979 
-0.28193 2.10100 -0.27393 
-0.25913 2.09400 -0.27301 
-0.25366 2.09400 -0.27301 
-0.14984 2.09400 -0.27301 
0.01236 0.55200 -0.07197 
0.23006 2.70600 -0.35280 
0.27464 2.65900 -0.34668 
0.12585 0.58400 -0.07614 
0.13742 0.48500 -0.06323 
0.13822 0.47900 -0.06245 
0.14309 0.45100 -0.05880 
0.14857 0.43600 -0.05684 
0.17436 0.32500 -0.04237 
0.17497 0.32300 -0.04211 
1.77067 2.84400 -0.37080 
1.78551 2.84400 -0.37080 
1.83992 2.87100 -0.37432 
1.90419 2.91200 -0.37966 
2.06628 3.02700 -0.39466 
2.08446 3.04200 -0.39661 
2.11372 3.07300 -0.40065 
2.17048 3.12000 -0.40678 
2.31089 3.05800 -0.39870 
2.48835 3.01200 -0.39270 
2.47996 2.98300 -0.38892 
-0.12483 0.21800 -0.02899 
-0.12074 0.22200 -0.02952 
-0.11721 0.22300 -0.02966 
-0.11913 0.24100 -0.03205 
-0.13683 0.39300 -0.05226 
-0.12484 0.39400 -0.05240 
-0.11940 0.39300 -0.05226 
-0.38442 2.15300 -0.28632 
-0.30819 2.13100 -0.28340 
-0.30150 2.12300 -0.28233 
0.01792 0.54600 -0.07261 
0.11713 0.61000 -0.08112 
0.12419 0.59800 -0.07953 
0.12570 0.55000 -0.07314 
0.12881 0.53900 -0.07168 
0.15333 0.41500 -0.05519 
0.15607 0.40800 -0.05426 
0.15936 0.39000 -0.05187 
0.16117 0.37300 -0.04960 
0.16233 0.36900 -0.04907 
0.16543 0.35900 -0.04774 
0.17611 0.32200 -0.04282 
1.74041 2.83100 -0.37649 
1.94389 2.92600 -0.38912 
2.18979 3.13600 -0.41705 
2.33024 3.07300 -0.40867 
2.33826 3.07300 -0.40867 
2.36232 3.07300 -0.40867 
2.37034 3.07300 -0.40867 
2.51244 3.12000 -0.41492 
2.50332 2.98300 -0.39670 
2.49931 2.96900 -0.39484 
-0.12369 0.21800 -0.02956 
-0.12193 0.22100 -0.02997 
-0.11785 0.22200 -0.03010 
-0.11425 0.24000 -0.03254 
-0.11362 0.24000 -0.03254 
-0.11158 0.24100 -0.03268 
-0.10363 0.24300 -0.03295 
-0.12207 0.39500 -0.05356 
-0.10661 0.39500 -0.05356 
-0.09497 0.40700 -0.05519 
-0.08405 0.41600 -0.05641 
-0.28394 2.11600 -0.28692 
-0.23181 2.09400 -0.28394 
-0.20925 2.08700 -0.28299 
-0.14783 2.06600 -0.28014 
0.02341 0.54100 -0.07336 
0.11137 0.64100 -0.08692 
0.11972 0.60700 -0.08231 
0.13281 0.50600 -0.06861 
0.14616 0.44600 -0.06048 
0.14749 0.44300 -0.06007 
0.15005 0.42100 -0.05709 
0.15189 0.41700 -0.05654 
0.15333 0.41500 -0.05627 
0.15545 0.41200 -0.05587 
0.15853 0.39300 -0.05329 
0.16038 0.39000 -0.05288 
0.16098 0.38900 -0.05275 
0.16192 0.37700 -0.05112 
0.16285 0.36800 -0.04990 
0.16815 0.35100 -0.04759 
0.16859 0.35000 -0.04746 
0.17291 0.33200 -0.04502 
0.17359 0.33000 -0.04475 
1.72563 2.83100 -0.38388 
1.74041 2.83100 -0.38388 
1.87991 2.89800 -0.39296 
2.01290 2.98300 -0.40449 
2.29401 3.08900 -0.41886 
2.39880 3.08900 -0.41886 
2.51576 3.10400 -0.42089 
-0.11032 0.24100 -0.03331 
-0.12895 0.39400 -0.05445 
-0.12279 0.39400 -0.05445 
-0.11867 0.39400 -0.05445 
-0.09073 0.40700 -0.05625 
-0.33837 2.14600 -0.29659 
-0.19702 2.07300 -0.28650 
0.00948 0.55200 -0.07629 
0.01229 0.54900 -0.07588 
0.03255 0.52900 -0.07311 
0.03648 0.52600 -0.07270 
0.04294 0.52100 -0.07201 
0.11743 0.62000 -0.08569 
0.12071 0.60400 -0.08348 
0.13573 0.48800 -0.06745 
0.14955 0.42900 -0.05929 
0.15002 0.42400 -0.05860 
0.16149 0.38300 -0.05293 
0.16298 0.36400 -0.05031 
0.16853 0.34800 -0.04810 
0.16909 0.34000 -0.04699 
0.17185 0.33500 -0.04630 
0.17425 0.32800 -0.04533 
0.17946 0.31900 -0.04409 
1.61481 2.84400 -0.39306 
1.63708 2.84400 -0.39306 
1.68131 2.83100 -0.39126 
1.82631 2.88500 -0.39873 
1.90419 2.91200 -0.40246 
2.24209 3.15200 -0.43563 
2.32223 3.07300 -0.42471 
2.34628 3.07300 -0.42471 
2.44730 3.12000 -0.43121 
-0.12255 0.21700 -0.03056 
-0.12141 0.21800 -0.03070 
-0.10718 0.24100 -0.03394 
-0.14559 0.38900 -0.05478 
-0.14088 0.39000 -0.05492 
-0.31376 2.13100 -0.30008 
-0.27289 2.11600 -0.29797 
0.01507 0.54600 -0.07689 
0.02464 0.53700 -0.07562 
0.02990 0.53100 -0.07477 
0.03380 0.52700 -0.07421 
0.04285 0.52000 -0.07322 
0.10666 0.68600 -0.09660 
0.11640 0.63200 -0.08900 
0.13522 0.53100 -0.07477 
0.14395 0.45000 -0.06337 
0.15915 0.39200 -0.05520 
0.16312 0.37300 -0.05252 
0.16920 0.34200 -0.04816 
0.17221 0.33400 -0.04703 
0.17359 0.33000 -0.04647 
0.17752 0.32000 -0.04506 
1.64437 2.83100 -0.39865 
1.68869 2.83100 -0.39865 
1.84966 2.89800 -0.40809 
1.97791 2.95400 -0.41597 
2.03084 2.99800 -0.42217 
2.13279 3.08900 -0.43498 
2.17048 3.12000 -0.43935 
2.27275 3.10400 -0.43710 
2.36232 3.07300 -0.43273 
-0.12423 0.21500 -0.03084 
-0.11621 0.22000 -0.03155 
-0.14383 0.38700 -0.05551 
-0.08276 0.41500 -0.05952 
-0.38877 2.14600 -0.30779 
-0.21940 2.08000 -0.29833 
-0.19636 2.06600 -0.29632 
-0.19032 2.05900 -0.29532 
0.01080 0.54600 -0.07831 
0.01360 0.54400 -0.07802 
0.05051 0.51500 -0.07386 
0.11490 0.64200 -0.09208 
0.15115 0.42100 -0.06038 
0.15831 0.39500 -0.05665 
0.16207 0.38200 -0.05479 
0.16447 0.36100 -0.05178 
1.89808 2.92600 -0.41967 
1.97020 2.95400 -0.42368 
2.53536 3.16900 -0.45452 
2.55466 3.15200 -0.45208 
2.56943 3.12000 -0.44749 
2.57246 3.10400 -0.44520 
-0.11511 0.21900 -0.03198 
-0.10005 0.24200 -0.03534 
-0.14950 0.38600 -0.05637 
-0.08414 0.39600 -0.05783 
-0.31707 2.11600 -0.30901 
-0.27934 2.12300 -0.31003 
-0.22559 2.08700 -0.30478 
-0.21866 2.07300 -0.30273 
0.02584 0.53300 -0.07784 
0.02713 0.53100 -0.07755 
0.03764 0.52300 -0.07638 
0.14959 0.43900 -0.06411 
0.16133 0.38500 -0.05622 
0.16264 0.38100 -0.05564 
0.16589 0.36000 -0.05257 
0.16637 0.35900 -0.05243 
0.16776 0.35600 -0.05199 
0.16819 0.35300 -0.05155 
0.17326 0.33100 -0.04834 
0.17445 0.33000 -0.04819 
1.60740 2.81800 -0.41153 
1.62946 2.81800 -0.41153 
1.67392 2.83100 -0.41343 
1.78866 2.88500 -0.42131 
1.83580 2.91200 -0.42526 
1.93017 2.94000 -0.42935 
2.27275 3.10400 -0.45330 
2.57934 3.15200 -0.46031 
-0.12254 0.21400 -0.03181 
-0.12030 0.21500 -0.03196 
-0.11804 0.21600 -0.03211 
-0.11803 0.21700 -0.03226 
-0.11576 0.21700 -0.03226 
-0.11126 0.23500 -0.03493 
-0.14272 0.38400 -0.05708 
-0.12130 0.38600 -0.05738 
-0.09124 0.39100 -0.05812 
-0.30603 2.11600 -0.31453 
-0.22407 2.07300 -0.30814 
-0.20644 2.05900 -0.30606 
-0.20106 2.05900 -0.30606 
-0.18369 2.04500 -0.30398 
0.02836 0.52800 -0.07848 
0.04638 0.51400 -0.07640 
0.10022 0.69100 -0.10271 
0.12497 0.58700 -0.08725 
0.12498 0.57300 -0.08517 
0.13095 0.54200 -0.08057 
0.14083 0.47100 -0.07001 
0.15085 0.43600 -0.06481 
0.15474 0.41300 -0.06139 
0.15718 0.40000 -0.05946 
0.15936 0.39000 -0.05797 
0.16074 0.38600 -0.05738 
0.16192 0.38400 -0.05708 
0.16307 0.38200 -0.05678 
0.16376 0.37900 -0.05634 
0.16959 0.34100 -0.05069 
0.17037 0.33900 -0.05039 
0.17256 0.33300 -0.04950 
0.17412 0.33100 -0.04920 
0.17478 0.32900 -0.04890 
0.17574 0.32600 -0.04846 
0.17666 0.32300 -0.04801 
1.62211 2.81800 -0.41888 
1.71871 2.84400 -0.42275 
2.10570 3.07300 -0.45679 
2.12473 3.08900 -0.45917 
2.43950 3.15200 -0.46853 
2.57536 3.21900 -0.47849 
2.60634 3.18500 -0.47344 
-0.12141 0.21300 -0.03222 
-0.12030 0.21400 -0.03237 
-0.11918 0.21400 -0.03237 
-0.11576 0.21700 -0.03282 
-0.11457 0.23300 -0.03524 
-0.11384 0.23400 -0.03539 
-0.11323 0.23400 -0.03539 
-0.11187 0.23500 -0.03554 
-0.10442 0.23900 -0.03615 
-0.13663 0.38100 -0.05763 
-0.11476 0.38100 -0.05763 
-0.09209 0.38600 -0.05838 
-0.08403 0.38600 -0.05838 
-0.35136 2.12300 -0.32111 
-0.34028 2.12300 -0.32111 
-0.28488 2.12300 -0.32111 
0.02167 0.53300 -0.08062 
0.02698 0.52800 -0.07986 
0.03471 0.52000 -0.07865 
0.04370 0.51400 -0.07775 
0.11259 0.64800 -0.09801 
0.11410 0.64700 -0.09786 
0.12028 0.61800 -0.09348 
0.12170 0.60900 -0.09211 
0.13025 0.54500 -0.08243 
0.13394 0.53700 -0.08122 
0.14173 0.47400 -0.07169 
0.14544 0.45100 -0.06822 
0.14732 0.44600 -0.06746 
0.16859 0.35000 -0.05294 
0.17273 0.33500 -0.05067 
1.95696 2.96900 -0.44908 
2.04259 3.02700 -0.45785 
2.30075 3.12000 -0.47192 
2.35774 3.12000 -0.47192 
2.48656 3.20200 -0.48432 
2.56861 3.25300 -0.49203 
2.61105 3.25300 -0.49203 
2.62353 3.13600 -0.47434 
2.60839 3.08900 -0.46723 
-0.11003 0.23500 -0.03616 
-0.10504 0.23900 -0.03677 
-0.09859 0.24000 -0.03693 
-0.13851 0.37800 -0.05816 
-0.11416 0.37900 -0.05831 
-0.09958 0.38000 -0.05847 
-0.09090 0.38100 -0.05862 
-0.36937 2.13100 -0.32789 
0.01202 0.53700 -0.08263 
0.02297 0.53100 -0.08170 
0.03335 0.52000 -0.08001 
0.04228 0.51300 -0.07893 
0.12684 0.55500 -0.08539 
0.13328 0.54000 -0.08309 
0.14451 0.46700 -0.07185 
0.16859 0.35000 -0.05385 
0.17075 0.33800 -0.05201 
0.17478 0.32900 -0.05062 
1.64437 2.83100 -0.43559 
1.77361 2.88500 -0.44390 
1.82936 2.92600 -0.45021 
1.91170 2.98300 -0.45898 
1.91948 2.98300 -0.45898 
1.93505 2.98300 -0.45898 
1.95841 2.98300 -0.45898 
2.05271 3.04200 -0.46806 
2.26345 3.13600 -0.48252 
2.51296 3.23600 -0.49791 
-0.11466 0.21600 -0.03380 
-0.11349 0.21700 -0.03395 
-0.11288 0.21800 -0.03411 
-0.11165 0.23200 -0.03630 
-0.11153 0.23300 -0.03646 
-0.10942 0.23500 -0.03677 
-0.10664 0.23700 -0.03708 
-0.10522 0.23800 -0.03724 
-0.10442 0.23900 -0.03740 
-0.14058 0.37300 -0.05836 
-0.13607 0.37400 -0.05852 
-0.12631 0.37400 -0.05852 
-0.11914 0.37600 -0.05883 
-0.11816 0.37600 -0.05883 
-0.11650 0.37700 -0.05899 
-0.10069 0.36600 -0.05727 
-0.07556 0.37400 -0.05852 
-0.34354 2.10900 -0.33000 
0.05257 0.50900 -0.07965 
0.05534 0.51000 -0.07980 
0.06529 0.51500 -0.08058 
0.11603 0.63900 -0.09999 
0.12730 0.55700 -0.08716 
0.14630 0.45000 -0.07041 
0.14782 0.44400 -0.06947 
0.15408 0.42300 -0.06619 
0.15813 0.39200 -0.06134 
0.17308 0.33400 -0.05226 
0.17752 0.32000 -0.05007 
1.91349 2.99800 -0.46911 
1.94478 2.99800 -0.46911 
1.95261 2.99800 -0.46911 
1.96043 2.99800 -0.46911 
2.08165 3.07300 -0.48085 
2.19630 3.16900 -0.49587 
2.49607 3.23600 -0.50635 
2.53936 3.27000 -0.51167 
2.64772 3.28800 -0.51449 
2.64790 3.18500 -0.49837 
2.63457 3.12000 -0.48820 
-0.12027 0.21100 -0.03357 
-0.11306 0.22400 -0.03563 
-0.11249 0.23000 -0.03659 
-0.10758 0.23500 -0.03738 
-0.10696 0.23500 -0.03738 
-0.10680 0.23600 -0.03754 
-0.14388 0.36900 -0.05870 
-0.13208 0.37100 -0.05902 
-0.13111 0.37100 -0.05902 
-0.11820 0.37000 -0.05886 
-0.10422 0.36500 -0.05807 
-0.34904 2.10900 -0.33551 
0.03323 0.51800 -0.08241 
0.06663 0.51500 -0.08193 
0.07080 0.51600 -0.08209 
0.07364 0.51700 -0.08225 
0.12470 0.59300 -0.09434 
0.12669 0.57400 -0.09131 
0.12743 0.56400 -0.08972 
0.13806 0.52600 -0.08368 
0.14257 0.48100 -0.07652 
0.14544 0.47400 -0.07541 
0.14569 0.46300 -0.07366 
0.14630 0.45000 -0.07159 
0.15108 0.44000 -0.07000 
0.15481 0.41900 -0.06666 
0.15936 0.39000 -0.06204 
0.17009 0.34200 -0.05441 
0.17308 0.33400 -0.05313 
1.78160 2.89800 -0.46103 
1.81408 2.92600 -0.46548 
1.96172 3.01200 -0.47916 
2.10265 3.10400 -0.49380 
2.41517 3.18500 -0.50668 
2.45776 3.21900 -0.51209 
2.52230 3.27000 -0.52020 
-0.11472 0.21400 -0.03460 
-0.11140 0.22900 -0.03703 
-0.10557 0.23600 -0.03816 
-0.10212 0.23800 -0.03848 
-0.10150 0.23800 -0.03848 
-0.14271 0.36600 -0.05918 
-0.13965 0.36800 -0.05950 
-0.12266 0.36600 -0.05918 
-0.09729 0.36400 -0.05886 
-0.09496 0.36600 -0.05918 
-0.08076 0.37100 -0.05999 
-0.07883 0.37100 -0.05999 
-0.07689 0.37100 -0.05999 
-0.07572 0.37000 -0.05983 
-0.37781 2.11600 -0.34214 
-0.34772 2.10100 -0.33972 
-0.30728 2.08700 -0.33745 
0.01882 0.53100 -0.08586 
0.02422 0.52800 -0.08537 
0.05104 0.50700 -0.08198 
0.05237 0.50700 -0.08198 
0.05933 0.51000 -0.08246 
0.06078 0.51100 -0.08263 
0.11548 0.63600 -0.10284 
0.12248 0.60500 -0.09782 
0.13444 0.53900 -0.08715 
0.13534 0.53700 -0.08683 
0.13898 0.48600 -0.07858 
0.14093 0.48400 -0.07826 
0.14286 0.48200 -0.07794 
0.14609 0.45300 -0.07325 
0.15188 0.43900 -0.07098 
0.16116 0.38700 -0.06258 
0.16895 0.34700 -0.05611 
1.66676 2.84400 -0.45986 
1.67418 2.84400 -0.45986 
2.21415 3.21900 -0.52049 
2.26677 3.15200 -0.50966 
2.28800 3.13600 -0.50707 
2.40686 3.18500 -0.51499 
2.58457 3.30600 -0.53456 
2.61599 3.32400 -0.53747 
2.65350 3.25300 -0.52599 
2.63460 3.16900 -0.51241 
-0.11529 0.21300 -0.03500 
-0.11301 0.21500 -0.03533 
-0.11069 0.23000 -0.03779 
-0.10451 0.23500 -0.03861 
-0.13794 0.36600 -0.06013 
-0.13375 0.36500 -0.05997 
-0.12698 0.36200 -0.05948 
-0.11534 0.36400 -0.05981 
-0.08181 0.36700 -0.06030 
-0.07819 0.36800 -0.06046 
-0.07627 0.36800 -0.06046 
-0.07415 0.36700 -0.06030 
-0.37106 2.10900 -0.34652 
-0.36417 2.10100 -0.34520 
-0.32906 2.08700 -0.34290 
-0.05144 0.60800 -0.09990 
0.00462 0.49500 -0.08133 
0.02016 0.53000 -0.08708 
0.03200 0.52000 -0.08544 
0.04460 0.50900 -0.08363 
0.04584 0.50800 -0.08347 
0.12028 0.61800 -0.10154 
0.12824 0.58100 -0.09546 
0.13402 0.54300 -0.08922 
0.14286 0.48200 -0.07919 
0.15312 0.43600 -0.07164 
0.15442 0.42700 -0.07016 
0.15721 0.41100 -0.06753 
0.15813 0.39200 -0.06441 
0.16406 0.38200 -0.06276 
0.17200 0.33700 -0.05537 
0.17237 0.33600 -0.05521 
0.17532 0.33000 -0.05422 
0.17695 0.32200 -0.05291 
0.18029 0.31900 -0.05241 
1.74349 2.88500 -0.47401 
1.87278 2.98300 -0.49012 
2.04155 3.07300 -0.50490 
2.63334 3.32400 -0.54614 
2.63696 3.20200 -0.52610 
-0.11696 0.21100 -0.03522 
-0.11363 0.21300 -0.03555 
-0.10889 0.23000 -0.03839 
-0.10620 0.23200 -0.03872 
-0.10407 0.23400 -0.03906 
-0.10267 0.23500 -0.03922 
-0.10107 0.23700 -0.03956 
-0.09922 0.23700 -0.03956 
-0.13134 0.36100 -0.06026 
-0.09914 0.35700 -0.05959 
-0.08353 0.36200 -0.06042 
-0.07586 0.36600 -0.06109 
-0.31604 2.07300 -0.34601 
0.01029 0.52000 -0.08679 
0.01472 0.53300 -0.08896 
0.02151 0.52900 -0.08830 
0.03952 0.51200 -0.08546 
0.04575 0.50700 -0.08462 
0.06637 0.51300 -0.08563 
0.12575 0.59800 -0.09981 
0.12908 0.57800 -0.09648 
0.13828 0.48800 -0.08145 
0.14605 0.47600 -0.07945 
0.14747 0.45000 -0.07511 
0.16519 0.38000 -0.06343 
0.16574 0.37900 -0.06326 
0.16776 0.35600 -0.05942 
0.17176 0.34000 -0.05675 
1.62220 2.83100 -0.47253 
1.83144 2.95400 -0.49306 
2.27019 3.28800 -0.54881 
2.27877 3.28800 -0.54881 
2.31713 3.30600 -0.55181 
2.30896 3.27000 -0.54580 
2.61340 3.28800 -0.54881 
2.62198 3.28800 -0.54881 
2.63118 3.23600 -0.54013 
2.62576 3.21900 -0.53729 
-0.12025 0.21000 -0.03560 
-0.11860 0.21000 -0.03560 
-0.11307 0.21300 -0.03611 
-0.11251 0.21300 -0.03611 
-0.11423 0.22400 -0.03797 
-0.11102 0.22700 -0.03848 
-0.10695 0.23100 -0.03916 
-0.10635 0.23100 -0.03916 
-0.10301 0.23300 -0.03950 
-0.10285 0.23400 -0.03967 
-0.10083 0.23500 -0.03984 
-0.09427 0.23700 -0.04018 
-0.13436 0.35900 -0.06086 
-0.09527 0.35300 -0.05984 
-0.08471 0.35900 -0.06086 
-0.07713 0.36300 -0.06154 
-0.04301 0.60100 -0.10188 
-0.01175 0.47800 -0.08103 
0.02418 0.52700 -0.08934 
0.03070 0.52100 -0.08832 
0.03323 0.51800 -0.08781 
