ply
format ascii 1.0
comment pointcloud saved from Realsense Viewer
element vertex 1873
property float32 x
property float32 y
property float32 z
end_header
1.87251 3.03300 1.23187 
2.82475 4.15400 1.68717 
3.09925 4.29400 1.74403 
3.17172 4.24700 1.72494 
3.20719 4.24700 1.72494 
3.15539 4.06600 1.65143 
3.03134 3.78400 1.53689 
3.01734 3.74700 1.52186 
2.99005 3.67500 1.49262 
2.96403 3.60600 1.46460 
2.84907 3.26700 1.32691 
-1.48259 1.61300 0.64839 
-1.47586 1.61300 0.64839 
-1.44519 1.65500 0.66528 
-1.39584 1.72200 0.69221 
-1.35620 1.74500 0.70145 
-1.33792 1.76900 0.71110 
-1.35493 1.93000 0.77582 
-1.34575 1.94000 0.77984 
-1.28903 2.17200 0.87310 
-1.25275 2.17200 0.87310 
-1.23462 2.17200 0.87310 
-1.21211 2.24800 0.90365 
-1.22466 2.28900 0.92013 
-1.16434 2.30200 0.92536 
-1.09948 2.24800 0.90365 
-1.03604 2.31600 0.93099 
-1.00391 2.45000 0.98485 
-1.01315 2.49800 1.00415 
-1.06165 2.73000 1.09741 
-1.05739 2.94000 1.18182 
-0.91543 3.08200 1.23890 
-0.90442 3.13300 1.25940 
-0.87490 3.26700 1.31327 
-0.84035 3.23900 1.30201 
-0.53352 2.89500 1.16373 
-0.49657 2.96300 1.19107 
-0.44993 3.35300 1.34784 
-0.43970 3.38200 1.35950 
-0.40440 3.32400 1.33618 
-0.33500 3.32400 1.33618 
-0.07068 3.29500 1.32452 
0.01147 3.18500 1.28031 
0.35299 2.83100 1.13801 
0.42076 2.81000 1.12956 
0.52232 2.85200 1.14645 
0.59346 3.03300 1.21921 
0.68999 3.38200 1.35950 
1.42326 5.79100 2.32787 
2.05891 5.88000 2.36364 
2.31554 5.97200 2.40062 
2.52970 6.06700 2.43881 
2.55970 5.79100 2.32787 
2.13108 4.29400 1.72610 
1.99679 3.86100 1.55204 
1.94226 3.47500 1.39688 
2.82916 4.11000 1.65214 
3.15275 4.34300 1.74580 
3.17164 4.15400 1.66982 
3.07690 3.86100 1.55204 
-1.45325 1.63300 0.64961 
-1.44519 1.65500 0.65837 
-1.44253 1.67600 0.66672 
-1.37264 1.72900 0.68780 
-1.35723 1.73700 0.69099 
-1.35663 1.92100 0.76418 
-1.31562 1.98000 0.78765 
-1.31462 1.99100 0.79203 
-1.30328 2.01200 0.80038 
-1.30132 2.02200 0.80436 
-1.30376 2.06600 0.82186 
-1.30717 2.17200 0.86403 
-1.21793 2.33100 0.92728 
-1.16175 2.31600 0.92131 
-1.12909 2.28900 0.91057 
-1.06165 2.73000 1.08601 
-1.05739 2.94000 1.16955 
-0.96420 3.03300 1.20654 
-0.90989 3.10700 1.23598 
-0.74045 3.15900 1.25666 
-0.72726 3.15900 1.25666 
-0.62991 3.00900 1.19699 
-0.54994 2.91800 1.16079 
-0.32673 3.38200 1.34538 
-0.29081 3.29500 1.31077 
-0.25450 3.18500 1.26701 
-0.15063 3.23900 1.28849 
-0.08444 3.29500 1.31077 
-0.01526 3.21200 1.27775 
0.09203 3.21200 1.27775 
0.20861 2.96300 1.17869 
0.22981 2.91800 1.16079 
0.25218 2.89500 1.15164 
0.32690 2.81000 1.11783 
0.42076 2.81000 1.11783 
0.55877 2.91800 1.16079 
0.81167 3.82200 1.52041 
1.08804 4.83800 1.92458 
1.72314 6.26600 2.49264 
1.93792 6.37000 2.53402 
1.98477 6.26600 2.49264 
1.97852 6.16500 2.45247 
2.00426 6.16500 2.45247 
2.09113 5.97200 2.37569 
2.32705 6.06700 2.41348 
2.52168 5.70500 2.26948 
2.40183 5.23600 2.08290 
2.35889 5.09600 2.02721 
2.01696 3.90000 1.55144 
2.03324 3.90000 1.55144 
2.04953 3.90000 1.55144 
2.08210 3.90000 1.55144 
1.98156 3.57200 1.42096 
1.94226 3.47500 1.38237 
1.88562 3.32400 1.32230 
1.85092 3.23900 1.28849 
1.81840 3.15900 1.25666 
1.72687 2.89500 1.15164 
1.73896 2.89500 1.15164 
2.85944 4.15400 1.65248 
-1.52170 1.62600 0.64004 
-1.50812 1.62600 0.64004 
-1.44578 1.64000 0.64555 
-1.35115 1.90200 0.74868 
-1.34687 1.93000 0.75970 
-1.29616 2.00100 0.78765 
-1.29841 2.04400 0.80458 
-1.30203 2.07700 0.81757 
-1.25462 2.34500 0.92306 
-1.08130 2.28900 0.90102 
-1.07472 2.31600 0.91164 
-0.99617 2.35900 0.92857 
-0.99510 2.40400 0.94628 
-1.07729 2.83100 1.11436 
-1.07747 2.89500 1.13956 
-1.06966 2.94000 1.15727 
-1.04511 2.94000 1.15727 
-0.91543 3.08200 1.21317 
-0.89691 3.10700 1.22301 
-0.75985 3.18500 1.25371 
-0.67093 3.08200 1.21317 
-0.64760 3.03300 1.19388 
-0.62991 3.00900 1.18443 
-0.55409 2.94000 1.15727 
-0.53368 2.96300 1.16632 
-0.52536 2.98600 1.17538 
-0.51651 3.08200 1.21317 
-0.43728 3.47500 1.36786 
-0.33262 3.44300 1.35527 
-0.19802 3.13300 1.23324 
-0.11101 3.26700 1.28599 
0.02498 3.21200 1.26434 
0.50665 2.83100 1.11436 
0.55877 2.91800 1.14861 
0.96962 4.39300 1.72921 
1.39908 5.79100 2.27951 
1.83554 6.47800 2.54993 
1.99111 6.37000 2.50742 
2.06619 5.97200 2.35075 
2.41612 6.16500 2.42672 
2.48456 5.62100 2.21259 
2.33761 5.09600 2.00593 
2.20852 4.60500 1.81266 
2.04953 3.90000 1.53515 
1.90440 3.38200 1.33125 
1.74375 2.98600 1.17538 
1.71478 2.89500 1.13956 
1.71313 2.85200 1.12263 
1.73598 2.83100 1.11436 
3.13461 4.34300 1.70953 
3.24341 4.34300 1.70953 
3.20633 4.15400 1.63514 
3.20669 4.11000 1.61782 
3.07874 3.78400 1.48949 
-1.51491 1.62600 0.63325 
-1.50256 1.62000 0.63091 
-1.46197 1.62000 0.63091 
-1.45521 1.62000 0.63091 
-1.45381 1.62600 0.63325 
-1.44643 1.63300 0.63598 
-1.44578 1.64000 0.63870 
-1.43651 1.66900 0.65000 
-1.42014 1.69100 0.65857 
-1.41849 1.70600 0.66441 
-1.38865 1.72200 0.67064 
-1.34998 1.73700 0.67648 
-1.33765 1.94000 0.75554 
-1.31870 1.96000 0.76333 
-1.32021 2.20900 0.86030 
-1.31870 2.22200 0.86537 
-1.29659 2.24800 0.87549 
-1.27976 2.23500 0.87043 
-1.27782 2.24800 0.87549 
-1.25084 2.30200 0.89652 
-1.20075 2.37400 0.92456 
-1.07472 2.31600 0.90197 
-1.07838 2.34500 0.91327 
-1.04542 2.35900 0.91872 
-1.06966 2.94000 1.14499 
-0.98373 2.94000 1.14499 
-0.96669 2.96300 1.15395 
-0.90256 3.08200 1.20030 
-0.81993 3.21200 1.25093 
-0.79311 3.21200 1.25093 
-0.77314 3.18500 1.24041 
-0.60791 2.96300 1.15395 
-0.56637 2.94000 1.14499 
-0.52526 3.05800 1.19095 
-0.52506 3.13300 1.22016 
-0.47489 3.53900 1.37828 
-0.33871 3.50600 1.36543 
-0.22984 3.21200 1.25093 
-0.13710 3.23900 1.26144 
-0.12465 3.26700 1.27235 
-0.00186 3.23900 1.26144 
0.01176 3.26700 1.27235 
0.02540 3.26700 1.27235 
0.09361 3.26700 1.27235 
0.14327 3.15900 1.23028 
0.18821 3.03300 1.18121 
0.45937 2.83100 1.10254 
0.55877 2.91800 1.13643 
0.63130 3.15900 1.23028 
0.67815 3.32400 1.29454 
0.79574 3.74700 1.45928 
1.27352 5.46000 2.12642 
1.80849 6.47800 2.52288 
1.91668 6.47800 2.52288 
1.97078 6.47800 2.52288 
1.99783 6.47800 2.52288 
2.01771 6.37000 2.48082 
2.13297 6.16500 2.40098 
2.23593 6.16500 2.40098 
2.23164 4.77800 1.86081 
2.11913 4.34300 1.69140 
2.05188 4.06600 1.58352 
2.06378 4.02300 1.56677 
1.71689 2.94000 1.14499 
2.95893 4.24700 1.65401 
3.11648 4.34300 1.69140 
3.17070 4.39300 1.71087 
3.26241 4.39300 1.71087 
3.26155 4.34300 1.69140 
3.24102 4.15400 1.61779 
3.18921 4.02300 1.56677 
-1.51609 1.62000 0.62415 
-1.45263 1.64000 0.63186 
-1.44508 1.64700 0.63455 
-1.42954 1.66900 0.64303 
-1.39652 1.71400 0.66037 
-1.38146 1.72200 0.66345 
-1.35620 1.74500 0.67231 
-1.34046 1.75300 0.67539 
-1.33187 1.76100 0.67847 
-1.33188 1.81100 0.69774 
-1.34100 1.85500 0.71469 
-1.34957 1.91100 0.73627 
-1.33640 1.95000 0.75129 
-1.31197 1.95000 0.75129 
-1.29415 1.96000 0.75515 
-1.28443 2.02200 0.77903 
-1.28987 2.04400 0.78751 
-1.31164 2.13500 0.82257 
-1.32642 2.23500 0.86110 
-1.27968 2.30200 0.88691 
-1.16362 2.35900 0.90887 
-1.07838 2.34500 0.90348 
-1.00514 2.40400 0.92621 
-0.99510 2.40400 0.92621 
-1.07729 2.83100 1.09072 
-1.04900 2.98600 1.15044 
-0.96420 3.03300 1.16855 
-0.68935 3.10700 1.19706 
-0.39354 3.60600 1.38931 
-0.37491 3.57200 1.37621 
-0.26561 3.32400 1.28067 
-0.16278 3.21200 1.23751 
0.13227 3.21200 1.23751 
0.16552 3.08200 1.18743 
0.23517 2.98600 1.15044 
0.24382 2.94000 1.13272 
0.55877 2.91800 1.12424 
1.51643 6.06700 2.33748 
1.67195 6.37000 2.45422 
1.72735 6.47800 2.49583 
1.75439 6.47800 2.49583 
2.02487 6.47800 2.49583 
2.06326 6.26600 2.41416 
2.48716 5.79100 2.23115 
2.43762 5.62100 2.16565 
2.37936 5.38300 2.07395 
2.27706 4.96400 1.91252 
2.06689 4.20000 1.61817 
2.05188 4.06600 1.56654 
2.04698 4.02300 1.54998 
2.08700 3.94000 1.51800 
2.06128 3.86100 1.48756 
1.89028 3.38200 1.30301 
1.67741 2.85200 1.09881 
1.67687 2.83100 1.09072 
2.99167 4.29400 1.65439 
3.06208 4.34300 1.67326 
3.18904 4.39300 1.69253 
3.24341 4.34300 1.67326 
3.26155 4.34300 1.67326 
3.26061 4.29400 1.65439 
3.27854 4.29400 1.65439 
3.25837 4.15400 1.60045 
3.18921 4.02300 1.54998 
-1.49606 1.61300 0.61472 
-1.46060 1.62600 0.61967 
-1.44508 1.64700 0.62768 
-1.42129 1.68400 0.64178 
-1.40424 1.70600 0.65016 
-1.38936 1.71400 0.65321 
-1.38220 1.71400 0.65321 
-1.36542 1.72900 0.65893 
-1.34998 1.73700 0.66198 
-1.34100 1.85500 0.70695 
-1.33972 1.86400 0.71038 
-1.33765 1.94000 0.73934 
-1.28597 1.96000 0.74696 
-1.29335 2.07700 0.79155 
-1.31005 2.14700 0.81823 
-1.30836 2.15900 0.82280 
-1.30717 2.17200 0.82776 
-1.32642 2.23500 0.85177 
-1.31068 2.28900 0.87234 
-1.30112 2.28900 0.87234 
-1.27421 2.34500 0.89369 
-1.27014 2.37400 0.90474 
-1.24824 2.38900 0.91045 
-1.11755 2.34500 0.89369 
-1.05872 2.38900 0.91045 
-1.00131 2.41900 0.92189 
-1.06930 2.81000 1.07090 
-1.06538 2.89500 1.10329 
-0.91543 3.08200 1.17456 
-0.90256 3.08200 1.17456 
-0.81304 3.18500 1.21381 
-0.59554 2.96300 1.12921 
-0.56637 2.94000 1.12044 
-0.55842 2.96300 1.12921 
-0.53377 3.18500 1.21381 
-0.52442 3.38200 1.28889 
-0.41245 3.64000 1.38722 
-0.28697 3.41300 1.30071 
-0.07131 3.32400 1.26679 
0.09441 3.29500 1.25573 
0.26636 2.91800 1.11206 
0.28635 2.87400 1.09529 
0.46278 2.85200 1.08691 
0.54228 2.89500 1.10329 
0.55877 2.91800 1.11206 
1.27352 5.46000 2.08082 
1.95585 6.70500 2.55530 
2.03237 6.59000 2.51147 
2.08740 6.59000 2.51147 
2.07897 6.47800 2.46879 
2.28368 6.37000 2.42763 
2.41667 6.37000 2.42763 
2.46298 5.79100 2.20697 
2.39059 5.46000 2.08082 
2.18438 4.71900 1.79843 
2.07547 3.98100 1.51717 
1.67544 2.77000 1.05566 
1.67483 2.75000 1.04803 
1.68544 2.73000 1.04041 
2.95581 4.29400 1.63646 
3.06208 4.34300 1.65513 
3.11648 4.34300 1.65513 
3.20739 4.39300 1.67419 
3.28075 4.39300 1.67419 
3.22329 4.06600 1.54957 
-1.48259 1.61300 0.60798 
-1.46913 1.61300 0.60798 
-1.45325 1.63300 0.61552 
-1.43820 1.64700 0.62080 
-1.42954 1.66900 0.62909 
-1.38146 1.72200 0.64907 
-1.34778 1.75300 0.66075 
-1.32988 1.77800 0.67018 
-1.32841 1.78600 0.67319 
-1.32955 1.94000 0.73124 
-1.30525 1.94000 0.73124 
-1.28430 1.97000 0.74255 
-1.27808 2.01200 0.75838 
-1.28134 2.04400 0.77044 
-1.29335 2.07700 0.78288 
-1.32166 2.27500 0.85751 
-1.32024 2.28900 0.86279 
-1.28746 2.31600 0.87296 
-1.25821 2.38900 0.90048 
-1.23600 2.40400 0.90613 
-1.06191 2.41900 0.91179 
-1.04948 2.91800 1.09988 
-0.91543 3.08200 1.16169 
-0.86396 3.08200 1.16169 
-0.79321 3.15900 1.19071 
-0.78002 3.15900 1.19071 
-0.75364 3.15900 1.19071 
-0.62510 2.98600 1.12551 
-0.55453 3.00900 1.13418 
-0.52923 3.41300 1.28645 
-0.49423 3.57200 1.34639 
-0.48844 3.64000 1.37202 
-0.40500 3.71100 1.39878 
-0.20302 3.21200 1.21069 
-0.04280 3.26700 1.23142 
-0.02916 3.26700 1.23142 
-0.00188 3.26700 1.23142 
0.04042 3.38200 1.27477 
0.10912 3.32400 1.25291 
0.20412 3.08200 1.16169 
0.28635 2.87400 1.08329 
0.39447 2.79000 1.05163 
0.48659 2.85200 1.07500 
0.56298 2.94000 1.10817 
0.58426 2.98600 1.12551 
0.66653 3.26700 1.23142 
0.71056 3.41300 1.28645 
0.84452 3.90000 1.47002 
0.92702 4.20000 1.58310 
1.59233 6.26600 2.36183 
2.01184 6.70500 2.52730 
2.23049 6.37000 2.40103 
2.31028 6.37000 2.40103 
2.39007 6.37000 2.40103 
2.41667 6.37000 2.40103 
2.49646 6.37000 2.40103 
2.54482 6.16500 2.32376 
2.40206 5.53900 2.08780 
2.19174 4.77800 1.80096 
2.09419 4.44400 1.67507 
2.06473 4.34300 1.63700 
2.05936 4.29400 1.61853 
2.04426 4.15400 1.56576 
1.95525 3.60600 1.35920 
3.15236 4.39300 1.65584 
3.33578 4.39300 1.65584 
3.35222 4.34300 1.63700 
3.18915 3.98100 1.50055 
3.14139 3.86100 1.45532 
3.12561 3.82200 1.44062 
-1.46197 1.62000 0.60386 
-1.45263 1.64000 0.61131 
-1.44508 1.64700 0.61392 
-1.43820 1.64700 0.61392 
-1.39712 1.70600 0.63592 
-1.35620 1.74500 0.65045 
-1.33450 1.84600 0.68810 
-1.33257 1.92100 0.71606 
-1.28134 2.04400 0.76191 
-1.29891 2.10000 0.78278 
-1.32024 2.28900 0.85323 
-1.28746 2.31600 0.86329 
-1.27421 2.34500 0.87410 
-1.24604 2.40400 0.89610 
-1.16291 2.41900 0.90169 
-1.14980 2.43400 0.90728 
-1.10621 2.45000 0.91324 
-1.01768 2.43400 0.90728 
-1.05025 2.73000 1.01761 
-1.00829 2.94000 1.09589 
-0.97686 3.03300 1.13056 
-0.94117 3.08200 1.14882 
-0.83205 3.10700 1.15814 
-0.82593 3.13300 1.16783 
-0.81285 3.13300 1.16783 
-0.55895 3.03300 1.13056 
-0.55122 3.13300 1.16783 
-0.54751 3.26700 1.21778 
-0.51951 3.44300 1.28339 
-0.50983 3.47500 1.29531 
-0.35503 3.67500 1.36987 
-0.31234 3.53900 1.31917 
-0.27272 3.41300 1.27220 
-0.25612 3.38200 1.26065 
-0.18801 3.18500 1.18722 
-0.13596 3.21200 1.19728 
-0.09573 3.21200 1.19728 
-0.08372 3.26700 1.21778 
0.01186 3.29500 1.22822 
0.06866 3.38200 1.26065 
0.10817 3.29500 1.22822 
0.13338 3.23900 1.20735 
0.16826 3.13300 1.16783 
0.22986 3.08200 1.14882 
0.31293 2.79000 1.03998 
0.34538 2.77000 1.03252 
0.40612 2.79000 1.03998 
0.47835 2.87400 1.07129 
0.54659 2.91800 1.08769 
0.66081 3.23900 1.20735 
0.83608 3.86100 1.43920 
1.89986 6.70500 2.49931 
2.16994 6.59000 2.45644 
2.19746 6.59000 2.45644 
2.22498 6.59000 2.45644 
2.24126 6.47800 2.41469 
2.26830 6.47800 2.41469 
2.37893 5.53900 2.06468 
2.20678 4.90000 1.82649 
2.01793 4.06600 1.51561 
2.07408 4.11000 1.53201 
2.00041 3.74700 1.39670 
1.93682 3.57200 1.33147 
1.82789 3.29500 1.22822 
1.73321 3.03300 1.13056 
1.67741 2.85200 1.06309 
1.67617 2.81000 1.04743 
3.06208 4.34300 1.61886 
3.17070 4.39300 1.63750 
3.31198 4.20000 1.56556 
3.17276 3.94000 1.46864 
3.15683 3.90000 1.45373 
3.14139 3.86100 1.43920 
-1.43048 1.66200 0.61257 
-1.41426 1.68400 0.62068 
-1.33909 1.87400 0.69071 
-1.34059 1.92100 0.70804 
-1.28597 1.96000 0.72241 
-1.28137 1.99100 0.73384 
-1.28134 2.04400 0.75337 
-1.32021 2.20900 0.81419 
-1.32773 2.30200 0.84846 
-1.27421 2.34500 0.86431 
-1.27014 2.37400 0.87500 
-1.24824 2.38900 0.88053 
-1.01597 2.53100 0.93287 
-1.05765 2.87400 1.05929 
-1.00380 2.96300 1.09209 
-0.87097 3.10700 1.14517 
-0.79313 3.10700 1.14517 
-0.74814 3.08200 1.13595 
-0.64248 3.00900 1.10905 
-0.56709 3.00900 1.10905 
-0.55962 3.10700 1.14517 
-0.55171 3.21200 1.18387 
-0.53855 3.38200 1.24653 
-0.45148 3.71100 1.36779 
-0.31526 3.57200 1.31656 
-0.20472 3.23900 1.19382 
-0.17619 3.21200 1.18387 
-0.15063 3.23900 1.19382 
-0.13710 3.23900 1.19382 
0.06929 3.41300 1.25795 
0.08207 3.35300 1.23584 
0.14568 3.21200 1.18387 
0.18134 3.13300 1.15475 
0.24273 3.08200 1.13595 
0.28065 2.94000 1.08362 
0.34787 2.79000 1.02833 
0.35952 2.79000 1.02833 
0.37117 2.79000 1.02833 
0.47835 2.87400 1.05929 
0.56298 2.94000 1.08362 
0.91687 4.15400 1.53107 
1.59216 6.37000 2.34784 
2.01184 6.70500 2.47131 
2.32240 6.47800 2.38764 
2.36347 6.37000 2.34784 
2.49646 6.37000 2.34784 
2.33440 5.38300 1.98405 
2.24388 5.02900 1.85357 
2.17179 4.77800 1.76106 
2.03182 4.20000 1.54802 
2.10841 4.11000 1.51485 
2.04953 3.90000 1.43745 
1.83010 3.32400 1.22515 
1.79526 3.21200 1.18387 
1.74834 3.08200 1.13595 
1.71795 2.96300 1.09209 
2.93789 4.29400 1.58267 
3.09835 4.34300 1.60073 
3.13461 4.34300 1.60073 
3.22573 4.39300 1.61916 
-1.45381 1.62600 0.59252 
-1.45325 1.63300 0.59507 
-1.42354 1.66200 0.60564 
-1.40020 1.68400 0.61365 
-1.34531 1.76900 0.64463 
-1.33730 1.77800 0.64791 
-1.33450 1.84600 0.67269 
-1.29253 1.97000 0.71787 
-1.28137 1.99100 0.72552 
-1.29580 2.33100 0.84942 
-1.21393 2.48200 0.90444 
-1.18003 2.49800 0.91028 
-1.16706 2.51500 0.91647 
-1.07920 2.48200 0.90444 
-1.03106 2.46600 0.89861 
-1.05408 2.77000 1.00939 
-1.05365 2.83100 1.03162 
-1.04565 2.87400 1.04729 
-0.98491 3.05800 1.11434 
-0.94880 3.10700 1.13220 
-0.74232 3.05800 1.11434 
-0.54319 3.32400 1.21127 
-0.51951 3.44300 1.25464 
-0.29479 3.50600 1.27759 
-0.27512 3.44300 1.25464 
-0.17619 3.21200 1.17046 
-0.12358 3.23900 1.18030 
-0.05549 3.21200 1.17046 
-0.02867 3.21200 1.17046 
0.04007 3.35300 1.22184 
0.05454 3.38200 1.23241 
0.06929 3.41300 1.24370 
0.08278 3.38200 1.23241 
0.18284 3.15900 1.15114 
0.32690 2.81000 1.02397 
0.37117 2.79000 1.01668 
0.45087 2.85200 1.03927 
0.54659 2.91800 1.06332 
0.61112 3.05800 1.11434 
0.90716 4.11000 1.49769 
1.87186 6.70500 2.44331 
2.13334 6.82500 2.48704 
2.23581 6.70500 2.44331 
2.36347 6.37000 2.32124 
2.40337 6.26600 2.28334 
2.48186 6.26600 2.28334 
2.47904 6.06700 2.21083 
2.50437 6.06700 2.21083 
2.39068 5.62100 2.04830 
2.34500 5.46000 1.98963 
2.13704 4.20000 1.53049 
1.84607 3.35300 1.22184 
1.74375 2.98600 1.08810 
3.15275 4.34300 1.58260 
3.22528 4.34300 1.58260 
3.27968 4.34300 1.58260 
3.29781 4.34300 1.58260 
3.33131 4.24700 1.54761 
-1.46275 1.60600 0.57852 
-1.45263 1.64000 0.59077 
-1.44578 1.64000 0.59077 
-1.44508 1.64700 0.59329 
-1.43828 1.65500 0.59617 
-1.41660 1.66200 0.59870 
-1.39317 1.68400 0.60662 
-1.36542 1.72900 0.62283 
-1.34658 1.76100 0.63436 
-1.34531 1.76900 0.63724 
-1.33972 1.86400 0.67146 
-1.29909 1.98000 0.71325 
-1.29799 1.99100 0.71721 
-1.27196 2.35900 0.84977 
-1.23919 2.45000 0.88255 
-1.22669 2.46600 0.88832 
-1.16110 2.54800 0.91786 
-1.15046 2.54800 0.91786 
-1.10405 2.51500 0.90597 
-1.01488 2.58200 0.93010 
-0.97475 3.10700 1.11922 
-0.88554 3.15900 1.13796 
-0.85209 3.13300 1.12859 
-0.80610 3.10700 1.11922 
-0.75509 3.05800 1.10157 
-0.72358 3.03300 1.09257 
-0.67293 3.03300 1.09257 
-0.62991 3.00900 1.08392 
-0.61263 2.98600 1.07564 
-0.57523 2.98600 1.07564 
-0.52923 3.41300 1.22945 
-0.50983 3.47500 1.25179 
-0.47489 3.53900 1.27484 
-0.44284 3.64000 1.31122 
-0.38572 3.67500 1.32383 
-0.22397 3.32400 1.19739 
-0.20649 3.26700 1.17686 
-0.15063 3.23900 1.16677 
-0.13710 3.23900 1.16677 
-0.12358 3.23900 1.16677 
-0.02820 3.15900 1.13796 
0.04007 3.35300 1.20784 
0.05454 3.38200 1.21829 
0.08278 3.38200 1.21829 
0.20922 3.15900 1.13796 
0.45435 2.87400 1.03529 
0.53019 2.89500 1.04286 
0.54659 2.91800 1.05114 
0.56298 2.94000 1.05907 
0.64449 3.15900 1.13796 
1.35448 5.70500 2.05509 
1.44281 5.97200 2.15127 
1.59216 6.37000 2.29464 
2.04785 6.82500 2.45854 
2.17982 6.70500 2.41532 
2.20781 6.70500 2.41532 
2.28368 6.37000 2.29464 
2.37721 6.26600 2.25718 
2.41462 5.79100 2.08607 
2.22288 5.02900 1.81158 
2.03182 4.20000 1.51295 
2.04426 4.15400 1.49638 
2.06160 4.15400 1.49638 
2.10197 4.20000 1.51295 
2.17869 4.24700 1.52988 
2.13677 4.06600 1.46468 
2.08700 3.94000 1.41929 
1.99669 3.71100 1.33680 
1.84165 3.29500 1.18695 
1.80867 3.21200 1.15705 
1.78694 3.08200 1.11022 
2.99167 4.29400 1.54681 
3.27968 4.34300 1.56446 
3.31358 4.24700 1.52988 
-1.47616 1.60600 0.57182 
-1.45948 1.64000 0.58392 
-1.44508 1.64700 0.58642 
-1.42354 1.66200 0.59176 
-1.42257 1.66900 0.59425 
-1.41454 1.67600 0.59674 
-1.40754 1.67600 0.59674 
-1.39317 1.68400 0.59959 
-1.36708 1.72200 0.61312 
-1.36542 1.72900 0.61561 
-1.36449 1.73700 0.61846 
-1.34105 1.80300 0.64196 
-1.33639 1.83800 0.65442 
-1.34325 1.96000 0.69786 
-1.32389 1.98000 0.70498 
-1.31562 1.98000 0.70498 
-1.29288 2.02200 0.71993 
-1.29335 2.07700 0.73952 
-1.30427 2.12300 0.75590 
-1.33300 2.26200 0.80539 
-1.32614 2.31600 0.82461 
-1.28400 2.34500 0.83494 
-1.25381 2.41900 0.86129 
-1.24371 2.41900 0.86129 
-1.23919 2.45000 0.87232 
-1.24261 2.49800 0.88941 
-1.15813 2.56500 0.91327 
-1.14742 2.56500 0.91327 
-1.11854 2.54800 0.90722 
-1.06205 2.51500 0.89547 
-1.04105 2.51500 0.89547 
-1.03563 2.69200 0.95849 
-1.05004 2.79000 0.99338 
-1.05329 2.89500 1.03077 
-0.99264 3.08200 1.09735 
-0.98772 3.10700 1.10625 
-0.97787 3.15900 1.12477 
-0.96468 3.15900 1.12477 
-0.82593 3.13300 1.11551 
-0.75509 3.05800 1.08880 
-0.73625 3.03300 1.07990 
-0.56037 3.18500 1.13402 
-0.39725 3.64000 1.29603 
-0.20649 3.26700 1.16322 
-0.16415 3.23900 1.15325 
-0.11005 3.23900 1.15325 
-0.01526 3.21200 1.14364 
0.04007 3.35300 1.19384 
0.10912 3.32400 1.18351 
0.15909 3.21200 1.14364 
0.34116 2.83100 1.00798 
0.37383 2.81000 1.00050 
0.41209 2.83100 1.00798 
0.43896 2.85200 1.01546 
0.48184 2.89500 1.03077 
1.22127 5.23600 1.86428 
1.72969 6.59000 2.34638 
1.99085 6.82500 2.43005 
2.01935 6.82500 2.43005 
2.13334 6.82500 2.43005 
2.33889 6.16500 2.19505 
2.39038 6.16500 2.19505 
2.41612 6.16500 2.19505 
2.44186 6.16500 2.19505 
2.37876 5.70500 2.03127 
2.05182 4.39300 1.56413 
2.01909 4.24700 1.51215 
2.20980 4.34300 1.54633 
2.15374 4.06600 1.44770 
2.10345 3.94000 1.40284 
1.82208 3.21200 1.14364 
1.83336 3.18500 1.13402 
1.82959 3.13300 1.11551 
3.02581 4.34300 1.54633 
3.04394 4.34300 1.54633 
3.22528 4.34300 1.54633 
3.29646 4.29400 1.52888 
3.25817 4.11000 1.46337 
-1.46973 1.59900 0.56265 
-1.46874 1.62000 0.57004 
-1.45195 1.64700 0.57954 
-1.42257 1.66900 0.58728 
-1.37720 1.69900 0.59784 
-1.34100 1.85500 0.65273 
-1.33507 1.96000 0.68968 
-1.33216 1.98000 0.69671 
-1.33125 1.99100 0.70058 
-1.30273 2.13500 0.75125 
-1.30109 2.14700 0.75548 
-1.31647 2.31600 0.81494 
-1.25143 2.43400 0.85646 
-1.19565 2.60000 0.91488 
-1.08662 2.54800 0.89658 
-1.04767 2.53100 0.89060 
-1.00219 3.03300 1.06724 
-0.99264 3.08200 1.08448 
-0.96746 3.21200 1.13022 
-0.84597 3.15900 1.11158 
-0.67293 3.03300 1.06724 
-0.65504 3.00900 1.05879 
-0.58085 3.08200 1.08448 
-0.53845 3.29500 1.15943 
-0.52931 3.32400 1.16963 
-0.49193 3.35300 1.17984 
-0.39726 3.50600 1.23368 
-0.34190 3.53900 1.24529 
-0.08301 3.23900 1.13973 
-0.01539 3.23900 1.13973 
0.02585 3.32400 1.16963 
0.28952 3.03300 1.06724 
0.32728 2.91800 1.02677 
0.34370 2.85200 1.00355 
0.41514 2.85200 1.00355 
0.63919 3.13300 1.10243 
0.81139 3.74700 1.31848 
0.88795 4.02300 1.41560 
1.42058 5.88000 2.06903 
1.64620 6.47800 2.27945 
1.67325 6.47800 2.27945 
1.75721 6.59000 2.31886 
2.25709 6.37000 2.24145 
2.30171 6.06700 2.13483 
2.40263 5.88000 2.06903 
2.28945 5.38300 1.89415 
2.27972 5.30800 1.86776 
2.15184 4.77800 1.68126 
2.11861 4.66100 1.64009 
2.03682 4.24700 1.49442 
2.24962 4.24700 1.49442 
2.02768 3.71100 1.30581 
1.95958 3.50600 1.23368 
1.89668 3.29500 1.15943 
1.87797 3.23900 1.13973 
3.02581 4.34300 1.52820 
3.13402 4.39300 1.54579 
3.29781 4.34300 1.52820 
3.27691 4.20000 1.47788 
3.27571 4.15400 1.46169 
2.89325 2.96300 1.04261 
-1.46946 1.60600 0.55841 
-1.46060 1.62600 0.56536 
-1.45948 1.64000 0.57023 
-1.44519 1.65500 0.57544 
-1.43048 1.66200 0.57788 
-1.38429 1.69900 0.59074 
-1.36242 1.75300 0.60952 
-1.35824 1.78600 0.62099 
-1.34751 1.86400 0.64811 
-1.35195 1.89200 0.65785 
-1.35385 1.94000 0.67454 
-1.33956 1.99100 0.69227 
-1.30083 2.08900 0.72635 
-1.30427 2.12300 0.73817 
-1.31304 2.19700 0.76390 
-1.32024 2.28900 0.79589 
-1.26023 2.37400 0.82544 
-1.25965 2.45000 0.85187 
-1.24846 2.53100 0.88003 
-1.23049 2.58200 0.89776 
-1.21971 2.58200 0.89776 
-1.11529 2.56500 0.89185 
-1.04407 2.54800 0.88594 
-0.99922 3.18500 1.10743 
-0.92946 3.26700 1.13594 
-0.87358 3.21200 1.11681 
-0.58910 3.05800 1.06327 
-0.56037 3.18500 1.10743 
-0.51093 3.29500 1.14567 
-0.45991 3.32400 1.15576 
-0.17767 3.23900 1.12620 
-0.11005 3.23900 1.12620 
-0.06890 3.21200 1.11681 
-0.05549 3.21200 1.11681 
0.12089 3.26700 1.13594 
0.29191 3.05800 1.06327 
0.48184 2.89500 1.00659 
0.50602 2.89500 1.00659 
0.53441 2.91800 1.01459 
0.54659 2.91800 1.01459 
0.73798 3.47500 1.20826 
0.97672 4.34300 1.51006 
1.08098 4.71900 1.64080 
1.20471 5.16500 1.79587 
1.51518 6.16500 2.14357 
1.72969 6.59000 2.29134 
1.98385 6.70500 2.33133 
2.25105 6.06700 2.10950 
2.30171 6.06700 2.10950 
2.29940 5.46000 1.89844 
2.18632 4.90000 1.70373 
2.05936 4.29400 1.49302 
2.36234 4.60500 1.60116 
2.02236 3.53900 1.23051 
2.00029 3.47500 1.20826 
3.27691 4.20000 1.46034 
-1.47086 1.59300 0.54723 
-1.46275 1.60600 0.55170 
-1.46197 1.62000 0.55651 
-1.42129 1.68400 0.57850 
-1.37720 1.69900 0.58365 
-1.36789 1.71400 0.58880 
-1.36542 1.72900 0.59395 
-1.35173 1.83800 0.63140 
-1.34991 1.84600 0.63415 
-1.34787 1.99100 0.68396 
-1.31820 2.02200 0.69461 
-1.30694 2.04400 0.70216 
-1.30540 2.05500 0.70594 
-1.30083 2.08900 0.71762 
-1.29751 2.11200 0.72552 
-1.29934 2.15900 0.74167 
-1.31411 2.26200 0.77705 
-1.29316 2.27500 0.78152 
-1.29890 2.30200 0.79079 
-1.15222 2.60000 0.89316 
-1.11190 2.58200 0.88698 
-1.09387 2.56500 0.88114 
-1.03210 2.65400 0.91171 
-1.05739 2.94000 1.00996 
-1.04900 2.98600 1.02577 
-0.99428 3.21200 1.10340 
-0.90218 3.26700 1.12230 
-0.86740 3.23900 1.11268 
-0.82634 3.18500 1.09413 
-0.69826 3.03300 1.04191 
-0.53387 3.26700 1.12230 
-0.46393 3.35300 1.15184 
-0.44993 3.35300 1.15184 
-0.31261 3.38200 1.16180 
-0.16415 3.23900 1.11268 
-0.01539 3.23900 1.11268 
0.08136 3.32400 1.14188 
0.09524 3.32400 1.14188 
0.10817 3.29500 1.13191 
0.14690 3.23900 1.11268 
0.22615 3.21200 1.10340 
0.23754 3.18500 1.09413 
0.34888 2.89500 0.99450 
0.37035 2.87400 0.98729 
0.42705 2.85200 0.97973 
0.43896 2.85200 0.97973 
0.45435 2.87400 0.98729 
0.56298 2.94000 1.00996 
0.73798 3.47500 1.19375 
0.88795 4.02300 1.38200 
1.67325 6.47800 2.22535 
1.70030 6.47800 2.22535 
1.83976 6.59000 2.26383 
2.12382 6.70500 2.30333 
2.11491 6.59000 2.26383 
2.18716 6.47800 2.22535 
2.23593 6.16500 2.11783 
2.30171 6.06700 2.08417 
2.31554 5.97200 2.05153 
2.35353 5.88000 2.01993 
2.29940 5.46000 1.87565 
2.24879 5.23600 1.79870 
2.15184 4.77800 1.64136 
2.11861 4.66100 1.60117 
2.07564 4.44400 1.52662 
2.11913 4.34300 1.49193 
2.40112 4.71900 1.62109 
2.47104 4.77800 1.64136 
2.47993 4.71900 1.62109 
2.29487 4.20000 1.44280 
2.28708 4.15400 1.42700 
2.16236 3.78400 1.29990 
3.13310 4.49700 1.54483 
3.26241 4.39300 1.50910 
3.33748 3.53900 1.21573 
2.87079 2.94000 1.00996 
2.86149 2.91800 1.00241 
2.84234 2.87400 0.98729 
2.85631 2.85200 0.97973 
-1.46973 1.59900 0.54262 
-1.43742 1.66200 0.56400 
-1.42129 1.68400 0.57146 
-1.35275 1.82900 0.62067 
-1.35755 1.91100 0.64850 
-1.35493 1.93000 0.65494 
-1.35011 1.97000 0.66852 
-1.34529 2.01200 0.68277 
-1.32665 2.02200 0.68616 
-1.31820 2.02200 0.68616 
-1.30694 2.04400 0.69363 
-1.30176 2.20900 0.74962 
-1.27782 2.24800 0.76286 
-1.26045 2.30200 0.78118 
-1.18479 2.60000 0.88231 
-1.12268 2.58200 0.87620 
-1.10112 2.58200 0.87620 
-1.05103 2.56500 0.87043 
-1.05329 2.96300 1.00549 
-1.00425 3.15900 1.07201 
-0.98731 3.32400 1.12800 
-0.67293 3.03300 1.02925 
-0.64248 3.00900 1.02110 
-0.57738 3.13300 1.06318 
-0.57367 3.18500 1.08083 
-0.54751 3.26700 1.10866 
-0.53845 3.29500 1.11816 
-0.46393 3.35300 1.13784 
-0.36593 3.35300 1.13784 
-0.35193 3.35300 1.13784 
-0.30725 3.32400 1.12800 
-0.27949 3.32400 1.12800 
-0.23578 3.29500 1.11816 
-0.13596 3.21200 1.08999 
-0.09573 3.21200 1.08999 
0.02540 3.26700 1.10866 
0.03904 3.26700 1.10866 
0.09441 3.29500 1.11816 
0.13453 3.26700 1.10866 
0.20100 3.23900 1.09915 
0.31745 3.05800 1.03773 
0.32752 3.03300 1.02925 
0.41835 2.87400 0.97529 
0.80359 3.71100 1.25933 
1.06769 4.66100 1.58171 
1.64535 6.37000 2.16166 
1.83976 6.59000 2.23631 
2.20389 6.37000 2.16166 
2.23049 6.37000 2.16166 
2.23593 6.16500 2.09209 
2.32705 6.06700 2.05883 
2.23987 5.16500 1.75274 
2.08850 4.39300 1.49076 
2.14986 4.44400 1.50807 
2.25813 4.55000 1.54404 
2.34866 4.11000 1.39473 
3.17003 4.55000 1.54404 
3.17066 4.49700 1.52606 
3.18943 4.49700 1.52606 
3.20821 4.49700 1.52606 
3.20751 4.44400 1.50807 
3.24462 4.44400 1.50807 
3.91649 4.24700 1.44122 
3.78353 4.06600 1.37980 
2.86149 2.91800 0.99022 
-1.47764 1.58600 0.53159 
-1.46275 1.60600 0.53829 
-1.46874 1.62000 0.54298 
-1.43553 1.67600 0.56175 
-1.40558 1.69900 0.56946 
-1.38287 1.70600 0.57181 
-1.37427 1.72200 0.57717 
-1.36974 1.75300 0.58756 
-1.36364 1.80300 0.60432 
-1.35649 1.85500 0.62175 
-1.35910 1.90200 0.63750 
-1.35663 1.92100 0.64387 
-1.26304 2.22200 0.74476 
-1.26611 2.40400 0.80576 
-1.26788 2.46600 0.82654 
-1.25107 2.51500 0.84296 
-1.21956 2.51500 0.84296 
-1.20906 2.51500 0.84296 
-1.14425 2.58200 0.86542 
-1.12268 2.58200 0.86542 
-1.03281 2.60000 0.87145 
-1.05365 2.83100 0.94888 
-1.04018 3.03300 1.01658 
-1.03599 3.05800 1.02496 
-1.00769 3.21200 1.07658 
-0.99766 3.26700 1.09501 
-0.98731 3.32400 1.11412 
-0.74744 3.13300 1.05010 
-0.59694 3.03300 1.01658 
-0.57853 3.21200 1.07658 
-0.55635 3.23900 1.08563 
-0.51543 3.32400 1.11412 
-0.50155 3.32400 1.11412 
-0.47379 3.32400 1.11412 
-0.43593 3.35300 1.12384 
-0.41828 3.32400 1.11412 
-0.35960 3.29500 1.10440 
-0.34584 3.29500 1.10440 
-0.28834 3.26700 1.09501 
-0.27705 3.29500 1.10440 
-0.23578 3.29500 1.10440 
-0.13596 3.21200 1.07658 
0.03904 3.26700 1.09501 
0.05269 3.26700 1.09501 
0.16181 3.26700 1.09501 
0.23956 3.21200 1.07658 
0.31994 3.08200 1.03301 
0.35165 2.91800 0.97804 
0.39133 2.85200 0.95592 
0.40324 2.85200 0.95592 
1.72735 6.47800 2.17126 
1.80849 6.47800 2.17126 
1.83554 6.47800 2.17126 
1.94373 6.47800 2.17126 
2.28741 6.16500 2.06635 
2.40263 5.88000 1.97082 
2.29940 5.46000 1.83005 
2.25755 5.30800 1.77910 
2.20189 5.02900 1.68559 
2.15866 4.83800 1.62157 
2.13795 4.49700 1.50728 
2.67734 4.90000 1.64235 
3.18903 4.55000 1.52504 
3.20803 4.55000 1.52504 
3.24576 4.49700 1.50728 
3.26454 4.49700 1.50728 
3.15539 4.06600 1.36282 
3.10825 3.26700 1.09501 
-1.43535 1.68400 0.55740 
-1.42832 1.68400 0.55740 
-1.42129 1.68400 0.55740 
-1.39000 1.70600 0.56468 
-1.35611 1.80300 0.59679 
-1.36256 1.87400 0.62029 
-1.35474 1.87400 0.62029 
-1.35910 1.90200 0.62956 
-1.35144 1.96000 0.64876 
-1.34869 1.98000 0.65538 
-1.33689 2.01200 0.66597 
-1.30840 2.03300 0.67292 
-1.28650 2.06600 0.68384 
-1.28131 2.15900 0.71463 
-1.25084 2.30200 0.76196 
-1.17756 2.51500 0.83246 
-1.10112 2.58200 0.85464 
-1.03948 2.67300 0.88476 
-1.05329 2.89500 0.95824 
-1.04451 3.00900 0.99598 
-1.00769 3.21200 1.06317 
-1.00264 3.23900 1.07211 
-0.98731 3.32400 1.10024 
-0.91981 3.38200 1.11944 
-0.90569 3.38200 1.11944 
-0.87628 3.32400 1.10024 
-0.79311 3.21200 1.06317 
-0.67848 3.05800 1.01219 
-0.65504 3.00900 0.99598 
-0.64248 3.00900 0.99598 
-0.58217 3.15900 1.04563 
-0.56115 3.26700 1.08137 
-0.54751 3.26700 1.08137 
-0.44604 3.32400 1.10024 
-0.32644 3.23900 1.07211 
-0.17619 3.21200 1.06317 
-0.14937 3.21200 1.06317 
-0.10822 3.18500 1.05423 
-0.05549 3.21200 1.06317 
-0.01526 3.21200 1.06317 
0.01166 3.23900 1.07211 
0.02519 3.23900 1.07211 
0.06576 3.23900 1.07211 
0.09281 3.23900 1.07211 
0.11985 3.23900 1.07211 
0.13338 3.23900 1.07211 
0.18909 3.26700 1.08137 
0.22424 3.18500 1.05423 
0.28836 3.15900 1.04563 
0.30956 3.10700 1.02841 
0.33022 3.05800 1.01219 
0.43896 2.85200 0.94401 
0.46635 2.87400 0.95129 
1.05487 4.60500 1.52425 
1.37830 5.70500 1.88835 
1.78144 6.47800 2.14421 
2.07091 6.37000 2.10846 
2.22023 6.26600 2.07404 
2.37876 5.70500 1.88835 
2.20994 5.09600 1.68677 
2.22775 4.60500 1.52425 
2.40106 4.83800 1.60137 
2.64961 5.16500 1.70961 
2.70790 5.23600 1.73311 
2.72976 5.23600 1.73311 
2.81162 5.30800 1.75694 
2.86527 5.16500 1.70961 
2.76467 4.83800 1.60137 
2.72191 4.66100 1.54279 
3.39876 5.02900 1.66459 
3.24680 4.60500 1.52425 
3.24576 4.49700 1.48850 
3.26241 4.39300 1.45408 
3.22492 4.24700 1.40575 
3.17237 4.11000 1.36041 
3.13881 4.02300 1.33161 
3.12267 3.98100 1.31771 
4.03279 4.39300 1.45408 
2.81834 2.87400 0.95129 
-1.46913 1.61300 0.52717 
-1.44239 1.68400 0.55037 
-1.41976 1.69900 0.55527 
-1.40558 1.69900 0.55527 
-1.39712 1.70600 0.55756 
-1.38146 1.72200 0.56279 
-1.35941 1.83800 0.60070 
-1.35493 1.93000 0.63077 
-1.32849 2.01200 0.65757 
-1.28824 2.05500 0.67162 
-1.28468 2.07700 0.67881 
-1.22131 2.19700 0.71803 
-1.27611 2.48200 0.81118 
-1.24261 2.49800 0.81640 
-1.16960 2.49800 0.81640 
-1.15656 2.51500 0.82196 
-1.12165 2.53100 0.82719 
-1.11529 2.56500 0.83830 
-1.07623 2.60000 0.84974 
-1.04318 2.65400 0.86739 
-1.04955 2.85200 0.93210 
-1.04948 2.91800 0.95367 
-1.00069 3.10700 1.01544 
-0.99042 3.38200 1.10532 
-0.90569 3.38200 1.10532 
-0.86240 3.32400 1.08636 
-0.67848 3.05800 0.99943 
-0.66026 3.03300 0.99126 
-0.56987 3.23900 1.05858 
-0.54751 3.26700 1.06773 
-0.46393 3.35300 1.09584 
-0.44604 3.32400 1.08636 
-0.31030 3.21200 1.04976 
-0.20472 3.23900 1.05858 
-0.13482 3.18500 1.04093 
-0.12152 3.18500 1.04093 
-0.02867 3.21200 1.04976 
0.03839 3.21200 1.04976 
0.05223 3.23900 1.05858 
0.06521 3.21200 1.04976 
0.09281 3.23900 1.05858 
0.16043 3.23900 1.05858 
0.21273 3.21200 1.04976 
0.24879 3.15900 1.03244 
0.47835 2.87400 0.93929 
0.86963 3.94000 1.28768 
1.61849 6.26600 2.04788 
1.69855 6.37000 2.08187 
1.80494 6.37000 2.08187 
2.04431 6.37000 2.08187 
2.03710 6.26600 2.04788 
2.20389 6.37000 2.08187 
2.28945 5.38300 1.75929 
2.38086 4.83800 1.58117 
2.70790 5.23600 1.71125 
2.89482 5.02900 1.64360 
3.37556 4.96400 1.62235 
3.35250 4.90000 1.60144 
3.28777 4.71900 1.54228 
3.26603 4.60500 1.50502 
3.28332 4.49700 1.46973 
3.26241 4.39300 1.43574 
3.18923 4.20000 1.37266 
3.15539 4.06600 1.32886 
3.13881 4.02300 1.31481 
3.95984 4.29400 1.40338 
3.62502 3.86100 1.26187 
2.99384 3.13300 1.02394 
2.91094 3.03300 0.99126 
2.81476 2.89500 0.94615 
2.83249 2.85200 0.93210 
2.85892 2.83100 0.92524 
-1.47640 1.59900 0.51591 
-1.46913 1.61300 0.52043 
-1.41976 1.69900 0.54818 
-1.41267 1.69900 0.54818 
-1.36124 1.88300 0.60755 
-1.34325 1.96000 0.63239 
-1.32958 2.00100 0.64562 
-1.29991 2.03300 0.65594 
-1.26211 2.35900 0.76113 
-1.28647 2.48200 0.80081 
-1.20610 2.46600 0.79565 
-1.19580 2.46600 0.79565 
-1.10458 2.56500 0.82759 
-1.09794 2.60000 0.83888 
-1.08709 2.60000 0.83888 
-1.08368 2.61800 0.84469 
-1.04711 2.63600 0.85050 
-1.04565 2.87400 0.92729 
-1.02322 3.05800 0.98666 
-0.99599 3.13300 1.01086 
-0.82736 3.29500 1.06313 
-0.66026 3.03300 0.97859 
-0.64760 3.03300 0.97859 
-0.59372 3.08200 0.99440 
-0.57367 3.18500 1.02763 
-0.53387 3.26700 1.05409 
-0.17619 3.21200 1.03635 
-0.14811 3.18500 1.02763 
-0.12053 3.15900 1.01925 
-0.09415 3.15900 1.01925 
-0.08096 3.15900 1.01925 
-0.00185 3.21200 1.03635 
0.21273 3.21200 1.03635 
0.23560 3.15900 1.01925 
0.24879 3.15900 1.01925 
0.28836 3.15900 1.01925 
0.29907 3.13300 1.01086 
0.46975 2.89500 0.93407 
0.50602 2.89500 0.93407 
0.55877 2.91800 0.94149 
1.95861 6.26600 2.02171 
2.01093 6.26600 2.02171 
2.32240 6.47800 2.09011 
2.43059 6.47800 2.09011 
2.50803 6.26600 2.02171 
2.42718 5.88000 1.89717 
2.20994 5.09600 1.64421 
2.20189 5.02900 1.62260 
2.15866 4.83800 1.56097 
2.15184 4.77800 1.54161 
2.16467 4.71900 1.52258 
2.17699 4.66100 1.50386 
2.48432 4.96400 1.60163 
2.57166 5.09600 1.64421 
3.09477 5.62100 1.81361 
2.78074 4.44400 1.43385 
3.10699 4.90000 1.58098 
3.49494 5.23600 1.68939 
3.37296 4.90000 1.58098 
3.24576 4.49700 1.45095 
3.24462 4.44400 1.43385 
3.18923 4.20000 1.35512 
3.12143 4.06600 1.31189 
2.81276 2.91800 0.94149 
2.74762 2.79000 0.90019 
2.83771 2.81000 0.90664 
-1.47616 1.60600 0.51147 
-1.45901 1.65500 0.52707 
-1.41976 1.69900 0.54108 
-1.40424 1.70600 0.54331 
-1.39652 1.71400 0.54586 
-1.37899 1.73700 0.55319 
-1.36747 1.76900 0.56338 
-1.36212 1.81100 0.57675 
-1.36533 1.84600 0.58790 
-1.36256 1.87400 0.59682 
-1.36124 1.88300 0.59968 
-1.36465 1.92100 0.61179 
-1.32293 1.99100 0.63408 
-1.25867 2.07700 0.66147 
-1.22697 2.11200 0.67261 
-1.11745 2.49800 0.79554 
-1.11455 2.51500 0.80096 
-1.08709 2.60000 0.82803 
-1.05025 2.73000 0.86943 
-0.99042 3.38200 1.07708 
-0.95675 3.41300 1.08695 
-0.94249 3.41300 1.08695 
-0.92824 3.41300 1.08695 
-0.60961 3.03300 0.96593 
-0.59046 3.13300 0.99777 
-0.54282 3.23900 1.03153 
-0.44604 3.32400 1.05860 
-0.42839 3.29500 1.04937 
-0.40087 3.29500 1.04937 
-0.37018 3.26700 1.04045 
-0.12053 3.15900 1.00606 
-0.09415 3.15900 1.00606 
0.07796 3.18500 1.01434 
0.14690 3.23900 1.03153 
0.19932 3.21200 1.02293 
0.22241 3.15900 1.00606 
0.33022 3.05800 0.97389 
0.34738 2.98600 0.95096 
0.37602 2.91800 0.92930 
0.39435 2.87400 0.91529 
0.48184 2.89500 0.92198 
0.54659 2.91800 0.92930 
0.55877 2.91800 0.92930 
0.63388 3.10700 0.98949 
0.86963 3.94000 1.25478 
1.51643 6.06700 1.93217 
1.69855 6.37000 2.02867 
1.77834 6.37000 2.02867 
2.43059 6.47800 2.06307 
2.41462 5.79100 1.84428 
2.20189 5.02900 1.60160 
2.43183 4.90000 1.56052 
2.53785 5.02900 1.60160 
3.44076 5.02900 1.60160 
3.41701 4.96400 1.58090 
3.32718 4.71900 1.50287 
3.28526 4.60500 1.46657 
3.17096 4.29400 1.36752 
3.83073 4.15400 1.32294 
3.60890 3.86100 1.22962 
3.45039 3.67500 1.17039 
2.74071 2.83100 0.90160 
2.71636 2.77000 0.88217 
2.78257 2.79000 0.88854 
2.80587 2.79000 0.88854 
-1.48308 1.59900 0.50256 
-1.45044 1.66900 0.52456 
-1.41849 1.70600 0.53619 
-1.40424 1.70600 0.53619 
-1.36974 1.75300 0.55096 
-1.36863 1.76100 0.55348 
-1.36129 1.82000 0.57202 
-1.35762 1.84600 0.58019 
-1.35493 1.93000 0.60659 
-1.34325 1.96000 0.61602 
-1.33507 1.96000 0.61602 
-1.33125 1.99100 0.62577 
-1.23753 2.10000 0.66002 
-1.18029 2.43400 0.76500 
-1.13690 2.45000 0.77003 
-1.12667 2.45000 0.77003 
-1.11343 2.46600 0.77506 
-1.09726 2.54800 0.80083 
-1.06912 2.63600 0.82849 
-1.03001 2.83100 0.88978 
-1.03284 2.94000 0.92403 
-1.03195 3.00900 0.94572 
-0.98193 3.35300 1.05384 
-0.62227 3.03300 0.95326 
-0.60187 3.05800 0.96112 
-0.52930 3.23900 1.01801 
-0.28110 3.18500 1.00104 
-0.14811 3.18500 1.00104 
-0.02796 3.13300 0.98469 
0.14690 3.23900 1.01801 
0.23366 3.13300 0.98469 
0.24674 3.13300 0.98469 
0.25767 3.10700 0.97652 
0.27064 3.10700 0.97652 
0.35005 3.00900 0.94572 
0.48184 2.89500 0.90989 
0.53441 2.91800 0.91712 
0.60132 3.00900 0.94572 
1.15783 4.96400 1.56017 
1.54092 6.16500 1.93764 
1.59233 6.26600 1.96939 
2.09750 6.37000 2.00207 
2.24126 6.47800 2.03602 
2.26830 6.47800 2.03602 
2.33504 6.59000 2.07122 
2.52765 6.59000 2.07122 
2.54965 6.37000 2.00207 
2.51908 6.16500 1.93764 
2.32220 5.46000 1.71606 
2.27066 5.23600 1.64566 
2.48432 4.96400 1.56017 
2.93398 5.53900 1.74089 
3.26090 5.79100 1.82010 
3.23630 5.70500 1.79307 
2.87003 4.77800 1.50171 
3.25255 5.09600 1.60166 
3.46532 5.09600 1.60166 
3.46176 5.02900 1.58060 
3.22607 4.44400 1.39674 
3.26261 3.47500 1.09218 
2.86278 3.00900 0.94572 
2.70865 2.81000 0.88318 
-1.48308 1.59900 0.49588 
-1.46739 1.62600 0.50426 
-1.46592 1.65500 0.51325 
-1.44953 1.67600 0.51976 
-1.43395 1.69900 0.52690 
-1.42561 1.70600 0.52907 
-1.40424 1.70600 0.52907 
-1.36863 1.76100 0.54612 
-1.36432 1.79400 0.55636 
-1.34575 1.94000 0.60164 
-1.29616 2.00100 0.62055 
-1.27444 2.03300 0.63048 
-1.27281 2.04400 0.63389 
-1.18029 2.43400 0.75484 
-1.11343 2.46600 0.76476 
-1.07956 2.58200 0.80073 
-1.08368 2.61800 0.81190 
-1.07275 2.61800 0.81190 
-1.03284 2.94000 0.91176 
-0.97977 3.08200 0.95580 
-0.91193 3.35300 1.03984 
-0.84761 3.26700 1.01317 
-0.78644 3.18500 0.98774 
-0.77314 3.18500 0.98774 
-0.60187 3.05800 0.94835 
-0.56037 3.18500 0.98774 
-0.35349 3.23900 1.00449 
-0.05368 3.10700 0.96355 
0.17250 3.21200 0.99611 
0.23366 3.13300 0.97161 
0.24674 3.13300 0.97161 
0.37231 2.98600 0.92602 
0.38514 2.89500 0.89780 
0.39723 2.89500 0.89780 
0.45435 2.87400 0.89129 
0.52222 2.91800 0.90494 
0.62878 3.08200 0.95580 
1.44281 5.97200 1.85205 
1.75439 6.47800 2.00897 
2.09750 6.37000 1.97548 
2.28001 6.59000 2.04370 
2.30752 6.59000 2.04370 
2.61019 6.59000 2.04370 
2.27066 5.23600 1.62380 
2.35996 4.96400 1.53945 
2.37046 4.90000 1.51960 
2.39092 4.90000 1.51960 
2.48432 4.96400 1.53945 
2.95711 5.53900 1.71777 
2.98423 4.90000 1.51960 
2.96667 4.83800 1.50037 
3.43218 5.30800 1.64613 
3.45434 5.30800 1.64613 
3.52083 5.30800 1.64613 
3.54300 5.30800 1.64613 
3.51224 5.16500 1.60178 
3.12084 3.32400 1.03085 
2.81902 2.96300 0.91889 
2.67378 2.75000 0.85284 
2.68853 2.73000 0.84663 
-1.44253 1.67600 0.51277 
-1.41083 1.71400 0.52439 
-1.39430 1.72900 0.52898 
-1.36432 1.79400 0.54887 
-1.36212 1.81100 0.55407 
-1.35755 1.91100 0.58466 
-1.35663 1.92100 0.58772 
-1.32543 1.97000 0.60271 
-1.31721 1.97000 0.60271 
-1.29616 2.00100 0.61220 
-1.28780 2.00100 0.61220 
-1.28648 2.01200 0.61556 
-1.18744 2.08900 0.63912 
-1.20296 2.19700 0.67216 
-1.26819 2.38900 0.73091 
-1.26574 2.48200 0.75936 
-1.16291 2.41900 0.74008 
-1.10621 2.45000 0.74957 
-1.08957 2.48200 0.75936 
-1.08616 2.49800 0.76425 
-1.05811 2.63600 0.80648 
-1.05065 2.67300 0.81780 
-1.03885 2.73000 0.83523 
-1.03365 2.87400 0.87929 
-1.02912 2.89500 0.88572 
-1.03653 2.98600 0.91356 
-0.98952 3.03300 0.92794 
-0.97977 3.08200 0.94293 
-0.88854 3.26700 0.99953 
-0.67293 3.03300 0.92794 
-0.63494 3.03300 0.92794 
-0.58910 3.05800 0.93558 
-0.58085 3.08200 0.94293 
-0.56430 3.13300 0.95853 
-0.33429 3.18500 0.97444 
-0.29440 3.18500 0.97444 
-0.11953 3.13300 0.95853 
-0.09260 3.10700 0.95058 
-0.01476 3.10700 0.95058 
0.03744 3.13300 0.95853 
0.11886 3.21200 0.98270 
0.14568 3.21200 0.98270 
0.22058 3.13300 0.95853 
0.30956 3.10700 0.95058 
0.32254 3.10700 0.95058 
0.37231 2.98600 0.91356 
0.42140 2.89500 0.88572 
0.49785 2.91800 0.89275 
0.68017 3.26700 0.99953 
1.31507 5.53900 1.69464 
1.90628 6.26600 1.91706 
1.98477 6.26600 1.91706 
2.03710 6.26600 1.91706 
2.49009 5.97200 1.82711 
2.35580 5.53900 1.69464 
2.29252 5.23600 1.60194 
2.30687 5.02900 1.53861 
2.38069 4.96400 1.51872 
3.02436 5.62100 1.71973 
3.53866 5.23600 1.60194 
3.43434 4.90000 1.49914 
3.30575 4.66100 1.42602 
3.11717 4.29400 1.31374 
3.10079 4.24700 1.29936 
3.31114 3.64000 1.11365 
3.27911 3.57200 1.09284 
2.99033 3.18500 0.97444 
2.90650 3.08200 0.94293 
2.70525 2.83100 0.86613 
2.77419 2.77000 0.84747 
-1.45130 1.66200 0.50154 
-1.42686 1.69900 0.51271 
-1.36569 1.78600 0.53896 
-1.36129 1.82000 0.54922 
-1.36039 1.82900 0.55194 
-1.33640 1.95000 0.58845 
-1.27599 2.02200 0.61018 
-1.24337 2.06600 0.62346 
-1.19796 2.07700 0.62678 
-1.21665 2.22200 0.67054 
-1.28619 2.40400 0.72546 
-1.28411 2.41900 0.72998 
-1.25538 2.48200 0.74900 
-1.20610 2.46600 0.74417 
-1.16759 2.45000 0.73934 
-1.09284 2.46600 0.74417 
-1.02745 2.73000 0.82384 
-1.03284 2.94000 0.88721 
-0.98952 3.03300 0.91527 
-0.97215 3.05800 0.92282 
-0.95404 3.08200 0.93006 
-0.79977 3.13300 0.94545 
-0.64760 3.03300 0.91527 
-0.62227 3.03300 0.91527 
-0.53814 3.13300 0.94545 
-0.33429 3.18500 0.96114 
-0.22418 3.13300 0.94545 
-0.18648 3.15900 0.95330 
-0.06611 3.08200 0.93006 
0.26847 3.08200 0.93006 
0.37518 3.00900 0.90803 
0.44235 2.87400 0.86729 
0.45767 2.89500 0.87363 
0.49785 2.91800 0.88057 
0.60612 3.03300 0.91527 
0.80359 3.71100 1.11987 
1.67325 6.47800 1.95487 
1.75721 6.59000 1.98867 
1.93244 6.26600 1.89090 
2.63771 6.59000 1.98867 
2.66523 6.59000 1.98867 
2.49009 5.97200 1.80218 
2.43880 5.79100 1.74756 
2.39068 5.62100 1.69626 
2.81162 5.30800 1.60180 
2.98024 5.53900 1.67151 
3.36282 5.97200 1.80218 
3.23189 5.16500 1.55865 
3.52563 5.38300 1.62444 
3.53866 5.23600 1.58007 
3.50788 5.09600 1.53783 
3.30575 4.66100 1.40656 
3.13461 4.34300 1.31059 
2.81396 3.74700 1.13074 
3.07807 3.35300 1.01184 
3.06532 3.32400 1.00309 
3.01399 3.23900 0.97744 
2.67713 2.73000 0.82384 
2.73119 2.75000 0.82987 
-1.45883 1.64700 0.49014 
-1.45901 1.65500 0.49252 
-1.45130 1.66200 0.49460 
-1.43426 1.69100 0.50323 
-1.36974 1.75300 0.52169 
-1.35529 1.86400 0.55472 
-1.35474 1.87400 0.55769 
-1.33765 1.94000 0.57734 
-1.32826 1.95000 0.58031 
-1.23089 2.24800 0.66900 
-1.08616 2.49800 0.74339 
-1.06538 2.60000 0.77375 
-1.04711 2.63600 0.78446 
-1.02350 2.75000 0.81839 
-1.02912 2.89500 0.86154 
-1.02322 3.05800 0.91005 
-1.00219 3.03300 0.90261 
-0.94661 3.05800 0.91005 
-0.92830 3.08200 0.91719 
-0.91943 3.18500 0.94784 
-0.87235 3.15900 0.94011 
-0.85916 3.15900 0.94011 
-0.83901 3.13300 0.93237 
-0.74814 3.08200 0.91719 
-0.70401 3.05800 0.91005 
-0.58085 3.08200 0.91719 
-0.33429 3.18500 0.94784 
-0.24827 3.10700 0.92463 
-0.17043 3.10700 0.92463 
-0.05325 3.08200 0.91719 
0.05094 3.15900 0.94011 
0.09126 3.18500 0.94784 
0.24273 3.08200 0.91719 
0.31994 3.08200 0.91719 
0.38478 2.98600 0.88862 
0.40340 2.94000 0.87493 
0.62878 3.08200 0.91719 
1.61915 6.47800 1.92783 
1.75988 6.70500 1.99538 
1.93244 6.26600 1.86474 
2.28001 6.59000 1.96116 
2.34779 6.70500 1.99538 
2.54929 6.94900 2.06799 
2.52970 6.06700 1.80551 
2.47628 5.88000 1.74986 
2.36780 5.46000 1.62487 
2.35688 5.38300 1.60196 
2.33624 5.23600 1.55821 
2.35810 5.23600 1.55821 
2.98024 5.53900 1.64838 
3.33789 5.97200 1.77724 
3.21073 5.23600 1.55821 
3.52563 5.38300 1.60196 
3.59306 5.38300 1.60196 
3.50788 5.09600 1.51655 
3.36878 4.77800 1.42191 
2.83496 3.03300 0.90261 
2.63933 2.75000 0.81839 
2.64294 2.73000 0.81244 
2.64718 2.71100 0.80678 
2.65850 2.71100 0.80678 
-1.47586 1.61300 0.47329 
-1.37899 1.73700 0.50967 
-1.37806 1.74500 0.51202 
-1.35115 1.90200 0.55809 
-1.31870 1.96000 0.57510 
-1.31721 1.97000 0.57804 
-1.28293 2.03300 0.59652 
-1.27107 2.05500 0.60298 
-1.20248 2.14700 0.62997 
-1.30224 2.43400 0.71419 
-1.28433 2.49800 0.73296 
-1.15462 2.46600 0.72357 
-1.02674 2.79000 0.81864 
-1.03729 2.91800 0.85620 
-0.90442 3.13300 0.91929 
-0.79962 3.08200 0.90432 
-0.69124 3.05800 0.89728 
-0.54225 3.08200 0.90432 
-0.49475 3.10700 0.91166 
-0.34759 3.18500 0.93454 
-0.20767 3.08200 0.90432 
-0.00179 3.10700 0.91166 
0.01119 3.10700 0.91166 
0.07796 3.18500 0.93454 
0.11886 3.21200 0.94247 
0.19603 3.15900 0.92692 
0.20922 3.15900 0.92692 
0.23172 3.10700 0.91166 
0.24470 3.10700 0.91166 
0.28133 3.08200 0.90432 
0.39419 2.96300 0.86940 
0.40340 2.94000 0.86266 
0.43694 2.91800 0.85620 
0.44558 2.89500 0.84945 
0.67434 3.23900 0.95039 
1.59211 6.47800 1.90078 
1.70389 6.70500 1.96739 
1.81587 6.70500 1.96739 
1.88473 6.37000 1.86909 
1.90628 6.26600 1.83857 
2.18716 6.47800 1.90078 
2.54929 6.94900 2.03898 
2.69436 6.94900 2.03898 
2.60285 6.37000 1.86909 
2.40206 5.53900 1.62526 
2.39059 5.46000 1.60208 
2.40183 5.38300 1.57948 
2.42431 5.38300 1.57948 
2.51421 5.38300 1.57948 
2.38141 4.71900 1.38465 
2.45109 4.77800 1.40196 
2.50207 4.83800 1.41957 
3.16418 5.79100 1.69920 
3.39099 6.06700 1.78018 
3.35540 5.70500 1.67396 
3.27704 5.30800 1.55748 
3.57606 5.46000 1.60208 
2.98360 4.11000 1.20596 
2.68853 2.73000 0.80104 
-1.48957 1.60600 0.46453 
-1.44253 1.67600 0.48477 
-1.41849 1.70600 0.49345 
-1.41083 1.71400 0.49577 
-1.41022 1.72200 0.49808 
-1.37899 1.73700 0.50242 
-1.36863 1.76100 0.50936 
-1.36747 1.76900 0.51167 
-1.35456 1.81100 0.52382 
-1.35173 1.83800 0.53163 
-1.34405 1.89200 0.54725 
-1.30631 1.99100 0.57589 
-1.29616 2.00100 0.57878 
-1.28293 2.03300 0.58804 
-1.26063 2.06600 0.59758 
-1.21123 2.10000 0.60741 
-1.31936 2.46600 0.71328 
-1.30719 2.48200 0.71791 
-1.06535 2.54800 0.73700 
-1.02903 2.61800 0.75724 
-1.04018 3.03300 0.87728 
-0.92107 3.05800 0.88451 
-0.85799 3.10700 0.89868 
-0.84502 3.10700 0.89868 
-0.83205 3.10700 0.89868 
-0.79962 3.08200 0.89145 
-0.66026 3.03300 0.87728 
-0.60187 3.05800 0.88451 
-0.58556 3.10700 0.89868 
-0.52938 3.08200 0.89145 
-0.50773 3.10700 0.89868 
-0.49475 3.10700 0.89868 
-0.35795 3.15900 0.91373 
-0.23340 3.08200 0.89145 
-0.22054 3.08200 0.89145 
-0.14333 3.08200 0.89145 
-0.11854 3.10700 0.89868 
-0.10557 3.10700 0.89868 
0.06413 3.15900 0.91373 
0.07796 3.18500 0.92125 
0.23172 3.10700 0.89868 
0.25767 3.10700 0.89868 
0.34568 3.08200 0.89145 
0.38774 3.00900 0.87034 
0.40656 2.96300 0.85703 
0.42795 2.94000 0.85038 
0.54265 2.96300 0.85703 
1.93244 6.26600 1.81241 
2.01093 6.26600 1.81241 
2.09750 6.37000 1.84249 
2.12410 6.37000 1.84249 
2.52027 6.94900 2.00997 
2.71482 7.07800 2.04728 
2.68374 6.70500 1.93939 
2.66523 6.59000 1.90613 
2.62944 6.37000 1.84249 
2.45022 5.70500 1.65014 
2.37160 4.66100 1.34817 
2.42082 4.71900 1.36495 
2.52227 4.83800 1.39937 
3.09337 5.70500 1.65014 
3.59886 5.46000 1.57928 
3.57058 5.38300 1.55701 
3.39088 4.83800 1.39937 
2.70597 2.89500 0.83736 
2.62785 2.75000 0.79542 
2.61322 2.71100 0.78414 
2.65850 2.71100 0.78414 
-1.46689 1.63300 0.46552 
-1.45901 1.65500 0.47179 
-1.45210 1.65500 0.47179 
-1.45130 1.66200 0.47379 
-1.43553 1.67600 0.47778 
-1.42561 1.70600 0.48633 
-1.41849 1.70600 0.48633 
-1.41137 1.70600 0.48633 
-1.39584 1.72200 0.49089 
-1.35338 1.88300 0.53679 
-1.34059 1.92100 0.54762 
-1.26249 2.05500 0.58582 
-1.26063 2.06600 0.58895 
-1.25200 2.06600 0.58895 
-1.21358 2.13500 0.60862 
-1.30432 2.41900 0.68958 
-1.25304 2.49800 0.71210 
-1.25107 2.51500 0.71695 
-1.18551 2.46600 0.70298 
-1.13102 2.48200 0.70754 
-1.12066 2.48200 0.70754 
-1.10702 2.49800 0.71210 
-1.09659 2.49800 0.71210 
-1.06881 2.53100 0.72151 
-1.02745 2.73000 0.77824 
-1.04511 2.94000 0.83811 
-1.04092 2.96300 0.84466 
-1.01045 3.05800 0.87174 
-0.95938 3.05800 0.87174 
-0.94661 3.05800 0.87174 
-0.88394 3.10700 0.88571 
-0.85799 3.10700 0.88571 
-0.71786 3.00900 0.85777 
-0.71092 3.03300 0.86462 
-0.65806 3.08200 0.87859 
-0.50773 3.10700 0.88571 
