ply
format ascii 1.0
comment pointcloud saved from Realsense Viewer
element vertex 1802
property float32 x
property float32 y
property float32 z
end_header
-0.81188 2.94000 -0.35262 
-0.73901 2.89500 -0.34723 
-0.61463 3.05800 -0.36678 
-0.55453 3.00900 -0.36090 
-0.48044 2.94000 -0.35262 
-0.42562 2.98600 -0.35814 
-0.40377 3.00900 -0.36090 
-0.39757 3.05800 -0.36678 
-0.27422 3.10700 -0.37265 
-0.19328 3.05800 -0.36678 
-0.18051 3.05800 -0.36678 
-0.16637 3.03300 -0.36378 
-0.14105 3.03300 -0.36378 
-0.00172 2.98600 -0.35814 
0.04778 2.96300 -0.35538 
0.05969 2.94000 -0.35262 
0.07196 2.94000 -0.35262 
0.30291 2.91800 -0.34998 
0.40340 2.94000 -0.35262 
0.42795 2.94000 -0.35262 
0.45604 2.96300 -0.35538 
0.60672 3.23900 -0.38849 
2.04211 8.30900 -0.99658 
2.22152 8.88800 -1.06602 
2.14175 6.26600 -0.75154 
4.27964 10.92000 -1.30974 
4.98628 12.32900 -1.47874 
5.55015 13.17900 -1.58069 
5.47166 12.74000 -1.52803 
5.21611 11.58200 -1.38914 
5.48496 11.24100 -1.34824 
5.31347 10.61700 -1.27340 
5.20169 10.05800 -1.20635 
5.19102 9.80000 -1.17541 
3.85291 6.37000 -0.76402 
3.90610 6.37000 -0.76402 
3.93270 6.37000 -0.76402 
3.61553 5.38300 -0.64564 
3.45148 4.83800 -0.58027 
3.36413 4.66100 -0.55904 
3.36217 4.60500 -0.55232 
3.28173 4.44400 -0.53301 
2.87334 3.78400 -0.45385 
3.17419 3.67500 -0.44078 
-1.43593 1.60600 -0.19933 
-1.43742 1.66200 -0.20628 
-1.43553 1.67600 -0.20802 
-1.43426 1.69100 -0.20988 
-1.41741 1.72200 -0.21373 
-1.40075 1.73700 -0.21559 
-1.39901 1.75300 -0.21757 
-1.39169 1.82000 -0.22589 
-1.38642 1.86400 -0.23135 
-1.37005 1.94000 -0.24078 
-1.36083 1.95000 -0.24203 
-1.34325 1.96000 -0.24327 
-1.34188 1.97000 -0.24451 
-1.32293 1.99100 -0.24711 
-1.29254 2.20900 -0.27417 
-1.29522 2.26200 -0.28075 
-1.27633 2.33100 -0.28931 
-1.23110 2.43400 -0.30210 
-1.18724 2.65400 -0.32940 
-1.18457 2.67300 -0.33176 
-1.18175 2.69200 -0.33412 
-1.16973 2.77000 -0.34380 
-1.16003 2.83100 -0.35137 
-1.15365 2.87400 -0.35671 
-1.11616 3.03300 -0.37644 
-0.95404 3.08200 -0.38252 
-0.91354 3.03300 -0.37644 
-0.68040 2.85200 -0.35398 
-0.59868 2.91800 -0.36217 
-0.54561 2.89500 -0.35931 
-0.46263 2.83100 -0.35137 
-0.35351 3.00900 -0.37346 
-0.34367 3.03300 -0.37644 
-0.32096 3.05800 -0.37954 
-0.25712 3.05800 -0.37954 
-0.22969 3.03300 -0.37644 
-0.21703 3.03300 -0.37644 
-0.07711 3.00900 -0.37346 
-0.05159 2.98600 -0.37061 
-0.00170 2.96300 -0.36775 
0.01067 2.96300 -0.36775 
0.04706 2.91800 -0.36217 
0.25035 2.87400 -0.35671 
0.26426 2.89500 -0.35931 
0.27635 2.89500 -0.35931 
0.30291 2.91800 -0.36217 
0.32728 2.91800 -0.36217 
0.34203 2.94000 -0.36490 
0.78780 3.78400 -0.46965 
2.36892 9.32200 -1.15700 
2.71134 10.33000 -1.28211 
2.92700 10.33000 -1.28211 
2.59263 8.88800 -1.10314 
2.24858 7.49400 -0.93012 
2.07634 6.82500 -0.84709 
2.14175 6.26600 -0.77771 
3.73184 10.05800 -1.24835 
4.23405 10.92000 -1.35534 
5.36528 12.74000 -1.58123 
5.15641 11.24100 -1.39518 
5.34236 10.33000 -1.28211 
4.96771 8.88800 -1.10314 
3.98589 6.37000 -0.79061 
4.06568 6.37000 -0.79061 
3.98632 6.16500 -0.76517 
3.91140 5.97200 -0.74122 
3.80799 5.70500 -0.70808 
3.47919 4.96400 -0.61611 
3.45480 4.90000 -0.60816 
3.47526 4.90000 -0.60816 
3.45148 4.83800 -0.60047 
2.63869 3.38200 -0.41976 
2.70007 3.35300 -0.41616 
2.76578 3.38200 -0.41976 
2.81964 3.41300 -0.42361 
-1.48427 1.58600 -0.20347 
-1.45778 1.58600 -0.20347 
-1.45091 1.59300 -0.20437 
-1.43651 1.66900 -0.21412 
-1.43395 1.69900 -0.21797 
-1.42460 1.72200 -0.22092 
-1.41022 1.72200 -0.22092 
-1.39169 1.82000 -0.23349 
-1.38845 1.84600 -0.23682 
-1.37351 1.91100 -0.24516 
-1.37267 1.92100 -0.24645 
-1.36083 1.95000 -0.25017 
-1.35268 1.95000 -0.25017 
-1.34325 1.96000 -0.25145 
-1.33216 1.98000 -0.25402 
-1.33125 1.99100 -0.25543 
-1.32293 1.99100 -0.25543 
-1.32122 2.00100 -0.25671 
-1.29751 2.11200 -0.27095 
-1.29033 2.15900 -0.27698 
-1.29087 2.22200 -0.28506 
-1.28746 2.31600 -0.29712 
-1.27633 2.33100 -0.29905 
-1.26441 2.34500 -0.30084 
-1.26211 2.35900 -0.30264 
-1.22669 2.46600 -0.31636 
-1.20906 2.51500 -0.32265 
-1.18737 2.58200 -0.33125 
-1.18479 2.60000 -0.33356 
-1.17564 2.73000 -0.35023 
-1.16316 2.81000 -0.36050 
-1.15559 2.94000 -0.37717 
-1.14332 2.94000 -0.37717 
-1.11616 3.03300 -0.38911 
-1.09084 3.03300 -0.38911 
-1.04831 3.13300 -0.40193 
-1.02215 3.13300 -0.40193 
-0.82965 2.87400 -0.36871 
-0.79360 2.83100 -0.36319 
-0.68719 2.69200 -0.34536 
-0.60301 2.77000 -0.35537 
-0.57988 2.77000 -0.35537 
-0.57242 2.79000 -0.35793 
-0.55675 2.77000 -0.35537 
-0.51828 2.75000 -0.35280 
-0.37706 2.81000 -0.36050 
-0.35624 2.83100 -0.36319 
-0.34697 2.85200 -0.36589 
-0.31845 2.91800 -0.37435 
-0.22613 2.98600 -0.38308 
-0.16380 2.98600 -0.38308 
-0.01397 2.94000 -0.37717 
0.11835 2.87400 -0.36871 
0.19035 2.87400 -0.36871 
0.26235 2.87400 -0.36871 
0.28844 2.89500 -0.37140 
0.33947 2.91800 -0.37435 
0.35430 2.94000 -0.37717 
0.39113 2.94000 -0.37717 
0.46842 2.96300 -0.38013 
0.52594 3.00900 -0.38603 
1.01641 4.60500 -0.59078 
1.74215 7.21100 -0.92510 
2.40785 9.32200 -1.19592 
2.68031 9.32200 -1.19592 
2.53371 8.68600 -1.11433 
2.40606 8.13200 -1.04326 
2.20537 7.35000 -0.94294 
1.65851 5.23600 -0.67173 
1.65672 5.09600 -0.65377 
5.19219 12.32900 -1.58169 
5.11939 11.58200 -1.48586 
5.10947 11.24100 -1.44211 
5.31377 9.80000 -1.25725 
5.13243 9.32200 -1.19592 
3.91823 6.47800 -0.83107 
4.06852 6.59000 -0.84543 
4.17858 6.59000 -0.84543 
3.92480 5.88000 -0.75435 
3.52475 5.02900 -0.64517 
3.42570 4.71900 -0.60540 
3.18945 4.24700 -0.54485 
2.78380 3.47500 -0.44581 
-1.47102 1.58600 -0.21009 
-1.45091 1.59300 -0.21102 
-1.40800 1.73700 -0.23009 
-1.40633 1.75300 -0.23221 
-1.40540 1.76100 -0.23327 
-1.40440 1.76900 -0.23433 
-1.39428 1.79400 -0.23764 
-1.39237 1.81100 -0.23990 
-1.38074 1.84600 -0.24453 
-1.37864 1.86400 -0.24692 
-1.37821 1.87400 -0.24824 
-1.37565 1.89200 -0.25063 
-1.36083 1.95000 -0.25831 
-1.31168 2.01200 -0.26652 
-1.30976 2.02200 -0.26785 
-1.29991 2.03300 -0.26930 
-1.30203 2.07700 -0.27513 
-1.29751 2.11200 -0.27977 
-1.28903 2.17200 -0.28772 
-1.29087 2.22200 -0.29434 
-1.27633 2.33100 -0.30878 
-1.26211 2.35900 -0.31249 
-1.23826 2.38900 -0.31646 
-1.21132 2.49800 -0.33090 
-1.17918 2.63600 -0.34918 
-1.16208 2.89500 -0.38349 
-1.15559 2.94000 -0.38945 
-1.13989 2.96300 -0.39250 
-1.05259 3.10700 -0.41157 
-0.90483 2.96300 -0.39250 
-0.71074 2.65400 -0.35156 
-0.58485 2.63600 -0.34918 
-0.35246 2.71100 -0.35912 
-0.27553 2.85200 -0.37779 
-0.22098 2.91800 -0.38654 
-0.01375 2.89500 -0.38349 
-0.00166 2.89500 -0.38349 
0.20235 2.87400 -0.38071 
0.21435 2.87400 -0.38071 
0.32470 2.89500 -0.38349 
0.39113 2.94000 -0.38945 
0.44023 2.94000 -0.38945 
0.52594 3.00900 -0.39859 
0.60990 3.18500 -0.42190 
1.25072 5.46000 -0.72326 
2.58772 9.55500 -1.26571 
2.73591 9.80000 -1.29817 
1.63494 5.02900 -0.66617 
2.10722 6.16500 -0.81665 
3.34199 9.32200 -1.23485 
3.83276 10.33000 -1.36837 
4.78070 11.94400 -1.58217 
4.83057 11.94400 -1.58217 
5.03005 11.94400 -1.58217 
5.07992 11.94400 -1.58217 
5.11939 11.58200 -1.53422 
5.10947 11.24100 -1.48905 
5.37392 10.92000 -1.44653 
5.46511 10.92000 -1.44653 
5.34236 10.33000 -1.36837 
5.32768 10.05800 -1.33234 
5.31377 9.80000 -1.29817 
3.89118 6.47800 -0.85811 
3.98597 6.59000 -0.87295 
4.04101 6.59000 -0.87295 
4.16752 6.70500 -0.88818 
4.29910 6.82500 -0.90408 
4.33549 6.70500 -0.88818 
3.47526 4.90000 -0.64908 
3.44540 4.71900 -0.62511 
3.26155 4.34300 -0.57530 
3.25202 3.74700 -0.49635 
2.97341 3.23900 -0.42906 
-1.44023 1.62600 -0.22218 
-1.43048 1.66200 -0.22710 
-1.41526 1.73700 -0.23735 
-1.40440 1.76900 -0.24172 
-1.40298 1.78600 -0.24404 
-1.38409 1.82000 -0.24869 
-1.38330 1.82900 -0.24992 
-1.38074 1.84600 -0.25224 
-1.37267 1.92100 -0.26249 
-1.36083 1.95000 -0.26645 
-1.34188 1.97000 -0.26918 
-1.29891 2.10000 -0.28695 
-1.29751 2.11200 -0.28859 
-1.29212 2.14700 -0.29337 
-1.28577 2.26200 -0.30908 
-1.25031 2.37400 -0.32439 
-1.19562 2.53100 -0.34584 
-1.18479 2.60000 -0.35527 
-1.18206 2.61800 -0.35773 
-1.15559 2.94000 -0.40173 
-0.91008 2.94000 -0.40173 
-0.64201 2.51500 -0.34365 
-0.61050 2.51500 -0.34365 
-0.56850 2.51500 -0.34365 
-0.55800 2.51500 -0.34365 
-0.50550 2.51500 -0.34365 
-0.47399 2.51500 -0.34365 
-0.42149 2.51500 -0.34365 
-0.39247 2.53100 -0.34584 
-0.28255 2.69200 -0.36784 
-0.24447 2.77000 -0.37850 
-0.23627 2.81000 -0.38396 
-0.20565 2.87400 -0.39271 
-0.19507 2.89500 -0.39558 
-0.15880 2.89500 -0.39558 
0.21435 2.87400 -0.39271 
0.27435 2.87400 -0.39271 
0.28844 2.89500 -0.39558 
0.34888 2.89500 -0.39558 
0.48079 2.96300 -0.40487 
0.77260 3.71100 -0.50708 
1.01641 4.60500 -0.62923 
1.25072 5.46000 -0.74606 
1.94958 7.80000 -1.06580 
2.60246 9.32200 -1.27377 
1.97078 6.47800 -0.88516 
1.63603 5.16500 -0.70575 
2.88142 8.13200 -1.11117 
4.63580 11.58200 -1.58258 
5.02268 11.58200 -1.58258 
5.32768 10.05800 -1.37434 
5.31377 9.80000 -1.33908 
4.13338 7.07800 -0.96715 
4.04262 6.82500 -0.93258 
4.16752 6.70500 -0.91618 
4.27060 6.82500 -0.93258 
3.94935 5.88000 -0.80345 
3.45847 4.96400 -0.67829 
3.36878 4.77800 -0.65287 
3.36659 4.71900 -0.64481 
3.36413 4.66100 -0.63689 
3.37901 4.55000 -0.62172 
2.91088 3.71100 -0.50708 
2.92637 3.71100 -0.50708 
-1.47086 1.59300 -0.22432 
-1.45566 1.61300 -0.22714 
-1.44892 1.61300 -0.22714 
-1.43426 1.69100 -0.23812 
-1.43230 1.71400 -0.24136 
-1.40633 1.75300 -0.24685 
-1.40440 1.76900 -0.24911 
-1.39428 1.79400 -0.25263 
-1.35011 1.97000 -0.27741 
-1.30976 2.02200 -0.28473 
-1.29841 2.04400 -0.28783 
-1.29513 2.06600 -0.29093 
-1.30083 2.08900 -0.29417 
-1.29891 2.10000 -0.29572 
-1.29751 2.11200 -0.29741 
-1.29541 2.12300 -0.29895 
-1.29381 2.13500 -0.30064 
-1.28909 2.23500 -0.31473 
-1.28720 2.24800 -0.31656 
-1.27779 2.31600 -0.32613 
-1.21393 2.48200 -0.34951 
-1.19019 2.63600 -0.37119 
-1.18724 2.65400 -0.37373 
-1.17489 2.81000 -0.39570 
-1.13989 2.96300 -0.41724 
-1.13627 2.98600 -0.42048 
-0.87093 2.85200 -0.40161 
-0.70832 2.56500 -0.36120 
-0.55345 2.40400 -0.33852 
-0.49322 2.40400 -0.33852 
-0.44580 2.41900 -0.34064 
-0.43570 2.41900 -0.34064 
-0.41550 2.41900 -0.34064 
-0.35945 2.45000 -0.34500 
-0.32477 2.49800 -0.35176 
-0.31648 2.51500 -0.35415 
-0.29735 2.53100 -0.35641 
-0.24532 2.65400 -0.37373 
-0.22795 2.71100 -0.38175 
0.04599 2.85200 -0.40161 
0.05790 2.85200 -0.40161 
0.08235 2.87400 -0.40471 
0.15671 2.91800 -0.41090 
0.26426 2.89500 -0.40766 
0.28844 2.89500 -0.40766 
0.37602 2.91800 -0.41090 
0.41568 2.94000 -0.41400 
0.49699 2.98600 -0.42048 
0.54280 3.03300 -0.42710 
0.56005 3.05800 -0.43062 
1.01641 4.60500 -0.64846 
1.67885 6.94900 -0.97853 
1.98215 7.80000 -1.09837 
2.32281 7.96300 -1.12132 
1.84177 5.97200 -0.84096 
1.70667 5.46000 -0.76886 
3.73184 10.05800 -1.41633 
4.32524 10.92000 -1.53772 
4.87760 11.58200 -1.63094 
5.20334 11.24100 -1.58292 
5.19154 10.92000 -1.53772 
5.32833 10.92000 -1.53772 
5.37392 10.92000 -1.53772 
5.31347 10.61700 -1.49505 
5.40213 10.61700 -1.49505 
5.44646 10.61700 -1.49505 
4.26153 7.35000 -1.03500 
4.08706 6.94900 -0.97853 
4.11152 6.70500 -0.94418 
4.13952 6.70500 -0.94418 
4.35609 6.82500 -0.96107 
3.88957 5.79100 -0.81547 
3.71285 5.46000 -0.76886 
3.33965 4.49700 -0.63325 
2.96603 3.82200 -0.53820 
3.15753 3.82200 -0.53820 
3.20475 3.64000 -0.51257 
3.18987 3.60600 -0.50779 
3.17471 3.57200 -0.50300 
-1.47751 1.59300 -0.23097 
-1.46305 1.59900 -0.23184 
-1.46275 1.60600 -0.23286 
-1.43894 1.64000 -0.23779 
-1.42954 1.66900 -0.24199 
-1.41449 1.74500 -0.25301 
-1.40540 1.76100 -0.25533 
-1.37725 1.81100 -0.26258 
-1.37498 1.90200 -0.27578 
-1.34043 1.98000 -0.28708 
-1.33125 1.99100 -0.28868 
-1.31287 2.00100 -0.29013 
-1.30976 2.02200 -0.29317 
-1.29891 2.10000 -0.30448 
-1.29751 2.11200 -0.30622 
-1.28703 2.18400 -0.31666 
-1.29087 2.22200 -0.32217 
-1.28929 2.30200 -0.33377 
-1.26211 2.35900 -0.34204 
-1.22896 2.45000 -0.35523 
-1.19815 2.58200 -0.37437 
-1.16864 2.85200 -0.41352 
-1.15559 2.94000 -0.42628 
-1.05699 3.08200 -0.44687 
-1.01838 3.08200 -0.44687 
-0.61982 2.38900 -0.34639 
-0.54286 2.31600 -0.33580 
-0.53319 2.31600 -0.33580 
-0.48191 2.30200 -0.33377 
-0.36579 2.35900 -0.34204 
-0.32639 2.35900 -0.34204 
-0.32057 2.38900 -0.34639 
-0.18026 2.85200 -0.41352 
-0.16965 2.87400 -0.41671 
-0.15765 2.87400 -0.41671 
-0.06073 2.83100 -0.41047 
0.01019 2.83100 -0.41047 
0.13334 2.94000 -0.42628 
0.14562 2.94000 -0.42628 
0.17017 2.94000 -0.42628 
0.18108 2.91800 -0.42309 
0.40340 2.94000 -0.42628 
0.50946 2.98600 -0.43295 
0.59994 3.13300 -0.45426 
0.85436 4.02300 -0.58330 
1.01641 4.60500 -0.66769 
1.67885 6.94900 -1.00755 
1.77226 7.21100 -1.04554 
2.16838 8.13200 -1.17907 
1.81340 5.88000 -0.85255 
1.70667 5.46000 -0.79166 
1.65594 5.02900 -0.72916 
3.54521 9.55500 -1.38540 
4.46202 10.92000 -1.58331 
5.40213 10.61700 -1.53938 
5.34236 10.33000 -1.49777 
5.27285 9.80000 -1.42092 
5.18093 9.55500 -1.38540 
5.01021 9.10000 -1.31943 
4.85481 8.68600 -1.25940 
4.26153 7.35000 -1.06569 
4.08706 6.94900 -1.00755 
4.11152 6.70500 -0.97217 
4.16752 6.70500 -0.97217 
3.28629 4.66100 -0.67581 
3.26502 4.55000 -0.65971 
3.31884 4.44400 -0.64434 
3.18923 4.20000 -0.60897 
2.98199 3.82200 -0.55416 
2.99795 3.82200 -0.55416 
3.02986 3.82200 -0.55416 
3.07774 3.82200 -0.55416 
3.20587 3.86100 -0.55981 
3.08316 3.64000 -0.52777 
3.08448 3.60600 -0.52284 
3.11459 3.60600 -0.52284 
-1.46913 1.61300 -0.24061 
-1.44643 1.63300 -0.24359 
-1.43209 1.64000 -0.24463 
-1.43132 1.64700 -0.24568 
-1.42177 1.74500 -0.26030 
-1.38679 1.79400 -0.26761 
-1.36803 1.82900 -0.27283 
-1.36911 1.88300 -0.28088 
-1.36775 1.89200 -0.28223 
-1.36299 1.93000 -0.28789 
-1.34188 1.97000 -0.29386 
-1.33125 1.99100 -0.29699 
-1.30328 2.01200 -0.30013 
-1.30132 2.02200 -0.30162 
-1.29682 2.05500 -0.30654 
-1.30083 2.08900 -0.31161 
-1.29891 2.10000 -0.31325 
-1.29541 2.12300 -0.31668 
-1.29381 2.13500 -0.31847 
-1.29212 2.14700 -0.32026 
-1.28703 2.18400 -0.32578 
-1.28552 2.19700 -0.32772 
-1.29087 2.22200 -0.33145 
-1.28909 2.23500 -0.33339 
-1.28606 2.33100 -0.34771 
-1.24371 2.41900 -0.36084 
-1.24126 2.43400 -0.36307 
-1.21640 2.46600 -0.36785 
-1.19815 2.58200 -0.38515 
-1.19019 2.63600 -0.39321 
-1.18175 2.69200 -0.40156 
-1.17185 2.83100 -0.42229 
-1.09084 3.03300 -0.45242 
-1.07817 3.03300 -0.45242 
-0.70613 2.48200 -0.37023 
-0.56175 2.27500 -0.33936 
-0.52692 2.24800 -0.33533 
-0.47721 2.23500 -0.33339 
-0.43989 2.23500 -0.33339 
-0.41429 2.24800 -0.33533 
-0.33377 2.27500 -0.33936 
-0.32427 2.27500 -0.33936 
-0.28359 2.33100 -0.34771 
-0.23370 2.41900 -0.36084 
-0.19535 2.73000 -0.40723 
-0.18799 2.79000 -0.41618 
-0.13365 2.87400 -0.42871 
-0.06073 2.83100 -0.42229 
0.10879 2.94000 -0.43855 
0.18244 2.94000 -0.43855 
0.20699 2.94000 -0.43855 
0.21763 2.91800 -0.43527 
0.32470 2.89500 -0.43184 
0.39113 2.94000 -0.43855 
0.71529 3.50600 -0.52298 
0.78010 3.74700 -0.55893 
1.46151 6.26600 -0.93468 
1.77226 7.21100 -1.07565 
1.97442 7.64400 -1.14023 
2.04729 7.80000 -1.16350 
1.90628 6.26600 -0.93468 
1.81340 5.88000 -0.87710 
1.69928 5.09600 -0.76016 
1.92128 5.62100 -0.83847 
2.85478 7.96300 -1.18782 
3.08025 8.49300 -1.26688 
3.37639 9.10000 -1.35742 
4.96867 11.24100 -1.67679 
5.10947 11.24100 -1.67679 
5.05476 10.92000 -1.62891 
5.09182 10.61700 -1.58371 
4.93060 8.88800 -1.32580 
4.13338 7.07800 -1.05581 
4.08353 6.70500 -1.00017 
4.11152 6.70500 -1.00017 
4.16752 6.70500 -1.00017 
3.41701 4.96400 -0.74047 
3.30209 4.49700 -0.67081 
3.02656 3.90000 -0.58175 
2.99795 3.82200 -0.57012 
3.17349 3.82200 -0.57012 
3.01239 3.53900 -0.52790 
3.02640 3.26700 -0.48733 
3.04004 3.26700 -0.48733 
3.08161 3.23900 -0.48315 
3.06933 3.21200 -0.47913 
-1.46913 1.61300 -0.24734 
-1.46874 1.62000 -0.24842 
-1.43535 1.68400 -0.25823 
-1.43039 1.72900 -0.26513 
-1.36803 1.82900 -0.28046 
-1.36533 1.84600 -0.28307 
-1.37039 1.87400 -0.28736 
-1.33125 1.99100 -0.30531 
-1.32293 1.99100 -0.30531 
-1.31287 2.00100 -0.30684 
-1.29991 2.03300 -0.31175 
-1.29751 2.11200 -0.32386 
-1.29033 2.15900 -0.33107 
-1.29316 2.27500 -0.34886 
-1.29580 2.33100 -0.35744 
-1.29379 2.34500 -0.35959 
-1.25821 2.38900 -0.36634 
-1.17818 2.79000 -0.42783 
-1.16208 2.89500 -0.44393 
-1.12380 2.98600 -0.45788 
-1.06551 3.03300 -0.46509 
-0.76187 2.56500 -0.39332 
-0.64370 2.33100 -0.35744 
-0.58324 2.24800 -0.34471 
-0.56120 2.23500 -0.34272 
-0.46910 2.19700 -0.33689 
-0.45075 2.19700 -0.33689 
-0.40489 2.19700 -0.33689 
-0.30744 2.22200 -0.34073 
-0.29058 2.23500 -0.34272 
-0.26575 2.26200 -0.34686 
-0.22374 2.31600 -0.35514 
-0.08437 2.83100 -0.43411 
-0.02527 2.83100 -0.43411 
0.02218 2.85200 -0.43733 
0.04635 2.87400 -0.44071 
0.07086 2.89500 -0.44393 
0.41893 2.96300 -0.45435 
0.60492 3.15900 -0.48441 
0.62848 3.21200 -0.49254 
0.72202 3.53900 -0.54268 
1.93568 7.49400 -1.14915 
2.00634 7.64400 -1.17215 
1.61417 5.09600 -0.78143 
2.23049 6.37000 -0.97679 
3.74469 9.55500 -1.46519 
3.88162 9.80000 -1.50276 
4.42687 10.61700 -1.62804 
4.64440 10.92000 -1.67450 
5.15010 9.80000 -1.50276 
4.78227 8.68600 -1.33193 
3.80799 5.70500 -0.87482 
3.66725 5.46000 -0.83725 
3.33028 4.83800 -0.74187 
3.22573 4.39300 -0.67363 
3.18945 4.24700 -0.65125 
3.12089 4.11000 -0.63024 
3.05618 3.98100 -0.61046 
3.15751 3.86100 -0.59206 
3.12614 3.78400 -0.58025 
3.01868 3.15900 -0.48441 
-1.48957 1.60600 -0.25297 
-1.45263 1.64000 -0.25833 
-1.42460 1.72200 -0.27125 
-1.38185 1.77800 -0.28007 
-1.36708 1.83800 -0.28952 
-1.36533 1.84600 -0.29078 
-1.36775 1.89200 -0.29802 
-1.33366 1.97000 -0.31031 
-1.30328 2.01200 -0.31693 
-1.29991 2.03300 -0.32023 
-1.29841 2.04400 -0.32197 
-1.29751 2.11200 -0.33268 
-1.27996 2.17200 -0.34213 
-1.28332 2.20900 -0.34796 
-1.28159 2.22200 -0.35001 
-1.28181 2.35900 -0.37159 
-1.26611 2.40400 -0.37867 
-1.25143 2.43400 -0.38340 
-1.24729 2.46600 -0.38844 
-1.23699 2.46600 -0.38844 
-1.19832 2.65400 -0.41805 
-1.17878 2.71100 -0.42703 
-1.15913 2.91800 -0.45964 
-1.12380 2.98600 -0.47035 
-1.04412 3.08200 -0.48547 
-0.77258 2.56500 -0.40403 
-0.59853 2.23500 -0.35205 
-0.52104 2.18400 -0.34402 
-0.48190 2.17200 -0.34213 
-0.43656 2.17200 -0.34213 
-0.42073 2.18400 -0.34402 
-0.37513 2.18400 -0.34402 
-0.33150 2.19700 -0.34607 
-0.25030 2.20900 -0.34796 
-0.23185 2.20900 -0.34796 
-0.21278 2.30200 -0.36261 
-0.18991 2.65400 -0.41805 
-0.16835 2.85200 -0.44924 
-0.13365 2.87400 -0.45271 
-0.01345 2.83100 -0.44593 
0.03435 2.87400 -0.45271 
0.17416 3.00900 -0.47397 
0.19776 2.98600 -0.47035 
0.21023 2.98600 -0.47035 
0.47948 3.03300 -0.47775 
0.96232 4.44400 -0.70001 
1.90439 7.49400 -1.18044 
2.23629 8.13200 -1.28094 
2.28956 7.96300 -1.25432 
1.81340 5.88000 -0.92621 
1.68260 5.38300 -0.84792 
1.53416 4.71900 -0.74333 
1.59305 4.83800 -0.76207 
4.35034 10.33000 -1.62716 
4.55986 10.61700 -1.67237 
4.87017 10.61700 -1.67237 
4.90772 10.05800 -1.58432 
4.94972 10.05800 -1.58432 
5.11770 10.05800 -1.58432 
4.26153 7.35000 -1.15776 
4.08706 6.94900 -1.09459 
4.02754 6.70500 -1.05616 
4.05553 6.70500 -1.05616 
4.04101 6.59000 -1.03804 
4.06568 6.37000 -1.00339 
3.44405 5.09600 -0.80271 
3.20751 4.44400 -0.70001 
3.18904 4.39300 -0.69198 
3.20739 4.39300 -0.69198 
3.02656 3.90000 -0.61432 
3.04285 3.90000 -0.61432 
3.09302 3.86100 -0.60818 
3.08132 3.71100 -0.58455 
2.99574 3.57200 -0.56265 
3.01693 3.44300 -0.54233 
2.94863 3.21200 -0.50595 
3.02751 3.23900 -0.51020 
-1.48957 1.60600 -0.25968 
-1.45948 1.64000 -0.26518 
-1.45263 1.64000 -0.26518 
-1.45195 1.64700 -0.26631 
-1.43651 1.66900 -0.26987 
-1.37485 1.76900 -0.28604 
-1.36424 1.85500 -0.29994 
-1.36307 1.86400 -0.30140 
-1.36083 1.95000 -0.31530 
-1.32293 1.99100 -0.32193 
-1.29991 2.03300 -0.32872 
-1.28929 2.30200 -0.37222 
-1.25758 2.46600 -0.39874 
-1.24729 2.46600 -0.39874 
-1.21429 2.54800 -0.41200 
-1.17489 2.81000 -0.45436 
-1.13989 2.96300 -0.47910 
-1.13627 2.98600 -0.48282 
-1.12380 2.98600 -0.48282 
-1.10350 3.03300 -0.49042 
-1.07817 3.03300 -0.49042 
-0.93241 2.89500 -0.46810 
-0.73246 2.46600 -0.39874 
-0.70401 2.40400 -0.38871 
-0.47283 2.17200 -0.35120 
-0.40028 2.17200 -0.35120 
-0.39121 2.17200 -0.35120 
-0.38214 2.17200 -0.35120 
-0.28238 2.17200 -0.35120 
-0.23704 2.17200 -0.35120 
-0.18395 2.73000 -0.44142 
-0.13463 2.89500 -0.46810 
-0.01355 2.85200 -0.46115 
0.03435 2.87400 -0.46471 
0.04669 2.89500 -0.46810 
0.08490 2.96300 -0.47910 
0.13756 3.03300 -0.49042 
0.19929 3.00900 -0.48654 
0.27855 2.91800 -0.47182 
0.33947 2.91800 -0.47182 
0.38182 2.96300 -0.47910 
0.50897 3.05800 -0.49446 
0.80383 3.86100 -0.62430 
1.90628 6.26600 -1.01317 
1.81340 5.88000 -0.95076 
1.67599 4.96400 -0.80265 
3.44617 8.88800 -1.43713 
3.56637 9.10000 -1.47141 
4.04530 9.80000 -1.58459 
4.78151 10.61700 -1.71670 
4.82478 10.33000 -1.67029 
4.74091 9.80000 -1.58459 
4.82275 9.80000 -1.58459 
4.78197 9.55500 -1.54498 
4.89890 9.32200 -1.50731 
4.70974 8.68600 -1.40447 
4.64055 8.49300 -1.37326 
4.54516 8.13200 -1.31489 
4.18094 7.21100 -1.16597 
4.04101 6.59000 -1.06556 
4.03909 6.37000 -1.02999 
3.17003 4.55000 -0.73571 
3.17066 4.49700 -0.72714 
3.17040 4.44400 -0.71857 
3.09051 3.94000 -0.63707 
3.10696 3.94000 -0.63707 
3.15631 3.94000 -0.63707 
2.92889 3.47500 -0.56188 
2.87359 3.15900 -0.51079 
3.00227 3.21200 -0.51936 
3.00692 3.13300 -0.50659 
-1.48933 1.61300 -0.26755 
-1.48259 1.61300 -0.26755 
-1.45948 1.64000 -0.27203 
-1.45210 1.65500 -0.27451 
-1.43651 1.66900 -0.27684 
-1.40720 1.74500 -0.28944 
-1.38437 1.75300 -0.29077 
-1.36569 1.78600 -0.29624 
-1.36212 1.81100 -0.30039 
-1.36704 1.90200 -0.31548 
-1.36465 1.92100 -0.31863 
-1.33125 1.99100 -0.33025 
-1.28131 2.15900 -0.35811 
-1.29379 2.34500 -0.38896 
-1.24261 2.49800 -0.41434 
-1.22493 2.54800 -0.42263 
-1.21168 2.56500 -0.42545 
-1.20893 2.58200 -0.42827 
-1.19832 2.65400 -0.44022 
-1.18175 2.69200 -0.44652 
-1.17878 2.71100 -0.44967 
-1.09084 3.03300 -0.50308 
-0.89331 2.81000 -0.46609 
-0.63409 2.26200 -0.37520 
-0.61719 2.23500 -0.37072 
-0.55751 2.18400 -0.36226 
-0.54839 2.18400 -0.36226 
-0.49704 2.15900 -0.35811 
-0.31675 2.15900 -0.35811 
-0.30774 2.15900 -0.35811 
-0.26266 2.15900 -0.35811 
-0.25365 2.15900 -0.35811 
-0.18733 2.61800 -0.43424 
-0.14672 2.89500 -0.48019 
-0.07419 2.89500 -0.48019 
-0.00165 2.87400 -0.47671 
0.11223 3.03300 -0.50308 
0.16423 3.05800 -0.50723 
0.19929 3.00900 -0.49910 
0.26837 2.94000 -0.48765 
0.28065 2.94000 -0.48765 
0.31747 2.94000 -0.48765 
0.38478 2.98600 -0.49528 
0.53010 3.10700 -0.51535 
0.64472 3.29500 -0.54654 
1.36800 5.97200 -0.99057 
1.84181 7.49400 -1.24302 
1.97442 7.64400 -1.26790 
2.04729 7.80000 -1.29378 
2.24269 7.80000 -1.29378 
2.09421 7.07800 -1.17402 
2.01184 6.70500 -1.11215 
1.59324 4.77800 -0.79252 
1.74184 5.09600 -0.84527 
3.18698 8.30900 -1.37820 
3.94417 9.55500 -1.58488 
4.65226 10.33000 -1.71342 
4.57175 10.05800 -1.66831 
4.65575 10.05800 -1.66831 
4.60509 8.49300 -1.40872 
4.64055 8.49300 -1.40872 
3.99954 6.70500 -1.11215 
3.95846 6.59000 -1.09307 
3.33411 4.96400 -0.82337 
3.15103 4.55000 -0.75470 
3.15184 4.44400 -0.73712 
3.17088 4.34300 -0.72037 
3.18901 4.34300 -0.72037 
3.17096 4.29400 -0.71224 
3.13662 4.20000 -0.69665 
3.10373 4.11000 -0.68172 
3.07162 4.02300 -0.66729 
3.08942 3.98100 -0.66032 
3.12341 3.94000 -0.65352 
3.10798 3.90000 -0.64689 
3.00717 3.64000 -0.60376 
2.80470 3.29500 -0.54654 
2.88724 3.29500 -0.54654 
2.84405 3.18500 -0.52829 
2.79068 3.08200 -0.51121 
2.83926 3.10700 -0.51535 
2.97911 3.15900 -0.52398 
-1.49628 1.60600 -0.27309 
-1.48933 1.61300 -0.27428 
-1.48903 1.62000 -0.27547 
-1.48226 1.62000 -0.27547 
-1.47550 1.62000 -0.27547 
-1.47370 1.63300 -0.27768 
-1.46633 1.64000 -0.27887 
-1.45901 1.65500 -0.28142 
-1.45210 1.65500 -0.28142 
-1.43651 1.66900 -0.28380 
-1.39263 1.74500 -0.29673 
-1.36212 1.81100 -0.30795 
-1.35910 1.90200 -0.32342 
-1.35755 1.91100 -0.32495 
-1.35385 1.94000 -0.32989 
-1.33216 1.98000 -0.33669 
-1.33125 1.99100 -0.33856 
-1.30976 2.02200 -0.34383 
-1.30132 2.02200 -0.34383 
-1.29991 2.03300 -0.34570 
-1.28316 2.14700 -0.36509 
-1.27635 2.19700 -0.37359 
-1.28366 2.27500 -0.38685 
-1.28619 2.40400 -0.40879 
-1.28191 2.43400 -0.41389 
-1.26788 2.46600 -0.41933 
-1.25538 2.48200 -0.42205 
-1.23789 2.53100 -0.43038 
-1.23310 2.56500 -0.43616 
-1.18130 2.77000 -0.47102 
-1.17185 2.83100 -0.48140 
-1.16208 2.89500 -0.49228 
-1.13989 2.96300 -0.50384 
-1.11989 3.00900 -0.51166 
-1.10350 3.03300 -0.51574 
-1.07817 3.03300 -0.51574 
-1.07429 3.05800 -0.52000 
-0.92565 2.87400 -0.48871 
-0.74276 2.46600 -0.41933 
-0.59752 2.19700 -0.37359 
-0.53631 2.17200 -0.36934 
-0.51818 2.17200 -0.36934 
-0.46099 2.15900 -0.36713 
-0.42749 2.17200 -0.36934 
-0.41842 2.17200 -0.36934 
-0.40028 2.17200 -0.36934 
-0.30603 2.14700 -0.36509 
-0.21225 2.19700 -0.37359 
-0.20440 2.31600 -0.39382 
-0.13570 2.91800 -0.49619 
-0.12351 2.91800 -0.49619 
-0.08696 2.91800 -0.49619 
-0.07478 2.91800 -0.49619 
-0.01375 2.89500 -0.49228 
0.15265 3.08200 -0.52408 
0.16552 3.08200 -0.52408 
0.25810 2.96300 -0.50384 
0.34470 2.96300 -0.50384 
0.35984 2.98600 -0.50775 
0.49118 3.10700 -0.52833 
0.51713 3.10700 -0.52833 
0.53454 3.13300 -0.53275 
0.89195 4.20000 -0.71419 
1.21061 5.38300 -0.91535 
1.53709 6.59000 -1.12059 
1.91059 7.64400 -1.29982 
2.30420 8.13200 -1.38280 
2.24269 7.80000 -1.32634 
2.18600 7.49400 -1.27431 
1.90628 6.26600 -1.06550 
1.53477 4.66100 -0.79258 
1.57357 4.71900 -0.80244 
2.62616 7.07800 -1.20357 
3.36394 8.49300 -1.44418 
3.88691 9.32200 -1.58515 
4.41356 9.80000 -1.66643 
4.38302 9.55500 -1.62477 
4.59225 9.10000 -1.54740 
4.60509 8.49300 -1.44418 
4.51121 8.13200 -1.38280 
3.95846 6.59000 -1.12059 
3.72031 5.79100 -0.98473 
3.28988 4.83800 -0.82267 
3.17040 4.44400 -0.75568 
3.17070 4.39300 -0.74700 
3.05483 4.02300 -0.68409 
3.05618 3.98100 -0.67695 
2.90895 3.53900 -0.60179 
2.73405 3.21200 -0.54618 
2.73766 3.18500 -0.54159 
2.80110 3.21200 -0.54618 
2.78737 3.10700 -0.52833 
2.80355 3.08200 -0.52408 
2.85224 3.10700 -0.52833 
2.91799 2.96300 -0.50384 
-1.45883 1.64700 -0.28694 
-1.43553 1.67600 -0.29199 
-1.40303 1.72200 -0.30001 
-1.39263 1.74500 -0.30401 
-1.37706 1.75300 -0.30541 
-1.36432 1.79400 -0.31255 
-1.35762 1.84600 -0.32161 
-1.35985 1.89200 -0.32962 
-1.35268 1.95000 -0.33973 
-1.33216 1.98000 -0.34495 
-1.30083 2.08900 -0.36394 
-1.28869 2.11200 -0.36795 
-1.27419 2.14700 -0.37405 
-1.27230 2.15900 -0.37614 
-1.29988 2.37400 -0.41360 
-1.29811 2.38900 -0.41621 
-1.23310 2.56500 -0.44687 
-1.21736 2.60000 -0.45297 
-1.16565 2.87400 -0.50071 
-1.13627 2.98600 -0.52022 
-1.12883 3.03300 -0.52841 
-0.70959 2.38900 -0.41621 
-0.57575 2.18400 -0.38050 
-0.45469 2.17200 -0.37841 
-0.35281 2.15900 -0.37614 
-0.27913 2.14700 -0.37405 
-0.25224 2.14700 -0.37405 
-0.22535 2.14700 -0.37405 
-0.19705 2.46600 -0.42963 
-0.14900 2.94000 -0.51221 
-0.13672 2.94000 -0.51221 
-0.02604 2.91800 -0.50837 
0.04741 2.94000 -0.51221 
0.06015 2.96300 -0.51621 
0.09878 3.00900 -0.52423 
0.15146 3.05800 -0.53276 
0.20088 3.03300 -0.52841 
0.21185 3.00900 -0.52423 
0.61196 3.26700 -0.56918 
0.63652 3.32400 -0.57911 
0.70065 3.50600 -0.61081 
1.51530 4.66100 -0.81204 
2.57830 6.94900 -1.21065 
2.84309 7.49400 -1.30560 
3.12077 7.96300 -1.38731 
3.32576 8.30900 -1.44759 
3.66884 8.88800 -1.54846 
3.83234 9.10000 -1.58540 
3.94633 9.10000 -1.58540 
4.27614 9.32200 -1.62407 
4.28829 9.10000 -1.58540 
4.26261 8.88800 -1.54846 
4.41105 8.88800 -1.54846 
4.44816 8.88800 -1.54846 
4.45587 8.68600 -1.51327 
4.47725 8.13200 -1.41675 
4.15083 7.21100 -1.25630 
3.93094 6.59000 -1.14811 
3.94528 6.47800 -1.12859 
3.58155 5.53900 -0.96500 
3.42935 5.23600 -0.91221 
3.40441 5.16500 -0.89984 
3.33577 5.02900 -0.87615 
3.22913 4.77800 -0.83242 
3.20844 4.66100 -0.81204 
3.17003 4.55000 -0.79270 
3.18895 4.44400 -0.77423 
3.18904 4.39300 -0.76535 
3.20715 4.34300 -0.75664 
3.15416 4.20000 -0.73172 
3.03956 3.98100 -0.69357 
3.05618 3.98100 -0.69357 
3.07405 3.94000 -0.68643 
3.05913 3.90000 -0.67946 
2.74967 3.29500 -0.57405 
2.72850 3.15900 -0.55036 
2.77440 3.10700 -0.54130 
2.76895 3.05800 -0.53276 
2.81642 3.08200 -0.53694 
2.82929 3.08200 -0.53694 
2.89116 3.10700 -0.54130 
2.98197 3.10700 -0.54130 
2.94894 3.03300 -0.52841 
2.93036 2.96300 -0.51621 
3.01226 3.03300 -0.52841 
-1.45901 1.65500 -0.29524 
-1.44436 1.66200 -0.29649 
-1.41137 1.70600 -0.30434 
-1.40367 1.71400 -0.30577 
-1.37442 1.77800 -0.31719 
-1.28654 2.12300 -0.37873 
-1.27599 2.13500 -0.38087 
-1.27419 2.14700 -0.38301 
-1.29580 2.33100 -0.41584 
-1.29379 2.34500 -0.41834 
-1.29811 2.38900 -0.42619 
-1.29623 2.40400 -0.42886 
-1.24127 2.58200 -0.46062 
-1.17878 2.71100 -0.48363 
-1.17564 2.73000 -0.48702 
-1.18130 2.77000 -0.49415 
-1.17489 2.81000 -0.50129 
-1.16208 2.89500 -0.51645 
-1.14874 2.98600 -0.53269 
-1.13627 2.98600 -0.53269 
-1.00682 3.00900 -0.53679 
-0.70514 2.37400 -0.42351 
-0.55445 2.17200 -0.38747 
-0.50911 2.17200 -0.38747 
-0.46376 2.17200 -0.38747 
-0.40690 2.15900 -0.38515 
-0.37985 2.15900 -0.38515 
-0.35085 2.14700 -0.38301 
-0.30432 2.13500 -0.38087 
-0.20779 2.24800 -0.40103 
-0.10068 2.96300 -0.52858 
-0.00169 2.94000 -0.52448 
0.12490 3.03300 -0.54107 
0.13756 3.03300 -0.54107 
0.16423 3.05800 -0.54553 
0.17555 3.03300 -0.54107 
0.18821 3.03300 -0.54107 
0.23517 2.98600 -0.53269 
0.29522 2.96300 -0.52858 
0.35284 3.03300 -0.54107 
0.42632 3.10700 -0.55427 
0.44297 3.13300 -0.55891 
0.54341 3.18500 -0.56819 
0.61721 3.29500 -0.58781 
0.75711 3.71100 -0.66202 
0.89195 4.20000 -0.74926 
1.08152 4.90000 -0.87413 
1.90439 7.49400 -1.33689 
2.15471 7.49400 -1.33689 
1.84574 6.06700 -1.08232 
1.51530 4.66100 -0.83150 
1.53477 4.66100 -0.83150 
1.57357 4.71900 -0.84185 
3.05689 7.80000 -1.39148 
3.92861 8.88800 -1.58557 
4.23826 8.68600 -1.54954 
4.17955 8.49300 -1.51511 
4.47063 8.30900 -1.48228 
4.05804 6.94900 -1.23967 
3.93094 6.59000 -1.17562 
3.84233 6.26600 -1.11782 
3.67929 5.88000 -1.04896 
3.55842 5.53900 -0.98813 
3.48068 5.38300 -0.96030 
3.20821 4.49700 -0.80224 
3.08842 4.02300 -0.71768 
3.07405 3.94000 -0.70288 
2.90380 3.60600 -0.64329 
2.81567 3.44300 -0.61421 
2.72064 3.21200 -0.57300 
2.77145 3.13300 -0.55891 
2.77440 3.10700 -0.55427 
2.81642 3.08200 -0.54981 
2.86521 3.10700 -0.55427 
2.87818 3.10700 -0.55427 
2.99230 3.15900 -0.56355 
2.95073 3.00900 -0.53679 
2.96329 3.00900 -0.53679 
-1.50280 1.61300 -0.29449 
-1.49579 1.62000 -0.29576 
-1.48052 1.63300 -0.29814 
-1.48002 1.64000 -0.29942 
-1.44436 1.66200 -0.30343 
-1.43742 1.66200 -0.30343 
-1.42954 1.66900 -0.30471 
-1.39584 1.72200 -0.31439 
-1.36432 1.79400 -0.32753 
-1.35762 1.84600 -0.33703 
-1.35338 1.88300 -0.34378 
-1.35115 1.90200 -0.34725 
-1.34861 1.92100 -0.35072 
-1.32122 2.00100 -0.36532 
-1.30540 2.05500 -0.37518 
-1.28869 2.11200 -0.38559 
-1.27043 2.23500 -0.40804 
-1.28201 2.28900 -0.41790 
-1.29034 2.45000 -0.44730 
-1.27390 2.49800 -0.45606 
-1.25684 2.54800 -0.46519 
-1.19573 2.67300 -0.48801 
-1.19299 2.69200 -0.49148 
-1.17564 2.73000 -0.49842 
-1.14149 3.03300 -0.55374 
-1.12536 3.05800 -0.55830 
-1.00682 3.00900 -0.54935 
-0.92565 2.87400 -0.52471 
-0.88059 2.77000 -0.50572 
-0.75794 2.48200 -0.45314 
-0.58487 2.18400 -0.39873 
-0.54538 2.17200 -0.39654 
-0.49097 2.17200 -0.39654 
-0.45197 2.15900 -0.39417 
-0.44296 2.15900 -0.39417 
-0.43394 2.15900 -0.39417 
-0.42493 2.15900 -0.39417 
-0.40690 2.15900 -0.39417 
-0.37985 2.15900 -0.39417 
-0.20779 2.24800 -0.41042 
-0.10068 2.96300 -0.54096 
-0.00169 2.94000 -0.53676 
0.03514 2.94000 -0.53676 
0.27047 2.96300 -0.54096 
0.30997 2.98600 -0.54515 
0.33749 3.00900 -0.54935 
0.35284 3.03300 -0.55374 
0.39715 3.08200 -0.56268 
0.41002 3.08200 -0.56268 
0.63652 3.32400 -0.60686 
0.97380 4.49700 -0.82102 
1.19374 5.30800 -0.96908 
1.74215 7.21100 -1.31651 
2.02955 7.49400 -1.36818 
2.09213 7.49400 -1.36818 
2.12342 7.49400 -1.36818 
1.78885 5.88000 -1.07351 
1.51446 4.71900 -0.86155 
1.61319 4.77800 -0.87232 
2.02146 5.70500 -1.04156 
3.63799 8.30900 -1.51698 
3.95023 8.30900 -1.51698 
4.01962 8.30900 -1.51698 
4.22777 8.30900 -1.51698 
4.40935 8.13200 -1.48466 
3.90343 6.59000 -1.20314 
3.79000 6.26600 -1.14398 
3.53529 5.53900 -1.01126 
3.26903 4.77800 -0.87232 
3.20803 4.55000 -0.83069 
3.22702 4.55000 -0.83069 
3.20682 4.29400 -0.78396 
3.13695 4.15400 -0.75840 
3.13805 4.11000 -0.75036 
3.09051 3.94000 -0.71933 
3.07541 3.90000 -0.71202 
2.93118 3.64000 -0.66456 
2.86462 3.53900 -0.64612 
2.72436 3.18500 -0.58149 
2.82793 3.21200 -0.58642 
2.79445 3.15900 -0.57674 
2.82629 3.10700 -0.56725 
3.05925 3.13300 -0.57199 
3.02432 3.05800 -0.55830 
-1.50953 1.61300 -0.30122 
-1.48734 1.63300 -0.30496 
-1.45130 1.66200 -0.31037 
-1.43742 1.66200 -0.31037 
-1.43651 1.66900 -0.31168 
-1.42854 1.67600 -0.31299 
-1.40558 1.69900 -0.31728 
-1.40424 1.70600 -0.31859 
-1.38865 1.72200 -0.32158 
-1.38624 1.73700 -0.32438 
-1.36969 1.81100 -0.33820 
-1.36039 1.82900 -0.34156 
-1.35338 1.88300 -0.35164 
-1.35195 1.89200 -0.35332 
-1.34325 1.96000 -0.36602 
-1.30840 2.03300 -0.37965 
-1.29210 2.08900 -0.39011 
-1.27633 2.26200 -0.42242 
-1.28201 2.28900 -0.42746 
-1.29988 2.37400 -0.44333 
-1.21220 2.63600 -0.49226 
-1.20940 2.65400 -0.49562 
-1.20690 2.67300 -0.49917 
-1.16864 2.85200 -0.53260 
-1.16208 2.89500 -0.54063 
-1.00682 3.00900 -0.56192 
-0.88059 2.77000 -0.51729 
-0.75794 2.48200 -0.46350 
-0.67414 2.30200 -0.42989 
-0.59399 2.18400 -0.40785 
-0.57575 2.18400 -0.40785 
-0.44296 2.15900 -0.40318 
-0.41591 2.15900 -0.40318 
-0.33106 2.13500 -0.39870 
-0.31147 2.12300 -0.39646 
-0.20779 2.24800 -0.41980 
-0.16007 2.91800 -0.54492 
-0.08899 2.98600 -0.55762 
-0.03882 2.96300 -0.55333 
0.19776 2.98600 -0.55762 
0.22098 2.96300 -0.55333 
0.24573 2.96300 -0.55333 
0.27047 2.96300 -0.55333 
0.38129 3.05800 -0.57107 
0.42989 3.13300 -0.58507 
0.97380 4.49700 -0.83980 
1.06784 4.83800 -0.90348 
1.95986 7.35000 -1.37258 
1.76177 5.79100 -1.08144 
1.70824 5.53900 -1.03438 
1.61446 5.16500 -0.96454 
1.53477 4.66100 -0.87042 
2.76584 7.21100 -1.34662 
3.25376 7.96300 -1.48705 
3.28701 7.96300 -1.48705 
3.56050 8.13200 -1.51861 
3.90004 8.13200 -1.51861 
4.10376 8.13200 -1.51861 
4.25115 7.49400 -1.39947 
4.20015 7.35000 -1.37258 
3.72891 6.16500 -1.15129 
3.69497 6.06700 -1.13299 
3.60563 5.88000 -1.09806 
3.63018 5.88000 -1.09806 
3.48904 5.53900 -1.03438 
3.36376 5.23600 -0.97780 
3.31477 5.02900 -0.93914 
3.26968 4.83800 -0.90348 
3.28988 4.83800 -0.90348 
3.22573 4.39300 -0.82037 
3.17236 4.06600 -0.75931 
3.12267 3.98100 -0.74343 
2.97286 3.71100 -0.69301 
2.79760 3.23900 -0.60487 
2.82465 3.23900 -0.60487 
2.83075 3.18500 -0.59478 
2.84994 3.13300 -0.58507 
3.00227 3.21200 -0.59983 
3.05456 3.23900 -0.60487 
3.14917 3.26700 -0.61010 
-1.50256 1.62000 -0.30929 
-1.48002 1.64000 -0.31311 
-1.47974 1.65500 -0.31597 
-1.46518 1.66200 -0.31731 
-1.45130 1.66200 -0.31731 
-1.39584 1.72200 -0.32877 
-1.38865 1.72200 -0.32877 
-1.38437 1.75300 -0.33468 
-1.35115 1.90200 -0.36313 
-1.34575 1.94000 -0.37039 
-1.27768 2.12300 -0.40533 
-1.25626 2.14700 -0.40991 
-1.26487 2.20900 -0.42174 
-1.29988 2.37400 -0.45325 
-1.27611 2.48200 -0.47387 
-1.25452 2.56500 -0.48971 
-1.20940 2.65400 -0.50670 
-1.17878 2.71100 -0.51759 
-1.17564 2.73000 -0.52121 
-1.14694 2.91800 -0.55711 
-1.13627 2.98600 -0.57009 
-1.12536 3.05800 -0.58384 
-0.83263 2.65400 -0.50670 
-0.64894 2.24800 -0.42919 
-0.55751 2.18400 -0.41697 
-0.52724 2.17200 -0.41468 
-0.51818 2.17200 -0.41468 
-0.43394 2.15900 -0.41220 
-0.41591 2.15900 -0.41220 
-0.27601 2.12300 -0.40533 
-0.24192 2.13500 -0.40762 
-0.22535 2.14700 -0.40991 
-0.18026 2.85200 -0.54451 
-0.08899 2.98600 -0.57009 
-0.05159 2.98600 -0.57009 
0.01059 2.94000 -0.56131 
0.14676 2.96300 -0.56570 
0.24382 2.94000 -0.56131 
0.27047 2.96300 -0.56570 
0.33749 3.00900 -0.57448 
0.57104 3.26700 -0.62374 
0.69445 3.47500 -0.66345 
0.74262 3.64000 -0.69495 
0.81195 3.90000 -0.74459 
1.30684 5.70500 -1.08920 
1.80236 7.21100 -1.37673 
1.86258 7.21100 -1.37673 
1.98302 7.21100 -1.37673 
1.92785 6.70500 -1.28012 
1.68387 5.46000 -1.04243 
2.05193 5.79100 -1.10562 
2.27256 6.26600 -1.19631 
2.63633 6.94900 -1.32671 
3.28300 7.64400 -1.45940 
3.51284 7.80000 -1.48918 
3.54540 7.80000 -1.48918 
3.68599 7.96300 -1.52030 
4.01848 7.96300 -1.52030 
4.15147 7.96300 -1.52030 
4.28446 7.96300 -1.52030 
4.31771 7.96300 -1.52030 
4.35096 7.96300 -1.52030 
4.16946 7.35000 -1.40327 
3.91555 6.70500 -1.28012 
3.67743 6.16500 -1.17703 
3.64431 6.06700 -1.15832 
3.49832 5.70500 -1.08920 
3.47028 5.62100 -1.07317 
3.44278 5.53900 -1.05751 
3.27382 5.09600 -0.97293 
3.29378 5.02900 -0.96014 
3.31477 5.02900 -0.96014 
3.24680 4.60500 -0.87919 
3.26502 4.55000 -0.86869 
3.22430 4.20000 -0.80187 
3.01554 3.78400 -0.72245 
2.97286 3.71100 -0.70851 
2.80815 3.26700 -0.62374 
2.83543 3.26700 -0.62374 
2.86522 3.23900 -0.61839 
2.85735 3.18500 -0.60808 
2.87065 3.18500 -0.60808 
3.20373 3.26700 -0.62374 
3.20332 3.23900 -0.61839 
-1.50133 1.62600 -0.31723 
-1.47283 1.65500 -0.32288 
-1.43742 1.66200 -0.32425 
-1.40558 1.69900 -0.33147 
-1.39584 1.72200 -0.33596 
-1.37181 1.79400 -0.35000 
-1.34861 1.92100 -0.37478 
-1.34687 1.93000 -0.37654 
-1.34454 1.95000 -0.38044 
-1.33216 1.98000 -0.38629 
-1.33125 1.99100 -0.38844 
-1.31689 2.03300 -0.39663 
-1.30694 2.04400 -0.39878 
-1.29210 2.08900 -0.40756 
-1.26707 2.13500 -0.41653 
-1.29988 2.37400 -0.46316 
-1.23672 2.61800 -0.51076 
-1.19299 2.69200 -0.52520 
-1.17277 2.75000 -0.53652 
-1.16653 2.79000 -0.54432 
-0.55751 2.18400 -0.42609 
-0.54839 2.18400 -0.42609 
-0.50911 2.17200 -0.42375 
-0.02665 2.98600 -0.58256 
0.03514 2.94000 -0.57358 
0.09651 2.94000 -0.57358 
0.38129 3.05800 -0.59660 
0.41335 3.10700 -0.60616 
0.47302 3.15900 -0.61631 
0.55262 3.23900 -0.63192 
0.58468 3.26700 -0.63738 
0.86349 4.06600 -0.79326 
1.57236 4.96400 -0.96846 
2.05193 5.79100 -1.12980 
3.28116 7.49400 -1.46205 
3.31245 7.49400 -1.46205 
3.50641 7.64400 -1.49132 
3.63408 7.64400 -1.49132 
3.82558 7.64400 -1.49132 
3.85749 7.64400 -1.49132 
4.26190 7.80000 -1.52175 
4.29446 7.80000 -1.52175 
4.04472 7.07800 -1.38089 
3.53198 5.88000 -1.14717 
3.31338 4.96400 -0.96846 
3.20739 4.39300 -0.85706 
3.27812 4.24700 -0.82857 
3.10696 3.94000 -0.76868 
2.89134 3.57200 -0.69688 
2.85714 3.32400 -0.64850 
2.92653 3.32400 -0.64850 
2.90363 3.26700 -0.63738 
3.02640 3.26700 -0.63738 
3.20354 3.38200 -0.65982 
3.31882 3.44300 -0.67172 
-1.50780 1.63300 -0.32541 
-1.49454 1.62600 -0.32402 
-1.49416 1.63300 -0.32541 
-1.48634 1.64700 -0.32820 
-1.47283 1.65500 -0.32979 
-1.45824 1.66200 -0.33119 
-1.45130 1.66200 -0.33119 
-1.44436 1.66200 -0.33119 
-1.39350 1.73700 -0.34614 
-1.39263 1.74500 -0.34773 
-1.39169 1.75300 -0.34932 
-1.37649 1.82000 -0.36267 
-1.36124 1.88300 -0.37523 
-1.34957 1.91100 -0.38081 
-1.33216 1.98000 -0.39456 
-1.32849 2.01200 -0.40093 
-1.30540 2.05500 -0.40950 
-1.26487 2.20900 -0.44019 
-1.29811 2.38900 -0.47606 
-1.28847 2.46600 -0.49140 
-1.24993 2.60000 -0.51811 
-1.23672 2.61800 -0.52169 
-1.17564 2.73000 -0.54401 
-1.15365 2.87400 -0.57271 
-1.14694 2.91800 -0.58147 
-1.13627 2.98600 -0.59503 
-0.99913 2.98600 -0.59503 
-0.97146 2.94000 -0.58586 
-0.78348 2.53100 -0.50436 
-0.74817 2.45000 -0.48822 
-0.71957 2.38900 -0.47606 
-0.52724 2.17200 -0.43282 
-0.51818 2.17200 -0.43282 
-0.47902 2.15900 -0.43023 
-0.37774 2.14700 -0.42784 
-0.35981 2.14700 -0.42784 
-0.29222 2.11200 -0.42086 
-0.26715 2.12300 -0.42305 
-0.25828 2.12300 -0.42305 
-0.23431 2.14700 -0.42784 
-0.20202 2.28900 -0.45613 
-0.19210 2.40400 -0.47905 
-0.15880 2.89500 -0.57689 
-0.12445 2.94000 -0.58586 
-0.11305 2.96300 -0.59044 
-0.06405 2.98600 -0.59503 
0.14453 2.91800 -0.58147 
0.16889 2.91800 -0.58147 
0.18108 2.91800 -0.58147 
0.20544 2.91800 -0.58147 
0.37817 3.03300 -0.60439 
0.39406 3.05800 -0.60937 
0.53011 3.18500 -0.63468 
0.78780 3.78400 -0.75404 
0.94045 4.34300 -0.86544 
1.02877 4.66100 -0.92881 
1.83976 6.59000 -1.31320 
1.55334 4.77800 -0.95212 
1.57329 4.77800 -0.95212 
1.61325 4.83800 -0.96408 
1.74184 5.09600 -1.01549 
1.83646 5.30800 -1.05773 
1.93951 5.53900 -1.10377 
2.54376 6.70500 -1.33612 
2.75239 6.94900 -1.38474 
3.15725 7.21100 -1.43695 
3.18736 7.21100 -1.43695 
3.43293 7.35000 -1.46465 
3.80120 7.35000 -1.46465 
4.17666 7.64400 -1.52323 
4.13877 7.35000 -1.46465 
4.09061 7.21100 -1.43695 
3.71992 6.37000 -1.26936 
3.59364 6.06700 -1.20898 
3.50743 5.88000 -1.17172 
3.21032 5.16500 -1.02924 
3.24602 4.55000 -0.90669 
3.22699 4.49700 -0.89612 
3.20682 4.29400 -0.85567 
3.22430 4.20000 -0.83694 
3.00170 3.74700 -0.74667 
2.82227 3.38200 -0.67394 
2.96348 3.38200 -0.67394 
2.97760 3.38200 -0.67394 
2.96979 3.29500 -0.65660 
2.95820 3.26700 -0.65102 
3.27569 3.44300 -0.68609 
3.34757 3.44300 -0.68609 
-1.49416 1.63300 -0.33223 
-1.45824 1.66200 -0.33813 
-1.45130 1.66200 -0.33813 
-1.43048 1.66200 -0.33813 
-1.41454 1.67600 -0.34098 
-1.40020 1.68400 -0.34261 
-1.40424 1.70600 -0.34708 
-1.40303 1.72200 -0.35034 
-1.39701 1.76900 -0.35990 
-1.37198 1.85500 -0.37739 
-1.35985 1.89200 -0.38492 
-1.34957 1.91100 -0.38879 
-1.34861 1.92100 -0.39082 
-1.34325 1.96000 -0.39876 
-1.33216 1.98000 -0.40283 
-1.32009 2.01200 -0.40934 
-1.31820 2.02200 -0.41137 
-1.30203 2.07700 -0.42256 
-1.29014 2.10000 -0.42724 
-1.28654 2.12300 -0.43192 
-1.28847 2.46600 -0.50170 
-1.27207 2.51500 -0.51167 
-1.26959 2.53100 -0.51492 
-1.21220 2.63600 -0.53629 
-1.17564 2.73000 -0.55541 
-1.14482 2.85200 -0.58023 
-1.13104 2.94000 -0.59813 
-1.09084 3.03300 -0.61706 
-1.01159 2.98600 -0.60749 
-0.86183 2.71100 -0.55155 
-0.68791 2.31600 -0.47118 
-0.56663 2.18400 -0.44433 
-0.53631 2.17200 -0.44189 
-0.51818 2.17200 -0.44189 
-0.50606 2.15900 -0.43924 
-0.49704 2.15900 -0.43924 
-0.47902 2.15900 -0.43924 
-0.44050 2.14700 -0.43680 
-0.42257 2.14700 -0.43680 
-0.40464 2.14700 -0.43680 
-0.37774 2.14700 -0.43680 
-0.36672 2.13500 -0.43436 
-0.28340 2.11200 -0.42968 
-0.27458 2.11200 -0.42968 
-0.18476 2.58200 -0.52530 
-0.17893 2.83100 -0.57596 
-0.07652 2.98600 -0.60749 
-0.03912 2.98600 -0.60749 
0.07142 2.91800 -0.59366 
0.08361 2.91800 -0.59366 
0.16889 2.91800 -0.59366 
0.21763 2.91800 -0.59366 
0.35984 2.98600 -0.60749 
0.44862 3.08200 -0.62702 
0.51259 3.15900 -0.64269 
0.59832 3.26700 -0.66466 
0.62560 3.26700 -0.66466 
1.41510 6.06700 -1.23431 
1.61990 6.70500 -1.36411 
1.71341 5.79100 -1.17816 
1.55209 4.90000 -0.99689 
1.55334 4.77800 -0.97207 
1.93951 5.53900 -1.12689 
2.50013 6.59000 -1.34072 
2.59975 6.70500 -1.36411 
2.70327 6.82500 -1.38853 
3.09901 7.07800 -1.44000 
3.15812 7.07800 -1.44000 
3.30779 7.21100 -1.46706 
3.39812 7.21100 -1.46706 
3.42822 7.21100 -1.46706 
3.45833 7.21100 -1.46706 
3.98533 7.35000 -1.49534 
4.01516 7.07800 -1.44000 
3.85956 6.70500 -1.36411 
3.12745 4.90000 -0.99689 
3.16837 4.90000 -0.99689 
3.18943 4.49700 -0.91490 
3.15521 4.11000 -0.83617 
3.10696 3.94000 -0.80158 
3.06078 3.86100 -0.78551 
2.85635 3.47500 -0.70698 
2.88537 3.47500 -0.70698 
2.96214 3.41300 -0.69436 
3.00255 3.44300 -0.70047 
3.01693 3.44300 -0.70047 
3.01996 3.38200 -0.68806 
3.23257 3.44300 -0.70047 
3.32099 3.50600 -0.71329 
3.33563 3.50600 -0.71329 
3.41136 3.53900 -0.72000 
3.44091 3.53900 -0.72000 
-1.48634 1.64700 -0.34195 
-1.47283 1.65500 -0.34362 
-1.43048 1.66200 -0.34507 
-1.40558 1.69900 -0.35275 
-1.40424 1.70600 -0.35420 
-1.40075 1.73700 -0.36064 
-1.36307 1.86400 -0.38701 
-1.34575 1.94000 -0.40279 
-1.31689 2.03300 -0.42210 
-1.31398 2.05500 -0.42666 
-1.30376 2.06600 -0.42895 
-1.30203 2.07700 -0.43123 
-1.28869 2.11200 -0.43850 
-1.28654 2.12300 -0.44078 
-1.17051 2.69200 -0.55892 
-1.09084 3.03300 -0.62972 
-1.07817 3.03300 -0.62972 
-0.93047 2.85200 -0.59214 
-0.73412 2.40400 -0.49912 
-0.68375 2.30200 -0.47795 
-0.58487 2.18400 -0.45345 
-0.56352 2.17200 -0.45096 
-0.50606 2.15900 -0.44826 
-0.46099 2.15900 -0.44826 
-0.44050 2.14700 -0.44577 
-0.43153 2.14700 -0.44577 
-0.40464 2.14700 -0.44577 
-0.39346 2.13500 -0.44327 
-0.30986 2.11200 -0.43850 
-0.26576 2.11200 -0.43850 
-0.18026 2.85200 -0.59214 
-0.12445 2.94000 -0.61041 
-0.06405 2.98600 -0.61996 
0.03487 2.91800 -0.60584 
0.10798 2.91800 -0.60584 
0.25218 2.89500 -0.60107 
0.26426 2.89500 -0.60107 
0.42883 3.03300 -0.62972 
0.46149 3.08200 -0.63989 
0.47821 3.10700 -0.64508 
0.50837 3.13300 -0.65048 
0.52146 3.13300 -0.65048 
0.67587 3.38200 -0.70218 
0.84544 3.98100 -0.82654 
1.72111 6.16500 -1.27999 
1.69065 5.88000 -1.22082 
1.68797 5.70500 -1.18449 
1.55334 4.77800 -0.99202 
1.81155 5.23600 -1.08711 
2.32489 6.26600 -1.30096 
2.45764 6.47800 -1.34498 
2.61019 6.59000 -1.36823 
2.87425 6.82500 -1.41702 
2.95975 6.82500 -1.41702 
3.30589 7.07800 -1.46955 
3.51276 7.07800 -1.46955 
3.54231 7.07800 -1.46955 
3.66053 7.07800 -1.46955 
4.12599 7.49400 -1.55592 
3.98561 7.07800 -1.46955 
3.12488 5.09600 -1.05804 
3.10479 5.02900 -1.04413 
3.38021 5.09600 -1.05804 
3.13329 4.44400 -0.92267 
3.11567 4.39300 -0.91209 
3.06532 4.24700 -0.88177 
3.08492 4.15400 -0.86246 
2.96348 3.38200 -0.70218 
3.00489 3.41300 -0.70862 
2.99731 3.29500 -0.68412 
3.56628 3.60600 -0.74869 
3.61510 3.64000 -0.75575 
-1.53480 1.64000 -0.34735 
-1.48734 1.63300 -0.34587 
-1.47974 1.65500 -0.35053 
-1.46592 1.65500 -0.35053 
-1.42257 1.66900 -0.35349 
-1.41426 1.68400 -0.35667 
-1.40412 1.77800 -0.37658 
-1.40177 1.79400 -0.37997 
-1.38243 1.83800 -0.38928 
-1.36704 1.90200 -0.40284 
-1.35144 1.96000 -0.41512 
-1.31689 2.03300 -0.43059 
-1.27231 2.22200 -0.47061 
-1.29379 2.34500 -0.49667 
-1.26523 2.56500 -0.54326 
-1.25205 2.58200 -0.54686 
-1.22579 2.61800 -0.55449 
-1.16129 2.75000 -0.58244 
-1.15817 2.77000 -0.58668 
-1.15488 2.79000 -0.59092 
-1.12258 2.91800 -0.61803 
-1.08640 2.98600 -0.63243 
-1.08220 3.00900 -0.63730 
-1.06964 3.00900 -0.63730 
-0.57259 2.17200 -0.46003 
-0.50606 2.15900 -0.45727 
-0.40237 2.13500 -0.45219 
-0.34693 2.12300 -0.44965 
-0.25695 2.11200 -0.44732 
-0.24056 2.12300 -0.44965 
-0.23169 2.12300 -0.44965 
-0.21517 2.13500 -0.45219 
-0.20983 2.17200 -0.46003 
-0.18267 2.71100 -0.57418 
-0.07593 2.96300 -0.62756 
-0.06356 2.96300 -0.62756 
0.12016 2.91800 -0.61803 
0.16756 2.89500 -0.61315 
0.33947 2.91800 -0.61803 
1.01641 4.60500 -0.97533 
1.13099 5.02900 -1.06513 
1.56506 6.47800 -1.37203 
1.61963 6.59000 -1.39575 
1.57161 5.09600 -1.07932 
1.57195 5.02900 -1.06513 
1.61325 4.83800 -1.02468 
3.10223 6.82500 -1.44552 
3.27321 6.82500 -1.44552 
3.33020 6.82500 -1.44552 
3.04561 4.90000 -1.03781 
3.08948 4.77800 -1.01197 
3.04546 4.29400 -0.90946 
3.01386 4.20000 -0.88955 
2.99820 4.15400 -0.87981 
3.05760 3.94000 -0.83448 
2.98835 3.71100 -0.78598 
2.92112 3.38200 -0.71630 
2.91932 3.23900 -0.68601 
3.41334 3.57200 -0.75654 
3.47594 3.60600 -0.76374 
3.61917 3.67500 -0.77836 
3.81182 3.82200 -0.80949 
-1.47946 1.64700 -0.35571 
-1.46518 1.66200 -0.35895 
-1.43651 1.66900 -0.36046 
-1.40602 1.69100 -0.36521 
-1.40633 1.75300 -0.37860 
-1.40412 1.77800 -0.38400 
-1.40177 1.79400 -0.38746 
-1.39094 1.82900 -0.39502 
-1.37973 1.85500 -0.40063 
-1.37351 1.91100 -0.41272 
-1.36299 1.93000 -0.41683 
-1.36083 1.95000 -0.42115 
-1.35268 1.95000 -0.42115 
-1.31238 2.06600 -0.44620 
-1.28577 2.26200 -0.48853 
-1.29811 2.38900 -0.51596 
-1.28011 2.45000 -0.52913 
-1.27390 2.49800 -0.53950 
-1.26523 2.56500 -0.55397 
-1.23672 2.61800 -0.56542 
-1.14660 2.77000 -0.59825 
-1.14323 2.79000 -0.60257 
-1.12582 2.89500 -0.62524 
-1.12258 2.91800 -0.63021 
-0.98856 2.91800 -0.63021 
-0.60886 2.17200 -0.46909 
-0.59620 2.15900 -0.46629 
-0.59073 2.17200 -0.46909 
-0.53310 2.15900 -0.46629 
-0.42912 2.13500 -0.46110 
-0.26426 2.10000 -0.45354 
-0.23931 2.11200 -0.45614 
-0.23169 2.12300 -0.45851 
-0.22283 2.12300 -0.45851 
-0.18476 2.58200 -0.55764 
-0.18139 2.69200 -0.58140 
-0.11217 2.94000 -0.63496 
-0.03882 2.96300 -0.63993 
-0.02645 2.96300 -0.63993 
0.07086 2.89500 -0.62524 
0.12016 2.91800 -0.63021 
0.13130 2.89500 -0.62524 
0.21591 2.89500 -0.62524 
0.26426 2.89500 -0.62524 
0.28844 2.89500 -0.62524 
0.39113 2.94000 -0.63496 
0.40656 2.96300 -0.63993 
0.59660 3.18500 -0.68787 
1.37148 5.88000 -1.26992 
1.53897 6.37000 -1.37575 
1.64388 6.16500 -1.33147 
1.55334 4.77800 -1.03192 
1.93464 5.46000 -1.17921 
2.24074 5.97200 -1.28979 
2.45570 6.26600 -1.35329 
2.48186 6.26600 -1.35329 
