ply
format ascii 1.0
comment pointcloud saved from Realsense Viewer
element vertex 1806
property float32 x
property float32 y
property float32 z
end_header
1.75697 2.32500 -1.20109 
1.77435 2.31600 -1.19644 
1.78643 2.31600 -1.19644 
1.79944 2.32500 -1.20109 
1.83686 2.33400 -1.20574 
1.88918 2.31600 -1.19644 
-1.67162 2.16100 -1.12201 
-1.61508 2.17600 -1.12980 
-1.58119 2.19200 -1.13810 
-1.50683 2.19200 -1.13810 
-1.46550 2.21600 -1.15057 
-1.45214 2.24000 -1.16303 
-1.44549 2.25700 -1.17185 
-1.40235 2.27300 -1.18016 
-1.34949 2.32500 -1.20716 
-1.30599 2.33400 -1.21183 
-1.23899 2.33400 -1.21183 
-1.12327 2.33400 -1.21183 
-0.94905 2.32500 -1.20716 
-0.93933 2.31600 -1.20249 
-0.93007 2.30800 -1.19833 
-0.79199 2.08700 -1.08359 
-0.62294 1.96600 -1.02076 
-0.61673 1.97900 -1.02751 
-0.52263 2.26500 -1.17601 
-0.41539 2.36100 -1.22585 
-0.40307 2.36100 -1.22585 
-0.36131 2.37000 -1.23052 
-0.27693 2.38900 -1.24039 
0.09672 2.37900 -1.23520 
0.13245 2.35200 -1.22118 
0.13859 2.35200 -1.22118 
0.24663 2.27300 -1.18016 
0.30259 2.24800 -1.16718 
0.61236 2.06600 -1.07268 
0.71398 2.23200 -1.15887 
0.82864 2.30800 -1.19833 
0.85294 2.32500 -1.20716 
0.99788 2.35200 -1.22118 
1.13469 2.34300 -1.21651 
1.14692 2.34300 -1.21651 
1.20502 2.36100 -1.22585 
1.23582 2.36100 -1.22585 
1.24339 2.35200 -1.22118 
1.24953 2.35200 -1.22118 
1.36157 2.39800 -1.24506 
1.37982 2.40800 -1.25025 
1.68584 2.37000 -1.23052 
1.84295 2.33400 -1.21183 
1.77307 2.15300 -1.11786 
1.65044 1.97900 -1.02751 
-1.69478 2.16900 -1.13182 
-1.62686 2.16900 -1.13182 
-1.60940 2.17600 -1.13548 
-1.59236 2.17600 -1.13548 
-1.55261 2.17600 -1.13548 
-1.48967 2.19200 -1.14383 
-1.39248 2.25700 -1.17774 
-1.37576 2.30800 -1.20436 
-1.36974 2.30800 -1.20436 
-1.34949 2.32500 -1.21323 
-1.25242 2.32500 -1.21323 
-1.18109 2.31600 -1.20853 
-1.10680 2.32500 -1.21323 
-1.02536 2.36100 -1.23201 
-0.69176 1.92900 -1.00659 
-0.62807 1.96600 -1.02589 
-0.61860 1.98500 -1.03581 
-0.60180 1.99800 -1.04259 
-0.53409 1.96000 -1.02276 
-0.49783 2.34300 -1.22262 
-0.43222 2.35200 -1.22732 
-0.28317 2.38900 -1.24662 
-0.14375 2.35200 -1.22732 
0.09599 2.36100 -1.23201 
0.12535 2.33400 -1.21792 
0.24490 2.25700 -1.17774 
0.34454 2.21600 -1.15635 
0.45514 2.03800 -1.06347 
0.46185 1.99800 -1.04259 
0.47864 1.96000 -1.02276 
0.53327 1.95400 -1.01963 
0.57483 1.99200 -1.03946 
0.59286 2.01800 -1.05303 
0.73778 2.21600 -1.15635 
0.74356 2.21600 -1.15635 
0.84010 2.29000 -1.19496 
1.07551 2.33400 -1.21792 
1.09563 2.32500 -1.21323 
1.24339 2.35200 -1.22732 
1.26180 2.35200 -1.22732 
1.36783 2.39800 -1.25132 
1.44594 2.35200 -1.22732 
1.59324 2.35200 -1.22732 
1.61779 2.35200 -1.22732 
1.62393 2.35200 -1.22732 
1.74669 2.35200 -1.22732 
-1.64342 2.16100 -1.13329 
-1.50084 2.20000 -1.15374 
-1.48902 2.20800 -1.15794 
-1.47025 2.23200 -1.17052 
-1.46968 2.24000 -1.17472 
-1.44559 2.24800 -1.17891 
-0.63320 1.96600 -1.03102 
-0.51520 1.96600 -1.03102 
-0.37843 2.36100 -1.23817 
-0.32544 2.37900 -1.24761 
-0.30810 2.38900 -1.25286 
-0.23056 2.36100 -1.23817 
-0.17377 2.34300 -1.22873 
-0.00862 2.32500 -1.21929 
0.08914 2.34300 -1.22873 
0.13600 2.30800 -1.21038 
0.23636 2.23200 -1.17052 
0.27614 2.22400 -1.16633 
0.34330 2.20800 -1.15794 
0.47718 1.95400 -1.02473 
0.51959 1.94100 -1.01791 
0.53837 1.95400 -1.02473 
0.54347 1.95400 -1.02473 
0.57799 1.98500 -1.04099 
0.72446 2.17600 -1.14115 
0.88540 2.29900 -1.20566 
0.94307 2.30800 -1.21038 
1.05115 2.33400 -1.22401 
1.08535 2.31600 -1.21457 
1.10952 2.31600 -1.21457 
1.16687 2.33400 -1.22401 
1.23252 2.34300 -1.22873 
1.23863 2.34300 -1.22873 
1.55046 2.34300 -1.22873 
1.58103 2.34300 -1.22873 
1.59326 2.34300 -1.22873 
1.61160 2.34300 -1.22873 
1.62383 2.34300 -1.22873 
1.70408 2.36100 -1.23817 
1.72256 2.36100 -1.23817 
1.72872 2.36100 -1.23817 
1.83077 2.33400 -1.22401 
-1.70045 2.16900 -1.14314 
-1.66598 2.16100 -1.13893 
-1.64906 2.16100 -1.13893 
-1.56460 2.16900 -1.14314 
-1.50084 2.20000 -1.15948 
-1.49510 2.20000 -1.15948 
-1.34565 2.30800 -1.21640 
-1.25361 2.31600 -1.22062 
-1.09871 2.30800 -1.21640 
-1.02977 2.34300 -1.23485 
-0.94444 2.29900 -1.21166 
-0.88596 2.25700 -1.18952 
-0.73257 1.98500 -1.04617 
-0.50828 1.97900 -1.04301 
-0.50007 2.32500 -1.22536 
-0.41223 2.34300 -1.23485 
-0.40611 2.34300 -1.23485 
-0.33658 2.37000 -1.24908 
-0.30565 2.37000 -1.24908 
-0.27473 2.37000 -1.24908 
-0.21657 2.34300 -1.23485 
-0.20434 2.34300 -1.23485 
-0.16637 2.32500 -1.22536 
-0.16030 2.32500 -1.22536 
-0.00855 2.30800 -1.21640 
-0.00254 2.31600 -1.22062 
0.03398 2.33400 -1.23010 
0.21459 2.24800 -1.18478 
0.22552 2.24000 -1.18056 
0.25202 2.21600 -1.16791 
0.30984 2.21600 -1.16791 
0.38085 2.19200 -1.15527 
0.43440 2.23200 -1.17635 
0.44958 2.13800 -1.12681 
0.45230 1.97900 -1.04301 
0.48264 1.93500 -1.01982 
0.67530 2.09400 -1.10362 
0.76132 2.18400 -1.15105 
0.95739 2.29900 -1.21166 
1.07558 2.30800 -1.21640 
1.13370 2.31600 -1.22062 
1.43366 2.35200 -1.23959 
1.44705 2.33400 -1.23010 
1.45967 2.32500 -1.22536 
1.47181 2.32500 -1.22536 
1.50214 2.32500 -1.22536 
1.65440 2.34300 -1.23485 
1.70372 2.35200 -1.23959 
1.75953 2.36100 -1.24433 
1.81337 2.34300 -1.23485 
1.87452 2.34300 -1.23485 
1.88675 2.34300 -1.23485 
-1.68289 2.16100 -1.14457 
-1.35906 2.29000 -1.21289 
-1.30349 2.30800 -1.22242 
-1.26570 2.31600 -1.22666 
-1.23548 2.31600 -1.22666 
-1.14990 2.29000 -1.21289 
-1.10209 2.29000 -1.21289 
-1.06236 2.33400 -1.23620 
-0.91596 2.27300 -1.20389 
-0.65448 1.92300 -1.01851 
-0.64061 1.97300 -1.04499 
-0.58879 2.02500 -1.07253 
-0.50614 2.32500 -1.23143 
-0.46367 2.32500 -1.23143 
-0.40455 2.33400 -1.23620 
-0.37698 2.35200 -1.24573 
-0.19747 2.33400 -1.23620 
-0.15968 2.31600 -1.22666 
-0.15310 2.30800 -1.22242 
-0.10410 2.29000 -1.21289 
-0.08587 2.28200 -1.20865 
0.22888 2.21600 -1.17370 
0.34906 2.20800 -1.16946 
0.37076 2.20000 -1.16522 
0.48617 1.92900 -1.02169 
0.56386 1.95400 -1.03493 
0.76741 2.16900 -1.14880 
0.91959 2.26500 -1.19965 
0.92877 2.27300 -1.20389 
1.00330 2.30800 -1.22242 
1.08512 2.29000 -1.21289 
1.24732 2.32500 -1.23143 
1.27875 2.31600 -1.22666 
1.50214 2.32500 -1.23143 
1.60541 2.33400 -1.23620 
1.71600 2.35200 -1.24573 
1.89286 2.34300 -1.24096 
-1.52990 2.17600 -1.15819 
-1.43531 2.23200 -1.18800 
-1.35861 2.24000 -1.19225 
-1.34040 2.29900 -1.22366 
-1.33440 2.29900 -1.22366 
-1.32240 2.29900 -1.22366 
-1.27940 2.30800 -1.22845 
-1.09824 2.28200 -1.21461 
-1.04613 2.32500 -1.23750 
-0.90683 2.26500 -1.20556 
-0.75744 2.03800 -1.08474 
-0.66954 1.92300 -1.02353 
-0.64150 1.96000 -1.04322 
-0.52448 2.29900 -1.22366 
-0.46792 2.31600 -1.23271 
-0.39388 2.34300 -1.24708 
-0.28994 2.34300 -1.24708 
-0.26548 2.34300 -1.24708 
-0.22792 2.33400 -1.24229 
-0.20277 2.32500 -1.23750 
-0.11519 2.27300 -1.20982 
0.01548 2.29900 -1.22366 
0.06974 2.30800 -1.22845 
0.12755 2.26500 -1.20556 
0.15119 2.26500 -1.20556 
0.20724 2.23200 -1.18800 
0.22806 2.20800 -1.17522 
0.23958 2.20800 -1.17522 
0.41110 2.23200 -1.18800 
0.43596 2.24000 -1.19225 
0.44909 2.05900 -1.09592 
0.54323 1.93500 -1.02992 
0.54998 1.94100 -1.03311 
0.76202 2.13800 -1.13796 
0.79571 2.16900 -1.15446 
0.99200 2.28200 -1.21461 
1.01340 2.29000 -1.21887 
1.01938 2.29000 -1.21887 
1.05524 2.29000 -1.21887 
1.06121 2.29000 -1.21887 
1.06719 2.29000 -1.21887 
1.38456 2.35200 -1.25187 
1.50842 2.31600 -1.23271 
1.52051 2.31600 -1.23271 
1.57495 2.32500 -1.23750 
1.76569 2.36100 -1.25666 
1.78479 2.37000 -1.26145 
1.80335 2.37000 -1.26145 
1.83875 2.35200 -1.25187 
1.90386 2.33400 -1.24229 
1.86597 2.27300 -1.20982 
-1.61521 2.14600 -1.14782 
-1.52498 2.16900 -1.16012 
-1.48902 2.20800 -1.18098 
-1.46498 2.22400 -1.18954 
-1.45918 2.22400 -1.18954 
-1.41275 2.22400 -1.18954 
-1.39534 2.22400 -1.18954 
-1.35013 2.26500 -1.21147 
-1.13543 2.27300 -1.21575 
-0.90683 2.26500 -1.21147 
-0.89773 2.25700 -1.20719 
-0.84328 2.19200 -1.17243 
-0.64158 1.99200 -1.06545 
-0.63071 2.09400 -1.12001 
-0.52317 2.14600 -1.14782 
-0.28883 2.33400 -1.24838 
-0.25738 2.32500 -1.24356 
-0.20803 2.31600 -1.23875 
-0.13892 2.27300 -1.21575 
-0.12070 2.26500 -1.21147 
-0.07904 2.25700 -1.20719 
0.00944 2.29000 -1.22484 
0.03947 2.29900 -1.22966 
0.33418 2.22400 -1.18954 
0.37211 2.20800 -1.18098 
0.42427 2.24000 -1.19810 
0.44765 2.24000 -1.19810 
0.47107 1.92900 -1.03176 
0.47463 1.92300 -1.02855 
0.50316 1.91700 -1.02534 
0.56518 1.94100 -1.03817 
0.65411 2.01200 -1.07615 
0.84991 2.19200 -1.17243 
0.85563 2.19200 -1.17243 
1.02773 2.28200 -1.22056 
1.14488 2.29000 -1.22484 
1.19737 2.29900 -1.22966 
1.23937 2.29900 -1.22966 
1.28136 2.29900 -1.22966 
1.29336 2.29900 -1.22966 
1.37396 2.33400 -1.24838 
1.49633 2.31600 -1.23875 
1.56886 2.31600 -1.23875 
1.58094 2.31600 -1.23875 
1.72827 2.35200 -1.25800 
1.75337 2.36100 -1.26282 
1.86944 2.35200 -1.25800 
1.88675 2.34300 -1.25319 
-1.56456 2.13800 -1.14912 
-1.51935 2.15300 -1.15718 
-1.51854 2.17600 -1.16955 
-1.45971 2.21600 -1.19105 
-1.45393 2.21600 -1.19105 
-1.38454 2.21600 -1.19105 
-1.37297 2.21600 -1.19105 
-1.34108 2.24000 -1.20395 
-1.28735 2.29000 -1.23082 
-1.07612 2.27300 -1.22168 
-1.04831 2.29000 -1.23082 
-0.72693 1.99800 -1.07388 
-0.52377 1.97900 -1.06366 
-0.51316 1.99800 -1.07388 
-0.52448 2.27300 -1.22168 
-0.49448 2.29900 -1.23566 
-0.47232 2.30800 -1.24049 
-0.41209 2.30800 -1.24049 
-0.34364 2.33400 -1.25447 
-0.33755 2.33400 -1.25447 
-0.33146 2.33400 -1.25447 
-0.26754 2.30800 -1.24049 
-0.23743 2.30800 -1.24049 
-0.20050 2.29900 -1.23566 
-0.06137 2.25700 -1.21308 
0.01530 2.27300 -1.22168 
0.22640 2.19200 -1.17815 
0.26839 2.20800 -1.18675 
0.44982 2.03800 -1.09538 
0.45881 1.94100 -1.04324 
0.48662 1.91100 -1.02712 
0.84665 2.16900 -1.16578 
0.86961 2.18400 -1.17385 
1.16470 2.28200 -1.22652 
1.55741 2.30800 -1.24049 
1.58699 2.31600 -1.24479 
1.84579 2.36100 -1.26898 
1.95113 2.32500 -1.24963 
-1.53108 2.13800 -1.15470 
-1.49539 2.19200 -1.18387 
-1.47251 2.19200 -1.18387 
-1.45492 2.20000 -1.18819 
-1.42502 2.21600 -1.19683 
-1.40259 2.20800 -1.19251 
-1.31931 2.27300 -1.22761 
-0.95411 2.26500 -1.22329 
-0.91541 2.25700 -1.21897 
-0.83450 2.18400 -1.17955 
-0.65483 1.95400 -1.05533 
-0.64924 2.06600 -1.11582 
-0.64742 2.13100 -1.15092 
-0.62186 2.10100 -1.13472 
-0.51659 2.03200 -1.09745 
-0.52867 2.21600 -1.19683 
-0.53044 2.24800 -1.21411 
-0.44048 2.29900 -1.24166 
-0.43448 2.29900 -1.24166 
-0.25948 2.29000 -1.23680 
-0.19374 2.29000 -1.23680 
0.06253 2.26500 -1.22329 
0.09726 2.24800 -1.21411 
0.35032 2.21600 -1.19683 
0.37211 2.20800 -1.19251 
0.45367 2.08000 -1.12338 
0.45068 2.01800 -1.08989 
0.63305 1.97900 -1.06883 
0.87496 2.16900 -1.17144 
0.89481 2.17600 -1.17523 
0.97609 2.23200 -1.20547 
1.17790 2.27300 -1.22761 
1.47309 2.30800 -1.24652 
1.69677 2.33400 -1.26056 
1.77861 2.37000 -1.28000 
1.79098 2.37000 -1.28000 
1.86427 2.36100 -1.27514 
-1.63709 2.13800 -1.16028 
-1.63151 2.13800 -1.16028 
-1.61477 2.13800 -1.16028 
-1.58129 2.13800 -1.16028 
-1.50703 2.18400 -1.18525 
-1.47283 2.18400 -1.18525 
-1.39682 2.20800 -1.19827 
-1.30285 2.26500 -1.22920 
-1.07218 2.24000 -1.21564 
-1.04869 2.26500 -1.22920 
-0.99901 2.27300 -1.23355 
-0.93896 2.25700 -1.22486 
-0.88513 2.24000 -1.21564 
-0.62186 2.10100 -1.14020 
-0.49082 2.28200 -1.23843 
-0.32049 2.29900 -1.24766 
-0.28239 2.28200 -1.23843 
-0.16798 2.26500 -1.22920 
-0.04905 2.23200 -1.21129 
0.13734 2.23200 -1.21129 
0.21496 2.19200 -1.18959 
0.21988 2.18400 -1.18525 
0.24268 2.18400 -1.18525 
0.46244 1.93500 -1.05011 
0.53651 1.92900 -1.04686 
0.57531 1.94100 -1.05337 
0.63305 1.97900 -1.07399 
0.77652 2.08700 -1.13260 
0.81492 2.11600 -1.14834 
0.97487 2.21600 -1.20261 
1.01466 2.24000 -1.21564 
1.02635 2.24000 -1.21564 
1.03220 2.24000 -1.21564 
1.16784 2.26500 -1.22920 
1.23534 2.24800 -1.21998 
1.25796 2.25700 -1.22486 
1.36599 2.29000 -1.24277 
1.49135 2.29900 -1.24766 
1.50334 2.29900 -1.24766 
1.72777 2.34300 -1.27153 
1.88675 2.34300 -1.27153 
-1.59803 2.13800 -1.16586 
-1.50703 2.18400 -1.19094 
-1.47879 2.17600 -1.18658 
-1.31881 2.23200 -1.21712 
-1.21564 2.29000 -1.24875 
-1.09354 2.22400 -1.21276 
-0.88197 2.23200 -1.21712 
-0.62186 2.10100 -1.14568 
-0.41341 2.28200 -1.24438 
-0.31687 2.27300 -1.23948 
-0.29802 2.26500 -1.23511 
-0.26256 2.26500 -1.23511 
-0.19824 2.27300 -1.23948 
-0.19231 2.27300 -1.23948 
-0.13690 2.24000 -1.22148 
0.06162 2.23200 -1.21712 
0.06745 2.23200 -1.21712 
0.09075 2.23200 -1.21712 
0.24838 2.18400 -1.19094 
0.25408 2.18400 -1.19094 
0.29144 2.20800 -1.20403 
0.37076 2.20000 -1.19967 
0.45278 2.20800 -1.20403 
0.45007 1.99200 -1.08625 
0.64241 1.99200 -1.08625 
0.80098 2.09400 -1.14187 
1.01686 2.23200 -1.21712 
1.12838 2.25700 -1.23075 
1.70237 2.32500 -1.26783 
1.78418 2.36100 -1.28746 
1.83963 2.36100 -1.28746 
1.91604 2.33400 -1.27274 
-1.63709 2.13800 -1.17144 
-1.53620 2.15300 -1.17966 
-1.53627 2.16100 -1.18404 
-1.43294 2.18400 -1.19664 
-1.41530 2.19200 -1.20103 
-1.34745 2.18400 -1.19664 
-1.28134 2.24800 -1.23171 
-1.27329 2.26500 -1.24103 
-1.26593 2.27300 -1.24541 
-1.24712 2.28200 -1.25034 
-1.24116 2.28200 -1.25034 
-1.06648 2.21600 -1.21418 
-0.64924 2.06600 -1.13199 
-0.54090 1.98500 -1.08761 
-0.51830 2.01800 -1.10569 
-0.35713 2.26500 -1.24103 
-0.27232 2.24800 -1.23171 
-0.23807 2.25700 -1.23664 
-0.17917 2.25700 -1.23664 
-0.08339 2.21600 -1.21418 
0.04415 2.23200 -1.22294 
0.07301 2.22400 -1.21856 
0.11364 2.22400 -1.21856 
0.15949 2.21600 -1.21418 
0.19708 2.18400 -1.19664 
0.22475 2.17600 -1.19226 
0.24747 2.17600 -1.19226 
0.26547 2.18400 -1.19664 
0.29038 2.20000 -1.20541 
0.30296 2.20800 -1.20979 
0.39516 2.20800 -1.20979 
0.56011 1.94100 -1.06350 
0.60837 1.96600 -1.07720 
0.85075 2.10900 -1.15555 
0.91266 2.13800 -1.17144 
1.11988 2.24000 -1.22733 
1.19160 2.23200 -1.22294 
1.29524 2.24000 -1.22733 
1.34041 2.25700 -1.23664 
1.35219 2.25700 -1.23664 
1.35808 2.25700 -1.23664 
1.47953 2.29000 -1.25472 
1.70843 2.32500 -1.27390 
1.81420 2.35200 -1.28869 
1.82034 2.35200 -1.28869 
1.88063 2.34300 -1.28376 
-1.59836 2.13100 -1.17317 
-1.49015 2.17600 -1.19794 
-1.42769 2.17600 -1.19794 
-1.39304 2.18400 -1.20234 
-1.18634 2.25700 -1.24253 
-1.10296 2.20800 -1.21556 
-1.02758 2.23200 -1.22877 
-0.96351 2.23200 -1.22877 
-0.74123 2.05200 -1.12967 
-0.63734 2.11600 -1.16491 
-0.58927 2.04500 -1.12582 
-0.53054 1.98500 -1.09279 
-0.32396 2.24000 -1.23317 
-0.07733 2.20800 -1.21556 
-0.04276 2.20800 -1.21556 
0.10129 2.20800 -1.21556 
0.43128 2.21600 -1.21996 
0.47815 1.91700 -1.05535 
0.82011 2.10100 -1.15665 
0.85301 2.10100 -1.15665 
0.94154 2.15300 -1.18528 
1.10423 2.23200 -1.22877 
1.37027 2.24800 -1.23758 
1.48032 2.28200 -1.25629 
1.48627 2.28200 -1.25629 
1.57560 2.28200 -1.25629 
1.73270 2.32500 -1.27997 
1.77595 2.33400 -1.28492 
1.80726 2.34300 -1.28988 
1.83783 2.34300 -1.28988 
-1.59790 2.12300 -1.17430 
-1.59236 2.12300 -1.17430 
-1.54182 2.15300 -1.19090 
-1.51854 2.17600 -1.20362 
-1.51286 2.17600 -1.20362 
-1.37781 2.16900 -1.19975 
-1.22010 2.26500 -1.25285 
-1.04156 2.20000 -1.21689 
-1.01229 2.22400 -1.23017 
-0.97167 2.22400 -1.23017 
-0.94504 2.21600 -1.22574 
-0.84900 2.19200 -1.21247 
-0.74628 2.06600 -1.14277 
-0.70578 2.01200 -1.11290 
-0.69809 2.00500 -1.10903 
-0.62525 2.09400 -1.15826 
-0.51984 2.06600 -1.14277 
-0.47764 2.24800 -1.24344 
-0.39995 2.24000 -1.23902 
-0.14122 2.21600 -1.22574 
-0.05982 2.20000 -1.21689 
-0.04834 2.20000 -1.21689 
0.10129 2.20800 -1.22132 
0.28827 2.18400 -1.20804 
0.34968 2.17600 -1.20362 
0.43233 2.19200 -1.21247 
0.44409 2.01200 -1.11290 
0.44795 1.96000 -1.08414 
0.50788 1.93500 -1.07031 
0.53163 1.94800 -1.07750 
0.67851 2.03800 -1.12729 
0.91734 2.12300 -1.17430 
0.92636 2.13100 -1.17873 
0.93498 2.13800 -1.18260 
1.01376 2.20000 -1.21689 
1.21197 2.21600 -1.22574 
1.36051 2.23200 -1.23459 
1.39462 2.24000 -1.23902 
1.55204 2.26500 -1.25285 
1.58125 2.27300 -1.25727 
1.61729 2.28200 -1.26225 
1.64686 2.29000 -1.26667 
1.89331 2.29900 -1.27165 
-1.64841 2.13100 -1.18429 
-1.64285 2.13100 -1.18429 
-1.61452 2.12300 -1.17984 
-1.58128 2.12300 -1.17984 
-1.36203 2.15300 -1.19651 
-1.30989 2.16900 -1.20541 
-1.25924 2.24000 -1.24486 
-1.25787 2.24800 -1.24931 
-1.24524 2.25700 -1.25431 
-1.23346 2.25700 -1.25431 
-1.18325 2.24000 -1.24486 
-1.14744 2.21600 -1.23153 
-1.03968 2.18400 -1.21374 
-0.88332 2.19200 -1.21819 
-0.69044 1.99800 -1.11037 
-0.64278 2.08000 -1.15594 
-0.60611 2.06600 -1.14816 
-0.52536 1.98500 -1.10315 
-0.47010 2.24000 -1.24486 
-0.45841 2.24000 -1.24486 
-0.24531 2.21600 -1.23153 
-0.14647 2.20800 -1.22708 
0.05500 2.20000 -1.22263 
0.11241 2.20000 -1.22263 
0.14060 2.19200 -1.21819 
0.29290 2.17600 -1.20930 
0.33723 2.16900 -1.20541 
0.43346 2.16900 -1.20541 
0.44070 2.04500 -1.13649 
0.60324 1.96600 -1.09259 
0.82559 2.10100 -1.16762 
0.86366 2.08700 -1.15984 
0.89089 2.08700 -1.15984 
0.93192 2.13100 -1.18429 
1.08475 2.21600 -1.23153 
1.10210 2.21600 -1.23153 
1.41800 2.24000 -1.24486 
1.49884 2.26500 -1.25876 
1.53478 2.25700 -1.25431 
1.58750 2.26500 -1.25876 
1.73208 2.30800 -1.28265 
1.92931 2.29900 -1.27765 
-1.50800 2.16900 -1.21107 
-1.44721 2.14600 -1.19822 
-1.29857 2.16900 -1.21107 
-1.29708 2.17600 -1.21497 
-1.27694 2.20000 -1.22838 
-1.27006 2.20800 -1.23284 
-0.98629 2.19200 -1.22391 
-0.90859 2.18400 -1.21944 
-0.73587 2.05200 -1.14574 
-0.67797 1.99200 -1.11224 
-0.65486 1.98500 -1.10833 
-0.65394 1.99800 -1.11559 
-0.44933 2.22400 -1.24178 
-0.43192 2.22400 -1.24178 
-0.36410 2.20000 -1.22838 
-0.32156 2.18400 -1.21944 
-0.22796 2.21600 -1.23731 
-0.09359 2.18400 -1.21944 
-0.03089 2.18400 -1.21944 
-0.00809 2.18400 -1.21944 
0.17309 2.16900 -1.21107 
0.18441 2.16900 -1.21107 
0.19573 2.16900 -1.21107 
0.40516 2.16900 -1.21107 
0.41648 2.16900 -1.21107 
0.44063 1.97300 -1.10163 
0.45455 1.92300 -1.07371 
0.56896 1.95400 -1.09102 
0.59811 1.96600 -1.09772 
0.68784 2.06600 -1.15356 
0.72206 2.08700 -1.16528 
1.11136 2.20000 -1.22838 
1.16726 2.20800 -1.23284 
1.17302 2.20800 -1.23284 
1.28465 2.19200 -1.22391 
1.29037 2.19200 -1.22391 
1.32953 2.20000 -1.22838 
1.47588 2.25700 -1.26020 
1.49944 2.25700 -1.26020 
1.58190 2.25700 -1.26020 
1.71857 2.29000 -1.27863 
1.79231 2.30800 -1.28868 
1.85549 2.28200 -1.27416 
-1.59815 2.11600 -1.18700 
-1.57055 2.13100 -1.19541 
-1.55898 2.13800 -1.19934 
-1.48552 2.16100 -1.21224 
-1.27230 2.19200 -1.22963 
-1.26546 2.20000 -1.23412 
-0.95419 2.18400 -1.22514 
-0.82828 2.15300 -1.20775 
-0.47084 2.21600 -1.24309 
-0.37994 2.19200 -1.22963 
-0.35576 2.18400 -1.22514 
-0.15058 2.18400 -1.22514 
-0.13867 2.17600 -1.22065 
-0.04214 2.17600 -1.22065 
0.18373 2.16100 -1.21224 
0.19501 2.16100 -1.21224 
0.25704 2.16100 -1.21224 
0.30215 2.16100 -1.21224 
0.38531 2.15300 -1.20775 
0.42168 2.13800 -1.19934 
0.44953 1.92300 -1.07873 
0.48114 1.92900 -1.08210 
0.58426 1.95400 -1.09612 
0.61943 1.98500 -1.11351 
0.77920 2.10900 -1.18307 
0.84470 2.09400 -1.17465 
1.06728 2.19200 -1.22963 
1.11304 2.19200 -1.22963 
1.34265 2.18400 -1.22514 
1.49346 2.24800 -1.26104 
1.54108 2.23200 -1.25207 
1.65252 2.26500 -1.27058 
1.72448 2.28200 -1.28012 
1.81258 2.27300 -1.27507 
1.87713 2.26500 -1.27058 
-1.64785 2.11600 -1.19252 
-1.57020 2.12300 -1.19646 
-1.55898 2.13800 -1.20492 
-1.50800 2.16900 -1.22239 
-1.47440 2.15300 -1.21337 
-1.40833 2.13800 -1.20492 
-1.28250 2.16100 -1.21788 
-1.06639 2.14600 -1.20942 
-1.01039 2.14600 -1.20942 
-0.96670 2.16100 -1.21788 
-0.85637 2.15300 -1.21337 
-0.76733 2.09400 -1.18012 
-0.64872 1.99800 -1.12602 
-0.51838 1.99800 -1.12602 
-0.31369 2.16900 -1.22239 
-0.24656 2.17600 -1.22633 
-0.08189 2.17600 -1.22633 
-0.03634 2.16900 -1.22239 
-0.02493 2.16100 -1.21788 
0.08252 2.16900 -1.22239 
0.25047 2.15300 -1.21337 
0.26171 2.15300 -1.21337 
0.27856 2.15300 -1.21337 
0.33926 2.14600 -1.20942 
0.42509 2.07300 -1.16828 
0.42961 2.01800 -1.13729 
0.48114 1.92900 -1.08713 
0.74068 2.10900 -1.18857 
0.75418 2.11600 -1.19252 
0.77075 2.11600 -1.19252 
0.77627 2.11600 -1.19252 
0.82597 2.11600 -1.19252 
0.86819 2.05900 -1.16039 
1.00838 2.17600 -1.22633 
1.07478 2.18400 -1.23084 
1.15458 2.18400 -1.23084 
1.18169 2.19200 -1.23535 
1.21029 2.19200 -1.23535 
1.64669 2.25700 -1.27198 
1.74733 2.27300 -1.28100 
1.82134 2.24000 -1.26240 
1.85718 2.24800 -1.26691 
1.88895 2.26500 -1.27649 
-1.63139 2.10900 -1.19408 
-1.26461 2.16900 -1.22805 
-1.24942 2.19200 -1.24107 
-1.24824 2.20000 -1.24560 
-1.16507 2.18400 -1.23654 
-1.10358 2.15300 -1.21899 
-1.08319 2.14600 -1.21502 
-1.01618 2.12300 -1.20200 
-0.87322 2.15300 -1.21899 
-0.46574 2.19200 -1.24107 
-0.38161 2.16900 -1.22805 
-0.34073 2.16100 -1.22352 
-0.31138 2.15300 -1.21899 
-0.18917 2.16900 -1.22805 
-0.12644 2.16100 -1.22352 
-0.07596 2.16900 -1.22805 
-0.04749 2.16100 -1.22352 
0.03147 2.16100 -1.22352 
0.05402 2.16100 -1.22352 
0.11563 2.15300 -1.21899 
0.25526 2.14600 -1.21502 
0.26646 2.14600 -1.21502 
0.30006 2.14600 -1.21502 
0.42535 1.99800 -1.13123 
0.43214 1.93500 -1.09556 
0.43583 1.92900 -1.09216 
0.44174 1.91100 -1.08197 
0.57531 1.94100 -1.09896 
0.68784 2.06600 -1.16973 
0.69558 2.07300 -1.17369 
0.74618 2.10900 -1.19408 
1.07872 2.16900 -1.22805 
1.21849 2.17600 -1.23201 
1.28249 2.16900 -1.22805 
1.28815 2.16900 -1.22805 
1.37749 2.17600 -1.23201 
1.62839 2.24800 -1.27278 
1.69381 2.25700 -1.27787 
1.77458 2.24000 -1.26825 
-1.63690 2.10900 -1.19958 
-1.59247 2.09400 -1.19105 
-1.51935 2.15300 -1.22461 
-1.48002 2.15300 -1.22461 
-1.28694 2.13100 -1.21209 
-1.27213 2.15300 -1.22461 
-1.21636 2.18400 -1.24224 
-1.18351 2.17600 -1.23769 
-1.14152 2.16100 -1.22916 
-1.06450 2.13100 -1.21209 
-0.99074 2.11600 -1.20356 
-0.92639 2.14600 -1.22063 
-0.86156 2.13800 -1.21607 
-0.85040 2.13800 -1.21607 
-0.81119 2.12300 -1.20754 
-0.67938 1.96600 -1.11824 
-0.64158 1.99200 -1.13303 
-0.63830 1.99800 -1.13644 
-0.63530 2.00500 -1.14043 
-0.61385 2.03800 -1.15920 
-0.58676 2.01800 -1.14782 
-0.50906 2.06600 -1.17512 
-0.49299 2.16100 -1.22916 
-0.33277 2.14600 -1.22063 
-0.24316 2.14600 -1.22063 
-0.18777 2.15300 -1.22461 
-0.12556 2.14600 -1.22063 
-0.07004 2.16100 -1.22916 
-0.02475 2.14600 -1.22063 
0.15893 2.13100 -1.21209 
0.20485 2.14600 -1.22063 
0.22083 2.13800 -1.21607 
0.34245 2.13100 -1.21209 
0.36886 2.12300 -1.20754 
0.51602 1.96600 -1.11824 
0.56518 1.94100 -1.10402 
0.69323 2.06600 -1.17512 
0.70099 2.07300 -1.17910 
0.70878 2.08000 -1.18308 
0.75719 2.10900 -1.19958 
0.77075 2.11600 -1.20356 
0.93640 2.11600 -1.20356 
0.99015 2.16100 -1.22916 
1.04476 2.16900 -1.23371 
1.07474 2.16100 -1.22916 
1.19193 2.16900 -1.23371 
1.19759 2.16900 -1.23371 
1.29550 2.15300 -1.22461 
1.31369 2.14600 -1.22063 
1.61675 2.24000 -1.27409 
-1.64790 2.10900 -1.20508 
-1.56536 2.08700 -1.19251 
-1.43153 2.13100 -1.21765 
-1.34520 2.10900 -1.20508 
-1.29997 2.11600 -1.20908 
-1.24303 2.16100 -1.23480 
-1.02049 2.10900 -1.20508 
-0.99847 2.10900 -1.20508 
-0.73930 2.03200 -1.16109 
-0.65373 1.96600 -1.12337 
-0.54944 1.96000 -1.11994 
-0.52891 1.94100 -1.10909 
-0.47993 2.15300 -1.23022 
-0.44788 2.16100 -1.23480 
-0.43498 2.15300 -1.23022 
-0.23110 2.13800 -1.22165 
-0.17473 2.13100 -1.21765 
-0.02466 2.13800 -1.22165 
-0.00792 2.13800 -1.22165 
0.03125 2.14600 -1.22623 
0.08165 2.14600 -1.22623 
0.10366 2.13800 -1.22165 
0.10888 2.13100 -1.21765 
0.15229 2.11600 -1.20908 
0.20967 2.13800 -1.22165 
0.24144 2.12300 -1.21308 
0.24698 2.12300 -1.21308 
0.27468 2.12300 -1.21308 
0.32020 2.13100 -1.21765 
0.37317 2.11600 -1.20908 
0.40733 2.01200 -1.14966 
0.44533 1.90500 -1.08852 
0.47611 1.92900 -1.10223 
0.56011 1.94100 -1.10909 
0.58001 1.92300 -1.09880 
0.83656 2.10100 -1.20051 
0.83924 2.09400 -1.19651 
0.88431 2.05900 -1.17651 
1.24494 2.15300 -1.23022 
1.45009 2.20000 -1.25708 
1.66339 2.23200 -1.27537 
1.72086 2.21600 -1.26622 
-1.53233 2.10900 -1.21059 
-1.46961 2.14600 -1.23183 
-1.41041 2.11600 -1.21461 
-1.35621 2.10900 -1.21059 
-1.25357 2.13100 -1.22322 
-1.07357 2.11600 -1.21461 
-1.06452 2.10900 -1.21059 
-0.67731 1.96000 -1.12506 
-0.64256 1.97900 -1.13597 
-0.61522 2.02500 -1.16237 
-0.56509 1.97900 -1.13597 
-0.52891 1.94100 -1.11415 
-0.51206 1.95400 -1.12162 
-0.50424 2.02500 -1.16237 
-0.48217 2.13800 -1.22723 
-0.17407 2.12300 -1.21862 
-0.09756 2.14600 -1.23183 
-0.07516 2.14600 -1.23183 
0.05345 2.13800 -1.22723 
0.05903 2.13800 -1.22723 
0.11402 2.12300 -1.21862 
0.19230 2.13100 -1.22322 
0.31900 2.12300 -1.21862 
0.40703 1.96000 -1.12506 
0.41194 1.93500 -1.11071 
0.54167 1.96600 -1.12850 
0.66659 2.01800 -1.15835 
0.73840 2.08700 -1.19796 
0.83149 2.11600 -1.21461 
1.05048 2.14600 -1.23183 
1.11910 2.13800 -1.22723 
1.14142 2.13800 -1.22723 
1.35849 2.14600 -1.23183 
1.47494 2.16900 -1.24503 
1.59942 2.21600 -1.27201 
1.65743 2.22400 -1.27660 
1.66904 2.22400 -1.27660 
-1.58725 2.08000 -1.19937 
-1.55447 2.08700 -1.20341 
-1.54902 2.08700 -1.20341 
-1.51480 2.12300 -1.22416 
-1.43723 2.12300 -1.22416 
-1.43169 2.12300 -1.22416 
-1.29445 2.11600 -1.22013 
-1.19240 2.13100 -1.22878 
-1.14915 2.12300 -1.22416 
-1.11775 2.11600 -1.22013 
-1.04055 2.09400 -1.20744 
-0.97172 2.08700 -1.20341 
-0.95858 2.09400 -1.20744 
-0.95312 2.09400 -1.20744 
-0.94534 2.10100 -1.21148 
-0.91344 2.11600 -1.22013 
-0.90791 2.11600 -1.22013 
-0.86106 2.12300 -1.22416 
-0.84717 2.11600 -1.22013 
-0.73471 2.00500 -1.15612 
-0.72693 1.99800 -1.15209 
-0.69265 1.96000 -1.13017 
-0.68033 1.95400 -1.12671 
-0.65090 1.97300 -1.13767 
-0.36244 2.12300 -1.22416 
-0.31258 2.12300 -1.22416 
-0.23424 2.11600 -1.22013 
-0.18393 2.10900 -1.21609 
-0.15641 2.10900 -1.21609 
-0.05795 2.13100 -1.22878 
-0.05219 2.12300 -1.22416 
0.02537 2.12300 -1.22416 
0.07552 2.13100 -1.22878 
0.10812 2.11600 -1.22013 
0.14078 2.10900 -1.21609 
0.26825 2.11600 -1.22013 
0.34859 2.10100 -1.21148 
0.39681 1.96000 -1.13017 
0.41053 1.90500 -1.09846 
0.45814 1.91700 -1.10538 
0.49247 1.95400 -1.12671 
0.66230 2.00500 -1.15612 
0.74135 2.08000 -1.19937 
0.78173 2.10100 -1.21148 
0.83377 2.09400 -1.20744 
0.83623 2.07300 -1.19533 
0.87830 2.04500 -1.17919 
0.92667 2.09400 -1.20744 
1.00977 2.13100 -1.22878 
1.18217 2.13100 -1.22878 
1.33285 2.12300 -1.22416 
1.40183 2.16100 -1.24607 
1.57639 2.20000 -1.26856 
1.71252 2.17600 -1.25472 
-1.61439 2.08000 -1.20480 
-1.58191 2.07300 -1.20074 
-1.51480 2.12300 -1.22970 
-1.47529 2.13800 -1.23839 
-1.32869 2.10900 -1.22159 
-1.32319 2.10900 -1.22159 
-1.27236 2.11600 -1.22565 
-1.24475 2.11600 -1.22565 
-1.22266 2.11600 -1.22565 
-0.98474 2.08000 -1.20480 
-0.95760 2.08000 -1.20480 
-0.93673 2.09400 -1.21291 
-0.85269 2.11600 -1.22565 
-0.71269 1.97300 -1.14282 
-0.64772 1.97900 -1.14629 
-0.60993 2.02500 -1.17294 
-0.55455 1.96000 -1.13529 
-0.49896 2.02500 -1.17294 
-0.47930 2.10100 -1.21696 
-0.43855 2.11600 -1.22565 
-0.41646 2.11600 -1.22565 
-0.28300 2.10900 -1.22159 
-0.23347 2.10900 -1.22159 
-0.14984 2.09400 -1.21291 
-0.13440 2.10900 -1.22159 
-0.11313 2.12300 -1.22970 
-0.09688 2.13100 -1.23434 
0.04199 2.12300 -1.22970 
0.10776 2.10900 -1.22159 
0.18050 2.12300 -1.22970 
0.25636 2.10900 -1.22159 
0.26737 2.10900 -1.22159 
0.30589 2.10900 -1.22159 
0.36849 2.05900 -1.19263 
0.37426 2.03200 -1.17699 
0.49247 1.95400 -1.13181 
0.57320 1.91700 -1.11038 
0.68476 2.02500 -1.17294 
0.70219 2.04500 -1.18452 
0.83880 2.06600 -1.19669 
0.85402 2.03800 -1.18047 
0.86998 2.03800 -1.18047 
1.01706 2.12300 -1.22970 
1.02260 2.12300 -1.22970 
1.06893 2.11600 -1.22565 
1.58210 2.19200 -1.26967 
1.63398 2.20800 -1.27894 
1.63975 2.20800 -1.27894 
1.79191 2.16900 -1.25635 
-1.45386 2.12300 -1.23524 
-1.32365 2.10100 -1.22244 
-1.28466 2.10900 -1.22710 
-1.12798 2.09400 -1.21837 
-1.08064 2.08700 -1.21430 
-0.98143 2.07300 -1.20615 
-0.90696 2.10100 -1.22244 
-0.89390 2.10900 -1.22710 
-0.73257 1.98500 -1.15495 
-0.68332 1.94800 -1.13342 
-0.62787 1.99800 -1.16251 
-0.50494 1.96600 -1.14390 
-0.23806 2.10100 -1.22244 
-0.07989 2.12300 -1.23524 
0.14628 2.10900 -1.22710 
0.31570 2.10100 -1.22244 
0.45455 1.92300 -1.11888 
0.56011 1.94100 -1.12935 
0.60250 1.89900 -1.10491 
0.79006 2.09400 -1.21837 
0.81463 2.10100 -1.22244 
0.83847 2.05200 -1.19393 
0.94621 2.10100 -1.22244 
0.96633 2.10900 -1.22710 
1.12043 2.10900 -1.22710 
1.12593 2.10900 -1.22710 
1.14795 2.10900 -1.22710 
1.17937 2.11600 -1.23117 
1.20146 2.11600 -1.23117 
1.42596 2.13800 -1.24397 
1.64472 2.18400 -1.27074 
1.66173 2.16900 -1.26201 
-1.51668 2.08000 -1.21565 
-1.49264 2.12300 -1.24078 
-1.29075 2.10100 -1.22793 
-1.24689 2.10100 -1.22793 
-1.12421 2.08700 -1.21974 
-1.07702 2.08000 -1.21565 
-1.01585 2.06600 -1.20747 
-0.99968 2.06600 -1.20747 
-0.93815 2.07300 -1.21156 
-0.92504 2.08000 -1.21565 
-0.88503 2.10100 -1.22793 
-0.83837 2.09400 -1.22383 
-0.63007 2.00500 -1.17182 
-0.62362 2.01800 -1.17942 
-0.57025 1.97900 -1.15662 
-0.56138 1.96600 -1.14903 
-0.52564 1.92900 -1.12740 
-0.51213 1.93500 -1.13091 
-0.40531 2.08700 -1.21974 
-0.27006 2.09400 -1.22383 
-0.25913 2.09400 -1.22383 
-0.05185 2.10900 -1.23260 
0.09675 2.10900 -1.23260 
0.14573 2.10100 -1.22793 
0.27183 2.10100 -1.22793 
0.34700 2.05900 -1.20338 
0.36115 2.01800 -1.17942 
0.38959 1.87600 -1.09643 
0.44174 1.91100 -1.11688 
0.56722 1.94800 -1.13851 
0.64116 1.94100 -1.13441 
0.70061 2.02500 -1.18351 
0.77392 2.08000 -1.21565 
0.84338 2.03800 -1.19111 
0.97363 2.10100 -1.22793 
1.00652 2.10100 -1.22793 
1.12166 2.10100 -1.22793 
1.13811 2.10100 -1.22793 
1.14359 2.10100 -1.22793 
1.20849 2.10900 -1.23260 
1.23680 2.10100 -1.22793 
1.24228 2.10100 -1.22793 
1.30259 2.10100 -1.22793 
1.31904 2.10100 -1.22793 
1.34608 2.10900 -1.23260 
1.36711 2.11600 -1.23669 
1.39934 2.12300 -1.24078 
1.51027 2.13100 -1.24546 
1.67703 2.13800 -1.24955 
-1.59273 2.07300 -1.21697 
-1.44977 2.10900 -1.23811 
-1.08421 2.07300 -1.21697 
-1.03928 2.05900 -1.20875 
-1.02853 2.05900 -1.20875 
-0.98220 2.05200 -1.20464 
-0.93498 2.06600 -1.21286 
-0.90092 2.08700 -1.22519 
-0.66807 1.94800 -1.14359 
-0.63739 1.97900 -1.16179 
-0.59552 2.01200 -1.18116 
-0.49795 1.97900 -1.16179 
-0.44587 2.07300 -1.21697 
-0.38224 2.08000 -1.22108 
-0.22559 2.08700 -1.22519 
-0.15426 2.08000 -1.22108 
-0.04055 2.09400 -1.22930 
-0.02962 2.09400 -1.22930 
0.24361 2.09400 -1.22930 
0.28186 2.09400 -1.22930 
0.30815 2.08700 -1.22519 
0.31359 2.08700 -1.22519 
0.36100 1.96000 -1.15063 
0.53654 1.96600 -1.15416 
0.67641 1.98500 -1.16531 
0.82541 2.07300 -1.21697 
0.84870 2.03800 -1.19642 
1.04689 2.09400 -1.22930 
1.08514 2.09400 -1.22930 
1.11963 2.08700 -1.22519 
1.13597 2.08700 -1.22519 
1.25579 2.08700 -1.22519 
1.41129 2.11600 -1.24221 
1.54330 2.14600 -1.25983 
1.60512 2.16900 -1.27333 
1.62699 2.15300 -1.26394 
1.63850 2.14600 -1.25983 
1.67154 2.13100 -1.25102 
1.78971 2.14600 -1.25983 
-1.60895 2.07300 -1.22238 
-1.52265 2.06600 -1.21825 
-1.48265 2.10100 -1.23889 
-1.44975 2.10100 -1.23889 
-1.32765 2.07300 -1.22238 
-1.26157 2.08000 -1.22651 
-1.23986 2.08000 -1.22651 
-1.16682 2.06600 -1.21825 
-1.06614 2.05900 -1.21413 
-0.93182 2.05900 -1.21413 
-0.85990 2.08000 -1.22651 
-0.83537 2.07300 -1.22238 
-0.65173 1.96000 -1.15575 
-0.52903 1.92300 -1.13393 
-0.51899 1.92300 -1.13393 
-0.51054 1.92900 -1.13747 
-0.49644 1.97300 -1.16341 
-0.43749 2.05900 -1.21413 
-0.15969 2.08000 -1.22651 
-0.14884 2.08000 -1.22651 
-0.09551 2.10100 -1.23889 
-0.03508 2.09400 -1.23476 
-0.02952 2.08700 -1.23064 
0.02503 2.09400 -1.23476 
0.04142 2.09400 -1.23476 
0.08514 2.09400 -1.23476 
0.09060 2.09400 -1.23476 
0.34714 1.99800 -1.17816 
0.36081 1.90500 -1.12332 
0.39091 1.85900 -1.09619 
0.42410 1.89900 -1.11978 
0.52301 1.97300 -1.16341 
0.57071 1.96000 -1.15575 
0.61347 1.88700 -1.11270 
0.62926 1.90500 -1.12332 
0.79295 2.07300 -1.22238 
0.80377 2.07300 -1.22238 
0.82000 2.07300 -1.22238 
0.82262 2.06600 -1.21825 
0.93360 2.07300 -1.22238 
0.96932 2.08000 -1.22651 
1.07062 2.08700 -1.23064 
1.08151 2.08700 -1.23064 
1.12131 2.08000 -1.22651 
1.21358 2.08000 -1.22651 
1.30481 2.08700 -1.23064 
1.35742 2.10100 -1.23889 
1.52122 2.12300 -1.25186 
1.54871 2.13800 -1.26071 
1.60452 2.15300 -1.26955 
-1.62524 2.08000 -1.23194 
-1.59273 2.07300 -1.22779 
-1.47277 2.08700 -1.23608 
-1.31868 2.05900 -1.21950 
-1.24650 2.07300 -1.22779 
-1.24109 2.07300 -1.22779 
-1.21534 2.06600 -1.22364 
-1.03221 2.04500 -1.21121 
-1.02154 2.04500 -1.21121 
-0.97550 2.03800 -1.20706 
-0.92865 2.05200 -1.21535 
-0.66567 1.94100 -1.14961 
-0.63118 1.99200 -1.17982 
-0.60782 2.01800 -1.19522 
-0.51899 1.92300 -1.13895 
-0.47254 2.02500 -1.19936 
-0.43600 2.05200 -1.21535 
-0.35032 2.05200 -1.21535 
-0.34496 2.05200 -1.21535 
-0.26282 2.08000 -1.23194 
-0.19769 2.08000 -1.23194 
-0.15374 2.07300 -1.22779 
-0.14834 2.07300 -1.22779 
0.04673 2.08700 -1.23608 
0.11753 2.08700 -1.23608 
0.18896 2.09400 -1.24023 
0.25826 2.08000 -1.23194 
0.35026 1.92900 -1.14250 
0.49511 1.98500 -1.17567 
0.50547 1.98500 -1.17567 
0.52816 1.97300 -1.16856 
0.74765 2.03800 -1.20706 
1.01275 2.08000 -1.23194 
1.12131 2.08000 -1.23194 
1.15540 2.07300 -1.22779 
1.17163 2.07300 -1.22779 
1.17846 2.06600 -1.22364 
1.30043 2.08000 -1.23194 
1.34293 2.08700 -1.23608 
1.34838 2.08700 -1.23608 
1.64310 2.12300 -1.25740 
1.79944 2.13100 -1.26214 
-1.46240 2.08000 -1.23736 
-1.36842 2.04500 -1.21654 
-1.35775 2.04500 -1.21654 
-1.35241 2.04500 -1.21654 
-1.34707 2.04500 -1.21654 
-1.31505 2.04500 -1.21654 
-1.29371 2.04500 -1.21654 
-1.28303 2.04500 -1.21654 
-1.15496 2.04500 -1.21654 
-1.11226 2.04500 -1.21654 
-1.01804 2.03800 -1.21238 
-0.98513 2.02500 -1.20465 
-0.94081 2.03200 -1.20881 
-0.82691 2.05200 -1.22071 
-0.66867 1.93500 -1.15111 
-0.42384 2.04500 -1.21654 
-0.26645 2.06600 -1.22904 
0.00857 2.08000 -1.23736 
0.06307 2.08700 -1.24153 
0.08999 2.08000 -1.23736 
0.09542 2.08000 -1.23736 
0.42812 1.91700 -1.14040 
0.49166 1.99200 -1.18501 
0.52976 1.97900 -1.17728 
0.56935 1.97300 -1.17371 
0.78492 2.05200 -1.22071 
0.82240 2.05200 -1.22071 
0.93267 2.05900 -1.22487 
0.96819 2.06600 -1.22904 
1.11212 2.07300 -1.23320 
1.39195 2.08700 -1.24153 
1.43552 2.08700 -1.24153 
1.46275 2.08700 -1.24153 
1.53829 2.11600 -1.25878 
1.57108 2.12300 -1.26294 
1.59878 2.12300 -1.26294 
1.61540 2.12300 -1.26294 
1.63769 2.11600 -1.25878 
1.73156 2.11600 -1.25878 
1.75945 2.12300 -1.26294 
1.79269 2.12300 -1.26294 
-1.57656 2.06600 -1.23443 
-1.48049 2.04500 -1.22188 
-1.24034 2.04500 -1.22188 
-1.21899 2.04500 -1.22188 
-1.18291 2.03800 -1.21770 
-1.17759 2.03800 -1.21770 
-1.09250 2.03800 -1.21770 
-0.78180 2.00500 -1.19798 
-0.72197 1.92900 -1.15257 
-0.63320 1.96600 -1.17468 
-0.62598 1.99200 -1.19021 
-0.60391 2.00500 -1.19798 
-0.54243 1.93500 -1.15616 
-0.47874 1.98500 -1.18603 
-0.47523 1.99200 -1.19021 
-0.37581 2.04500 -1.22188 
-0.20784 2.07300 -1.23861 
-0.19636 2.06600 -1.23443 
-0.14196 2.05900 -1.23024 
0.20800 2.06600 -1.23443 
0.22956 2.06600 -1.23443 
0.30728 2.04500 -1.22188 
0.34372 1.89300 -1.13106 
0.57624 1.97900 -1.18245 
0.67155 1.94100 -1.15974 
0.81960 2.04500 -1.22188 
0.89393 2.03200 -1.21411 
0.93486 2.05200 -1.22606 
1.03289 2.06600 -1.23443 
1.07063 2.06600 -1.23443 
1.09219 2.06600 -1.23443 
1.19440 2.03800 -1.21770 
1.30246 2.06600 -1.23443 
1.37642 2.08000 -1.24279 
1.56072 2.10900 -1.26012 
-1.48699 2.03200 -1.21942 
-1.48074 2.03800 -1.22302 
-1.29769 2.01800 -1.21101 
-1.27136 2.01800 -1.21101 
-1.21764 2.02500 -1.21521 
-1.21236 2.02500 -1.21521 
-1.18594 2.02500 -1.21521 
-1.17537 2.02500 -1.21521 
-1.11338 2.01800 -1.21101 
-1.10138 2.02500 -1.21521 
-0.96305 2.01200 -1.20741 
-0.89839 2.03200 -1.21942 
-0.84786 2.03800 -1.22302 
-0.81074 2.02500 -1.21521 
-0.78704 2.00500 -1.20321 
-0.73431 1.93500 -1.16120 
-0.67745 1.91700 -1.15040 
-0.66362 1.93500 -1.16120 
-0.46483 1.99200 -1.19541 
-0.43931 2.01800 -1.21101 
-0.43026 2.02500 -1.21521 
-0.41054 2.03200 -1.21942 
-0.40523 2.03200 -1.21942 
-0.37342 2.03200 -1.21942 
-0.18495 2.05900 -1.23562 
-0.15219 2.05200 -1.23142 
-0.12006 2.05200 -1.23142 
-0.10935 2.05200 -1.23142 
-0.06157 2.06600 -1.23982 
-0.00766 2.06600 -1.23982 
0.09983 2.05900 -1.23562 
0.12627 2.05200 -1.23142 
0.23872 2.05200 -1.23142 
0.33307 1.91700 -1.15040 
0.44658 1.95400 -1.17261 
0.50725 1.99200 -1.19541 
0.52101 1.98500 -1.19121 
0.64915 1.90500 -1.14320 
0.69134 1.95400 -1.17261 
0.71568 1.97900 -1.18761 
0.90984 2.03200 -1.21942 
0.97769 2.05200 -1.23142 
1.11157 2.05200 -1.23142 
1.14653 2.03800 -1.22302 
1.27757 2.05200 -1.23142 
1.40899 2.08000 -1.24822 
1.54932 2.10100 -1.26082 
1.59925 2.10900 -1.26562 
1.60475 2.10900 -1.26562 
1.73133 2.10900 -1.26562 
1.74812 2.11600 -1.26982 
-1.54982 2.05200 -1.23677 
-1.15732 2.01200 -1.21266 
-1.06806 2.01200 -1.21266 
-1.06281 2.01200 -1.21266 
-1.03965 2.01800 -1.21628 
-0.96678 1.99800 -1.20423 
-0.69807 1.90500 -1.14817 
-0.38270 2.02500 -1.22050 
-0.36685 2.02500 -1.22050 
-0.35505 2.01800 -1.21628 
-0.29815 2.02500 -1.22050 
-0.21109 2.05200 -1.23677 
-0.14633 2.04500 -1.23255 
-0.13566 2.04500 -1.23255 
-0.01300 2.05900 -1.24099 
0.08878 2.05200 -1.23677 
0.15200 2.03800 -1.22833 
0.26368 2.03800 -1.22833 
0.29371 2.02500 -1.22050 
0.47439 1.98500 -1.19639 
0.49166 1.99200 -1.20061 
0.61202 1.92900 -1.16264 
0.80101 2.02500 -1.22050 
0.82984 2.01800 -1.21628 
0.86938 2.01200 -1.21266 
0.99571 2.04500 -1.23255 
1.05441 2.04500 -1.23255 
1.20791 2.02500 -1.22050 
1.23860 2.03200 -1.22472 
1.31505 2.05200 -1.23677 
1.37255 2.06600 -1.24521 
1.53869 2.09400 -1.26209 
1.60963 2.10100 -1.26631 
1.66984 2.09400 -1.26209 
-1.58197 2.05900 -1.24636 
-1.51880 2.03200 -1.23002 
-1.44883 2.03800 -1.23365 
-1.33176 1.99800 -1.20944 
-1.32133 1.99800 -1.20944 
-1.24458 1.99200 -1.20581 
-1.17701 1.99200 -1.20581 
-1.17012 1.99800 -1.20944 
-1.14927 1.99800 -1.20944 
-1.09713 1.99800 -1.20944 
-1.04865 2.00500 -1.21368 
-0.96678 1.99800 -1.20944 
-0.92307 2.00500 -1.21368 
-0.89746 2.01800 -1.22155 
-0.89220 2.01800 -1.22155 
-0.76192 1.95400 -1.18281 
-0.74210 1.92900 -1.16767 
-0.70304 1.90500 -1.15314 
-0.69310 1.90500 -1.15314 
-0.63757 1.94800 -1.17917 
-0.62001 1.97300 -1.19431 
-0.48688 1.93500 -1.17130 
-0.40244 2.01800 -1.22155 
-0.31199 2.01200 -1.21791 
-0.27173 2.02500 -1.22578 
-0.06095 2.04500 -1.23789 
-0.01832 2.05200 -1.24213 
0.15631 2.02500 -1.22578 
0.35158 1.83100 -1.10835 
0.42577 1.92900 -1.16767 
0.45607 1.97300 -1.19431 
0.46263 1.97900 -1.19794 
0.59509 1.97300 -1.19431 
0.62332 1.88700 -1.14225 
0.63149 1.88200 -1.13922 
0.68753 1.92900 -1.16767 
0.69472 1.93500 -1.17130 
0.73634 1.97900 -1.19794 
0.86112 2.00500 -1.21368 
1.14240 2.01200 -1.21791 
1.34183 2.05200 -1.24213 
1.50126 2.08000 -1.25908 
1.68623 2.09400 -1.26755 
1.69170 2.09400 -1.26755 
-1.54987 2.04500 -1.24323 
-1.43926 2.03200 -1.23532 
-1.42756 2.03800 -1.23897 
-1.30237 1.98500 -1.20675 
-1.27647 1.98500 -1.20675 
-1.17449 1.97900 -1.20310 
-1.13661 1.98500 -1.20675 
-1.09517 1.98500 -1.20675 
-0.95531 1.98500 -1.20675 
-0.84229 2.01200 -1.22316 
-0.82366 2.00500 -1.21891 
-0.62424 1.95400 -1.18790 
-0.61781 1.96600 -1.19520 
-0.55253 1.93500 -1.17635 
-0.48888 1.92300 -1.16906 
-0.44248 1.98500 -1.20675 
-0.40125 2.01200 -1.22316 
-0.37499 2.01200 -1.22316 
-0.30567 2.00500 -1.21891 
-0.08707 2.03200 -1.23532 
0.08761 2.02500 -1.23107 
0.25507 2.01200 -1.22316 
0.28979 1.99800 -1.21465 
0.30474 1.96000 -1.19155 
0.36691 1.83600 -1.11617 
0.37998 1.85300 -1.12650 
0.60024 1.97300 -1.19946 
0.61583 1.94100 -1.18000 
0.95955 2.02500 -1.23107 
1.04410 2.02500 -1.23107 
1.08262 2.01800 -1.22681 
1.15531 1.99800 -1.21465 
1.16574 1.99800 -1.21465 
1.28718 2.02500 -1.23107 
1.30754 2.03200 -1.23532 
1.33725 2.04500 -1.24323 
1.35789 2.05200 -1.24748 
1.55554 2.08000 -1.26450 
-1.29327 1.97900 -1.20827 
-1.28811 1.97900 -1.20827 
-1.23786 1.97300 -1.20460 
-1.08340 1.97300 -1.20460 
-1.07310 1.97300 -1.20460 
-1.06280 1.97300 -1.20460 
-1.05054 1.97900 -1.20827 
-1.02783 1.98500 -1.21193 
-0.99506 1.99200 -1.21620 
-0.87814 1.99800 -1.21987 
-0.84982 2.00500 -1.22414 
-0.83413 2.00500 -1.22414 
-0.67035 1.91100 -1.16675 
-0.63249 1.94800 -1.18934 
-0.52407 1.90500 -1.16309 
-0.51413 1.90500 -1.16309 
-0.48735 1.91700 -1.17041 
-0.42325 1.99200 -1.21620 
-0.27523 2.01200 -1.22842 
-0.25948 2.01200 -1.22842 
-0.24446 2.01800 -1.23208 
-0.20233 2.01800 -1.23208 
-0.19180 2.01800 -1.23208 
-0.10722 2.01200 -1.22842 
-0.06541 2.01800 -1.23208 
0.01898 2.03200 -1.24063 
0.17508 1.99800 -1.21987 
0.18551 1.99800 -1.21987 
0.19663 2.00500 -1.22414 
0.25851 1.99800 -1.21987 
0.27415 1.99800 -1.21987 
0.51943 1.97900 -1.20827 
0.54526 1.97900 -1.20827 
0.60324 1.96600 -1.20033 
0.63927 1.87600 -1.14538 
0.71492 1.93500 -1.18140 
0.96150 2.01800 -1.23208 
1.01639 2.01200 -1.22842 
1.08611 2.00500 -1.22414 
1.17783 1.99200 -1.21620 
1.37396 2.05200 -1.25284 
1.41029 2.06600 -1.26138 
1.44753 2.07300 -1.26566 
-1.58189 2.04500 -1.25390 
-1.48816 2.00500 -1.22937 
-1.36304 1.99800 -1.22508 
-1.24886 1.96600 -1.20546 
-1.21948 1.96000 -1.20178 
-1.08469 1.96600 -1.20546 
-1.05903 1.96600 -1.20546 
-0.93409 1.97300 -1.20975 
-0.61081 1.96000 -1.20178 
-0.45965 1.94800 -1.19442 
-0.42049 1.97900 -1.21343 
-0.39206 1.99200 -1.22140 
-0.36087 1.99200 -1.22140 
-0.32968 1.99200 -1.22140 
0.08675 2.00500 -1.22937 
0.10178 1.99200 -1.22140 
0.15230 1.97300 -1.20975 
0.28102 1.97300 -1.20975 
0.28851 1.95400 -1.19810 
0.30116 1.90500 -1.16806 
0.31144 1.84800 -1.13311 
0.31813 1.83100 -1.12268 
0.57964 1.97300 -1.20975 
0.60651 1.96000 -1.20178 
0.62712 1.92900 -1.18277 
0.68060 1.88200 -1.15396 
0.75484 1.96000 -1.20178 
0.80864 1.97900 -1.21343 
0.84437 1.96600 -1.20546 
0.85463 1.96600 -1.20546 
0.96577 2.00500 -1.22937 
0.98669 2.00500 -1.22937 
1.00932 1.99800 -1.22508 
1.04060 1.99800 -1.22508 
1.08946 1.99200 -1.22140 
1.10117 1.98500 -1.21711 
1.12189 1.98500 -1.21711 
1.12707 1.98500 -1.21711 
1.14949 1.97900 -1.21343 
1.22738 2.00500 -1.22937 
1.55572 2.07300 -1.27107 
1.56654 2.07300 -1.27107 
1.57736 2.07300 -1.27107 
1.70210 2.08000 -1.27536 
1.73506 2.08700 -1.27965 
1.75140 2.08700 -1.27965 
-1.45689 1.99800 -1.23030 
-1.41459 2.01200 -1.23892 
-1.28085 1.96000 -1.20690 
-1.22971 1.96000 -1.20690 
-1.19535 1.95400 -1.20320 
-1.18005 1.95400 -1.20320 
-1.16985 1.95400 -1.20320 
-1.12396 1.95400 -1.20320 
-1.06277 1.95400 -1.20320 
-1.00102 1.97300 -1.21490 
-0.88279 1.98500 -1.22229 
-0.80782 1.97900 -1.21860 
-0.65448 1.92300 -1.18411 
-0.52077 1.89300 -1.16564 
-0.47586 1.91100 -1.17672 
-0.45658 1.93500 -1.19150 
-0.26810 1.99800 -1.23030 
-0.25246 1.99800 -1.23030 
-0.11655 1.99200 -1.22660 
0.06582 2.00500 -1.23461 
0.07105 2.00500 -1.23461 
0.15689 1.96600 -1.21059 
0.28570 1.93500 -1.19150 
0.30261 1.85300 -1.14101 
0.32375 1.80900 -1.11392 
0.48697 1.97300 -1.21490 
0.50756 1.97300 -1.21490 
0.51271 1.97300 -1.21490 
0.52301 1.97300 -1.21490 
0.52816 1.97300 -1.21490 
0.57246 1.96600 -1.21059 
0.63423 1.90500 -1.17303 
0.66348 1.84800 -1.13793 
0.81110 1.96000 -1.20690 
0.82134 1.96000 -1.20690 
0.83922 1.95400 -1.20320 
0.93871 1.99200 -1.22660 
1.05455 1.98500 -1.22229 
1.09785 1.97900 -1.21860 
1.22831 1.99800 -1.23030 
1.37461 2.04500 -1.25924 
1.45964 2.05200 -1.26355 
1.61523 2.07300 -1.27648 
1.62595 2.06600 -1.27217 
-1.44107 2.00500 -1.23984 
-1.16626 1.94800 -1.20459 
-1.02511 1.96000 -1.21201 
-0.96885 1.96000 -1.21201 
-0.55412 1.92300 -1.18913 
-0.47436 1.90500 -1.17800 
-0.45734 1.91700 -1.18542 
-0.43179 1.96000 -1.21201 
-0.38181 1.96600 -1.21572 
-0.37668 1.96600 -1.21572 
-0.35616 1.96600 -1.21572 
-0.34198 1.97300 -1.22005 
-0.32654 1.97300 -1.22005 
-0.27154 1.98500 -1.22747 
-0.25170 1.99200 -1.23180 
-0.23091 1.99200 -1.23180 
-0.19384 1.98500 -1.22747 
-0.13645 1.97900 -1.22376 
-0.10546 1.97900 -1.22376 
-0.07964 1.97900 -1.22376 
-0.03337 1.99200 -1.23180 
-0.01258 1.99200 -1.23180 
0.11038 1.96000 -1.21201 
0.21408 1.97300 -1.22005 
0.21923 1.97300 -1.22005 
0.27646 1.94100 -1.20026 
0.29777 1.85300 -1.14585 
0.31061 1.81500 -1.12235 
0.34850 1.81500 -1.12235 
0.44521 1.94800 -1.20459 
0.49550 1.96600 -1.21572 
0.52628 1.96600 -1.21572 
0.62907 1.93500 -1.19655 
0.69090 1.87000 -1.15636 
1.13168 1.96600 -1.21572 
1.18205 1.97300 -1.22005 
1.36057 2.03200 -1.25653 
1.37522 2.03800 -1.26024 
1.39062 2.04500 -1.26457 
1.48134 2.04500 -1.26457 
1.52909 2.05900 -1.27323 
1.60969 2.05900 -1.27323 
1.61506 2.05900 -1.27323 
1.66908 2.06600 -1.27756 
1.68525 2.06600 -1.27756 
1.71260 2.07300 -1.28189 
-1.50909 2.00500 -1.24507 
-1.42537 2.00500 -1.24507 
-1.36971 1.98500 -1.23265 
-1.36041 1.97900 -1.22892 
-1.12051 1.94800 -1.20967 
-1.08492 1.94800 -1.20967 
-1.01375 1.94800 -1.20967 
-0.96800 1.94800 -1.20967 
-0.95275 1.94800 -1.20967 
-0.91259 1.96000 -1.21713 
-0.85381 1.96600 -1.22085 
-0.63837 1.93500 -1.20160 
-0.60707 1.94800 -1.20967 
-0.55239 1.91700 -1.19042 
-0.30079 1.97300 -1.22520 
-0.25006 1.97900 -1.22892 
-0.24564 1.98500 -1.23265 
-0.18293 1.97900 -1.22892 
0.06516 1.98500 -1.23265 
0.12450 1.94100 -1.20533 
0.22802 1.96000 -1.21713 
0.24771 1.95400 -1.21340 
0.26633 1.94100 -1.20533 
0.30873 1.80400 -1.12025 
0.34169 1.80400 -1.12025 
0.46698 1.95400 -1.21340 
0.47864 1.96000 -1.21713 
0.50933 1.96000 -1.21713 
0.59263 1.94800 -1.20967 
0.59557 1.94100 -1.20533 
0.63640 1.88200 -1.16869 
0.73098 1.91100 -1.18670 
0.82350 1.94100 -1.20533 
0.83611 1.93500 -1.20160 
0.84621 1.93500 -1.20160 
0.85125 1.93500 -1.20160 
0.85630 1.93500 -1.20160 
1.01058 1.96000 -1.21713 
1.01570 1.96000 -1.21713 
1.12311 1.96000 -1.21713 
1.24021 1.99200 -1.23700 
1.27523 1.99800 -1.24072 
1.42950 2.03200 -1.26184 
1.66342 2.05900 -1.27860 
1.72838 2.06600 -1.28295 
-1.44646 1.99800 -1.24594 
-1.35628 1.97300 -1.23035 
-1.26844 1.94100 -1.21039 
-1.26793 1.94800 -1.21476 
-1.23805 1.94100 -1.21039 
-1.11141 1.94100 -1.21039 
-0.90469 1.95400 -1.21850 
-0.88940 1.95400 -1.21850 
-0.81291 1.95400 -1.21850 
-0.77492 1.92300 -1.19917 
-0.69234 1.87600 -1.16986 
-0.67491 1.88200 -1.17360 
-0.64142 1.92900 -1.20291 
-0.55914 1.92300 -1.19917 
-0.44733 1.91700 -1.19543 
-0.42915 1.94800 -1.21476 
-0.41390 1.94800 -1.21476 
-0.17659 1.96600 -1.22598 
-0.15559 1.96000 -1.22224 
-0.10445 1.96000 -1.22224 
0.14387 1.92900 -1.20291 
0.14890 1.92900 -1.20291 
0.22154 1.94800 -1.21476 
0.27862 1.88700 -1.17672 
0.31153 1.79300 -1.11810 
0.33604 1.79900 -1.12184 
0.38959 1.87600 -1.16986 
0.40300 1.89300 -1.18046 
0.52307 1.95400 -1.21850 
0.53671 1.94800 -1.21476 
0.54180 1.94800 -1.21476 
0.58544 1.94100 -1.21039 
0.62403 1.93500 -1.20665 
0.63019 1.92300 -1.19917 
0.69654 1.85900 -1.15926 
0.76067 1.92300 -1.19917 
0.77070 1.92300 -1.19917 
1.01259 1.95400 -1.21850 
1.01769 1.95400 -1.21850 
1.06868 1.95400 -1.21850 
1.07888 1.95400 -1.21850 
1.23068 1.98500 -1.23783 
1.30652 1.99800 -1.24594 
1.38806 2.01800 -1.25841 
1.51870 2.04500 -1.27525 
1.52403 2.04500 -1.27525 
1.67383 2.05200 -1.27961 
1.68454 2.05200 -1.27961 
-1.47849 1.98500 -1.24301 
-1.47331 1.98500 -1.24301 
-1.44732 1.99200 -1.24739 
-1.28471 1.93500 -1.21170 
-1.27966 1.93500 -1.21170 
-1.23298 1.94100 -1.21546 
-1.03728 1.93500 -1.21170 
-1.02214 1.93500 -1.21170 
-0.95353 1.92900 -1.20794 
-0.92114 1.93500 -1.21170 
-0.79490 1.93500 -1.21170 
-0.67765 1.87600 -1.17475 
-0.66193 1.88700 -1.18164 
-0.59476 1.94100 -1.21546 
-0.58674 1.94800 -1.21984 
-0.38589 1.93500 -1.21170 
-0.37579 1.93500 -1.21170 
-0.36064 1.93500 -1.21170 
-0.20225 1.96600 -1.23111 
-0.13431 1.94800 -1.21984 
0.15897 1.92900 -1.20794 
0.19104 1.94800 -1.21984 
0.23594 1.94100 -1.21546 
0.36113 1.83100 -1.14658 
0.39680 1.88700 -1.18164 
0.50113 1.94800 -1.21984 
0.53985 1.94100 -1.21546 
0.63423 1.90500 -1.19291 
0.78576 1.92300 -1.20419 
0.81338 1.92900 -1.20794 
0.88385 1.92900 -1.20794 
1.04506 1.94800 -1.21984 
1.09703 1.94100 -1.21546 
1.11623 1.94800 -1.21984 
1.12235 1.94100 -1.21546 
1.13148 1.94800 -1.21984 
1.17576 1.95400 -1.22360 
1.45652 2.01800 -1.26368 
1.57267 2.03200 -1.27244 
1.61987 2.03800 -1.27620 
-1.56627 2.01800 -1.26894 
-1.41115 1.98500 -1.24819 
-1.34322 1.95400 -1.22870 
-1.18877 1.93500 -1.21675 
-1.16857 1.93500 -1.21675 
-1.07263 1.93500 -1.21675 
-1.04917 1.92900 -1.21298 
-1.03407 1.92900 -1.21298 
-0.97063 1.92300 -1.20920 
-0.94259 1.91700 -1.20543 
-0.91829 1.92900 -1.21298 
