ply
format ascii 1.0
comment pointcloud saved from Realsense Viewer
element vertex 1807
property float32 x
property float32 y
property float32 z
end_header
-1.52399 2.19200 -0.49172 
-1.28537 2.35200 -0.52761 
-1.17079 2.44600 -0.54870 
-1.13531 2.46600 -0.55318 
-1.07303 2.45600 -0.55094 
-1.00115 2.51700 -0.56462 
-0.42565 1.97900 -0.44394 
-0.38950 1.97900 -0.44394 
-0.30889 1.99200 -0.44685 
-0.30044 2.00500 -0.44977 
-0.28801 2.06600 -0.46345 
-0.31033 2.87100 -0.64403 
-0.30284 2.87100 -0.64403 
-0.29056 2.89800 -0.65009 
-0.25763 2.95400 -0.66265 
-0.12491 3.10400 -0.69630 
-0.08571 3.15200 -0.70707 
-0.05336 3.18500 -0.71447 
0.05441 3.16900 -0.71088 
0.33519 2.81800 -0.63214 
0.29613 2.20000 -0.49351 
0.34527 2.18400 -0.48992 
0.39372 2.20000 -0.49351 
0.40373 2.19200 -0.49172 
0.47366 2.14600 -0.48140 
0.52211 2.13800 -0.47960 
0.58007 2.14600 -0.48140 
0.58567 2.14600 -0.48140 
0.59687 2.14600 -0.48140 
0.61367 2.14600 -0.48140 
0.73413 2.13800 -0.47960 
0.74807 2.14600 -0.48140 
0.76741 2.16900 -0.48656 
1.42236 2.96900 -0.66602 
1.49250 2.74200 -0.61510 
1.65308 2.56900 -0.57629 
1.65287 2.54800 -0.57158 
1.61116 2.31600 -0.51953 
1.71163 2.26500 -0.50809 
1.72954 2.27300 -0.50989 
1.86330 2.35200 -0.52761 
1.82784 2.24800 -0.50428 
1.75391 2.12300 -0.47624 
-1.60961 2.14600 -0.48700 
-1.57542 2.18400 -0.49562 
-1.54692 2.18400 -0.49562 
-1.43531 2.23200 -0.50652 
-1.33549 2.34300 -0.53171 
-1.27434 2.34300 -0.53171 
-1.25046 2.37900 -0.53987 
-1.20603 2.42700 -0.55077 
-1.18994 2.44600 -0.55508 
-1.17079 2.44600 -0.55508 
-1.12430 2.45600 -0.55735 
-1.01885 2.49600 -0.56643 
-1.00115 2.51700 -0.57119 
-0.98689 2.54800 -0.57823 
-0.97359 2.54800 -0.57823 
-0.93104 2.55900 -0.58072 
-0.54090 1.98500 -0.45046 
-0.52202 1.99200 -0.45205 
-0.42694 1.98500 -0.45046 
-0.35851 1.97900 -0.44910 
-0.31408 1.99200 -0.45205 
-0.29185 2.01800 -0.45795 
-0.07790 3.16900 -0.71915 
-0.02843 3.18500 -0.72278 
-0.01181 3.18500 -0.72278 
-0.00348 3.16900 -0.71915 
0.05441 3.16900 -0.71915 
0.18867 3.20200 -0.72664 
0.20648 3.21900 -0.73050 
0.25110 3.25300 -0.73821 
0.33908 3.20200 -0.72664 
0.37076 2.20000 -0.49925 
0.38224 2.20000 -0.49925 
0.44314 2.16100 -0.49040 
0.62812 2.13800 -0.48518 
0.72616 2.13100 -0.48360 
0.75367 2.14600 -0.48700 
0.77022 2.16100 -0.49040 
1.27170 3.07300 -0.69737 
1.28638 3.08900 -0.70100 
1.41065 3.02700 -0.68693 
1.41855 3.02700 -0.68693 
1.42128 2.98300 -0.67694 
1.42885 2.85800 -0.64858 
1.49965 2.74200 -0.62225 
1.59966 2.64700 -0.60069 
1.61377 2.62500 -0.59570 
1.63343 2.59100 -0.58798 
1.65898 2.53700 -0.57573 
1.61782 2.36100 -0.53579 
1.62920 2.28200 -0.51786 
1.69970 2.25700 -0.51219 
1.81038 2.30800 -0.52376 
1.81640 2.30800 -0.52376 
1.83447 2.30800 -0.52376 
1.83931 2.29900 -0.52172 
1.75181 2.09400 -0.47520 
-1.59856 2.16900 -0.49788 
-1.53552 2.18400 -0.50132 
-1.52399 2.19200 -0.50316 
-1.46550 2.21600 -0.50867 
-1.45971 2.21600 -0.50867 
-1.42291 2.24000 -0.51418 
-1.26823 2.34300 -0.53782 
-1.24716 2.36100 -0.54195 
-1.22290 2.39800 -0.55044 
-1.19778 2.43600 -0.55917 
-1.16440 2.44600 -0.56146 
-1.01885 2.49600 -0.57294 
-0.99458 2.51700 -0.57776 
-0.93772 2.55900 -0.58740 
-0.66767 2.07300 -0.47584 
-0.61744 1.99800 -0.45863 
-0.56509 1.97900 -0.45427 
-0.53761 1.99200 -0.45725 
-0.52721 1.99200 -0.45725 
-0.46697 1.97900 -0.45427 
-0.38434 1.97900 -0.45427 
-0.32074 2.70600 -0.62114 
-0.28436 2.91200 -0.66843 
-0.20180 3.04200 -0.69827 
0.09625 3.18500 -0.73109 
0.15443 3.18500 -0.73109 
0.31053 3.25300 -0.74670 
0.49046 2.14600 -0.49260 
0.50892 2.15300 -0.49421 
0.66967 2.14600 -0.49260 
0.69835 2.13100 -0.48916 
1.45672 2.74200 -0.62941 
1.64696 2.59100 -0.59475 
1.62969 2.30800 -0.52979 
1.66359 2.24800 -0.51601 
1.66945 2.24800 -0.51601 
1.81802 2.26500 -0.51992 
-1.59266 2.16100 -0.50168 
-1.55829 2.17600 -0.50516 
-1.44237 2.21600 -0.51445 
-1.24100 2.36100 -0.54811 
-1.19336 2.42700 -0.56343 
-1.16440 2.44600 -0.56785 
-1.05165 2.46600 -0.57249 
-0.98801 2.51700 -0.58433 
-0.74750 2.24800 -0.52188 
-0.50795 1.99800 -0.46384 
-0.50122 1.99200 -0.46245 
-0.30568 2.89800 -0.67278 
0.22446 3.23600 -0.75125 
0.29684 2.12300 -0.49286 
0.43912 2.16900 -0.50354 
0.45273 2.15300 -0.49982 
0.56489 2.13100 -0.49472 
0.59269 2.13100 -0.49472 
0.61817 2.12300 -0.49286 
0.67275 2.13800 -0.49634 
0.68723 2.13100 -0.49472 
0.73452 2.12300 -0.49286 
1.14939 2.83100 -0.65722 
1.27972 3.07300 -0.71341 
1.57831 2.76700 -0.64237 
1.60022 2.75500 -0.63958 
1.60642 2.60200 -0.60406 
1.61991 2.59100 -0.60151 
1.64638 2.56900 -0.59640 
1.62383 2.34300 -0.54393 
1.64138 2.31600 -0.53767 
1.66533 2.29900 -0.53372 
1.71163 2.26500 -0.52583 
1.71754 2.26500 -0.52583 
1.80665 2.27300 -0.52768 
1.81211 2.26500 -0.52583 
-1.62617 2.13100 -0.50028 
-1.60924 2.15300 -0.50544 
-1.56460 2.16900 -0.50920 
-1.52982 2.18400 -0.51272 
-1.50659 2.20000 -0.51648 
-1.35636 2.31600 -0.54371 
-1.33823 2.31600 -0.54371 
-1.15802 2.44600 -0.57423 
-0.99280 2.49600 -0.58597 
-0.77917 2.32500 -0.54582 
-0.61559 1.99200 -0.46765 
-0.53241 1.99200 -0.46765 
-0.52359 1.99800 -0.46906 
-0.49602 1.99200 -0.46765 
-0.45964 1.99200 -0.46765 
-0.37917 1.97900 -0.46459 
-0.30149 2.01200 -0.47234 
-0.19488 3.05800 -0.71790 
-0.12491 3.10400 -0.72870 
0.28022 2.12300 -0.49840 
0.30908 2.13100 -0.50028 
0.41936 2.18400 -0.51272 
0.49046 2.14600 -0.50380 
0.55933 2.13100 -0.50028 
0.62925 2.12300 -0.49840 
0.64587 2.12300 -0.49840 
0.72105 2.11600 -0.49676 
0.77920 2.10900 -0.49511 
0.79546 2.12300 -0.49840 
1.22866 2.96900 -0.69701 
1.30883 3.10400 -0.72870 
1.33186 3.12000 -0.73246 
1.40913 3.05800 -0.71790 
1.42785 2.87100 -0.67400 
1.46965 2.78000 -0.65264 
1.50676 2.75500 -0.64677 
1.53552 2.75500 -0.64677 
1.56387 2.76700 -0.64959 
1.57831 2.76700 -0.64959 
1.59284 2.60200 -0.61085 
1.63771 2.42700 -0.56977 
1.67203 2.32500 -0.54582 
1.70572 2.26500 -0.53174 
1.72361 2.27300 -0.53361 
1.76040 2.29000 -0.53761 
1.80665 2.27300 -0.53361 
1.78431 2.15300 -0.50544 
-1.65953 2.13100 -0.50584 
-1.64222 2.12300 -0.50394 
-1.63151 2.13800 -0.50750 
-1.61522 2.16100 -0.51296 
-1.60394 2.16100 -0.51296 
-1.57011 2.16100 -0.51296 
-1.41040 2.24800 -0.53361 
-1.38179 2.30800 -0.54785 
-1.26945 2.33400 -0.55403 
-1.21039 2.39800 -0.56922 
-1.20106 2.41700 -0.57373 
-1.13887 2.44600 -0.58061 
-1.03235 2.46600 -0.58536 
-0.90433 2.55900 -0.60743 
-0.54801 1.99200 -0.47285 
-0.52019 2.00500 -0.47593 
-0.51496 2.00500 -0.47593 
-0.48563 1.99200 -0.47285 
-0.43124 2.00500 -0.47593 
-0.40888 1.99800 -0.47427 
-0.32968 1.99200 -0.47285 
-0.30674 2.01200 -0.47759 
0.00474 3.13600 -0.74440 
0.21601 3.23600 -0.76814 
0.33599 3.25300 -0.77217 
0.43486 2.17600 -0.51652 
0.47521 2.15300 -0.51106 
0.59269 2.13100 -0.50584 
0.67611 2.13100 -0.50584 
0.69279 2.13100 -0.50584 
0.70681 2.12300 -0.50394 
0.72105 2.11600 -0.50228 
0.73209 2.11600 -0.50228 
1.42558 3.04200 -0.72209 
1.42724 3.01200 -0.71496 
1.54258 2.74200 -0.65087 
1.63743 2.43600 -0.57824 
1.63066 2.39800 -0.56922 
1.63016 2.37900 -0.56471 
1.76040 2.29000 -0.54358 
-1.54762 2.16900 -0.52052 
-1.52990 2.17600 -0.52220 
-1.40089 2.29000 -0.54956 
-1.32010 2.31600 -0.55580 
-1.26945 2.33400 -0.56012 
-1.20915 2.40800 -0.57788 
-0.98535 2.52700 -0.60643 
-0.62484 2.00500 -0.48116 
-0.36884 1.97900 -0.47492 
-0.36368 1.97900 -0.47492 
-0.33888 1.98500 -0.47636 
-0.24030 3.02700 -0.72642 
-0.21767 3.04200 -0.73002 
-0.21084 3.05800 -0.73386 
-0.16376 3.07300 -0.73746 
0.07962 3.18500 -0.76434 
0.16448 3.21900 -0.77250 
0.26238 3.28800 -0.78906 
0.30696 3.30600 -0.79338 
0.32068 3.27000 -0.78474 
0.34448 3.25300 -0.78066 
0.28280 2.10100 -0.50420 
0.32246 2.14600 -0.51500 
0.36236 2.18400 -0.52412 
0.50892 2.15300 -0.51668 
0.56117 2.13800 -0.51308 
0.63822 2.11600 -0.50780 
0.69019 2.12300 -0.50948 
0.70127 2.12300 -0.50948 
0.74618 2.10900 -0.50612 
1.34000 3.12000 -0.74874 
1.36553 3.10400 -0.74490 
1.40115 3.05800 -0.73386 
1.41764 3.04200 -0.73002 
1.42545 2.91200 -0.69883 
1.44411 2.84400 -0.68251 
1.52055 2.76700 -0.66403 
1.57182 2.69400 -0.64651 
1.57238 2.63600 -0.63259 
1.58605 2.60200 -0.62443 
1.65903 2.52700 -0.60643 
1.71024 2.36100 -0.56660 
1.71450 2.32500 -0.55796 
1.73650 2.29000 -0.54956 
1.82235 2.19200 -0.52604 
-1.49539 2.19200 -0.53176 
-1.47823 2.19200 -0.53176 
-1.24716 2.36100 -0.57276 
-1.23484 2.36100 -0.57276 
-1.18069 2.42700 -0.58877 
-1.15964 2.43600 -0.59095 
-1.02816 2.45600 -0.59580 
-0.99024 2.50600 -0.60793 
-0.95776 2.55900 -0.62079 
-0.92522 2.58000 -0.62589 
-0.89765 2.55900 -0.62079 
-0.63855 2.03200 -0.49295 
-0.60824 1.98500 -0.48154 
-0.46102 1.99800 -0.48470 
-0.24820 3.02700 -0.73432 
0.02100 3.12000 -0.75688 
0.06268 3.16900 -0.76877 
0.12247 3.21900 -0.78090 
0.25380 3.28800 -0.79764 
0.33775 3.27000 -0.79327 
0.33475 2.15300 -0.52230 
0.47521 2.15300 -0.52230 
0.85164 2.15300 -0.52230 
1.00763 2.46600 -0.59823 
1.43482 2.88500 -0.69988 
1.51318 2.78000 -0.67440 
1.51396 2.74200 -0.66518 
1.52908 2.71800 -0.65936 
1.57238 2.63600 -0.63947 
1.56548 2.61300 -0.63389 
1.57230 2.61300 -0.63389 
1.62685 2.61300 -0.63389 
1.66074 2.60200 -0.63122 
1.63727 2.41700 -0.58634 
1.66195 2.39800 -0.58173 
1.81802 2.26500 -0.54947 
-1.63709 2.13800 -0.52424 
-1.40640 2.29900 -0.56372 
-1.26082 2.35200 -0.57671 
-1.23484 2.36100 -0.57892 
-1.23336 2.37000 -0.58113 
-1.21208 2.38900 -0.58578 
-1.18703 2.42700 -0.59510 
-1.04951 2.44600 -0.59976 
-0.83623 2.47600 -0.60712 
-0.61039 1.99200 -0.48844 
-0.57025 1.97900 -0.48525 
-0.55644 1.98500 -0.48672 
-0.54281 1.99200 -0.48844 
-0.32447 2.46600 -0.60467 
-0.34621 2.85800 -0.70078 
-0.24276 3.05800 -0.74982 
-0.06891 3.13600 -0.76895 
0.10567 3.21900 -0.78930 
0.27245 3.30600 -0.81063 
0.33181 3.05800 -0.74982 
0.26739 2.24800 -0.55121 
0.32020 2.13100 -0.52252 
0.37946 2.18400 -0.53552 
0.42918 2.17600 -0.53356 
0.53701 2.15300 -0.52792 
0.59269 2.13100 -0.52252 
0.63270 2.11600 -0.51884 
0.67611 2.13100 -0.52252 
0.69835 2.13100 -0.52252 
0.73762 2.11600 -0.51884 
0.83424 2.10900 -0.51713 
0.86930 2.16900 -0.53184 
1.25190 2.96900 -0.72800 
1.36442 3.12000 -0.76503 
1.41764 3.04200 -0.74590 
1.50400 2.83100 -0.69416 
1.53667 2.69400 -0.66057 
1.55073 2.69400 -0.66057 
1.55822 2.64700 -0.64905 
1.56512 2.64700 -0.64905 
1.55897 2.62500 -0.64365 
1.56568 2.60200 -0.63801 
1.65003 2.40800 -0.59044 
1.79732 2.29900 -0.56372 
1.82338 2.25700 -0.55342 
1.83231 2.23200 -0.54729 
1.84978 2.23200 -0.54729 
1.85476 2.22400 -0.54533 
-1.59830 2.16100 -0.53552 
-1.59266 2.16100 -0.53552 
-1.53064 2.16900 -0.53750 
-1.48993 2.18400 -0.54122 
-1.46066 2.20000 -0.54518 
-1.40791 2.28200 -0.56550 
-1.40588 2.30800 -0.57195 
-1.29489 2.32500 -0.57616 
-1.15536 2.42700 -0.60144 
-1.04098 2.45600 -0.60862 
-1.01948 2.46600 -0.61110 
-0.94542 2.58000 -0.63935 
-0.91849 2.58000 -0.63935 
-0.55126 1.98500 -0.49190 
-0.31400 2.02500 -0.50182 
-0.24276 3.05800 -0.75780 
-0.12491 3.10400 -0.76920 
-0.03581 3.10400 -0.76920 
0.00470 3.10400 -0.76920 
0.35988 2.16900 -0.53750 
0.37239 2.17600 -0.53924 
0.44478 2.16900 -0.53750 
0.56675 2.13800 -0.52982 
1.43994 2.92600 -0.72509 
1.43630 2.85800 -0.70824 
1.44376 2.85800 -0.70824 
1.48864 2.84400 -0.70477 
1.52651 2.81800 -0.69833 
1.52055 2.76700 -0.68569 
1.59963 2.60200 -0.64480 
1.64117 2.62500 -0.65050 
1.65158 2.48600 -0.61606 
1.72713 2.44600 -0.60614 
1.80821 2.29000 -0.56749 
-1.62593 2.13800 -0.53540 
-1.57592 2.16900 -0.54316 
-1.41122 2.24000 -0.56094 
-1.37376 2.32500 -0.58223 
-1.27434 2.34300 -0.58673 
-1.25333 2.36100 -0.59124 
-1.12786 2.43600 -0.61002 
-0.51481 2.02500 -0.50710 
-0.42351 2.01800 -0.50535 
-0.02771 3.10400 -0.77730 
-0.01961 3.10400 -0.77730 
0.17288 3.21900 -0.80610 
0.21601 3.23600 -0.81036 
0.27245 3.30600 -0.82789 
0.28108 3.30600 -0.82789 
0.34268 3.23600 -0.81036 
0.25806 2.12300 -0.53164 
0.73762 2.11600 -0.52989 
0.78488 2.03800 -0.51036 
1.18823 2.81800 -0.70568 
1.30539 3.05800 -0.76578 
1.33313 3.10400 -0.77730 
1.43208 3.07300 -0.76954 
1.44128 2.89800 -0.72572 
1.50349 2.84400 -0.71219 
1.52055 2.76700 -0.69291 
1.52233 2.70600 -0.67764 
1.55131 2.64700 -0.66286 
1.55210 2.60200 -0.65159 
1.57934 2.59100 -0.64884 
1.68076 2.59100 -0.64884 
1.76624 2.45600 -0.61503 
1.84105 2.25700 -0.56520 
1.83074 2.21600 -0.55493 
1.82989 2.20800 -0.55293 
-1.63151 2.13800 -0.54098 
-1.61486 2.15300 -0.54477 
-1.58724 2.16900 -0.54882 
-1.48993 2.18400 -0.55262 
-1.47823 2.19200 -0.55464 
-1.43658 2.21600 -0.56071 
-1.41783 2.23200 -0.56476 
-1.17773 2.40800 -0.60930 
-1.00583 2.49600 -0.63156 
-0.92522 2.58000 -0.65282 
-0.61437 2.00500 -0.50732 
-0.35276 2.00500 -0.50732 
-0.30831 2.09400 -0.52984 
-0.33090 2.46600 -0.62397 
-0.35528 2.87100 -0.72645 
-0.32243 2.98300 -0.75479 
0.17288 3.21900 -0.81450 
0.35160 2.15300 -0.54477 
0.55767 2.14600 -0.54300 
0.69507 2.13800 -0.54098 
0.72060 2.13100 -0.53921 
1.37961 3.13600 -0.79350 
1.45733 3.04200 -0.76972 
1.44757 2.92600 -0.74036 
1.52964 2.69400 -0.68166 
1.78630 2.46600 -0.62397 
1.83332 2.29900 -0.58171 
1.83931 2.29900 -0.58171 
1.84407 2.29000 -0.57944 
1.79531 2.14600 -0.54300 
1.79944 2.13100 -0.53921 
-1.60394 2.16100 -0.55244 
-1.49563 2.18400 -0.55832 
-1.43016 2.22400 -0.56854 
-1.41604 2.25700 -0.57698 
-1.39197 2.32500 -0.59436 
-1.23805 2.37900 -0.60817 
-1.14057 2.43600 -0.62274 
-1.12150 2.43600 -0.62274 
-1.00583 2.49600 -0.63808 
-0.92522 2.58000 -0.65955 
-0.82331 2.47600 -0.63296 
-0.64167 2.05900 -0.52636 
-0.58959 1.99200 -0.50923 
-0.45296 2.03200 -0.51946 
-0.31357 2.20800 -0.56445 
-0.35615 2.94000 -0.75158 
-0.35013 2.95400 -0.75516 
-0.33642 2.96900 -0.75899 
-0.33022 2.98300 -0.76257 
-0.27324 3.04200 -0.77765 
0.09625 3.18500 -0.81421 
0.13087 3.21900 -0.82290 
0.15607 3.21900 -0.82290 
0.18128 3.21900 -0.82290 
0.25721 2.11600 -0.54093 
0.26369 2.08000 -0.53173 
0.29626 2.08000 -0.53173 
0.49572 2.16900 -0.55448 
0.52402 2.16900 -0.55448 
0.56675 2.13800 -0.54656 
1.35505 3.13600 -0.80168 
1.44682 2.94000 -0.75158 
1.54024 2.87100 -0.73394 
1.52871 2.73000 -0.69789 
1.62741 2.63600 -0.67386 
1.76835 2.48600 -0.63552 
1.79096 2.44600 -0.62529 
1.76226 2.31600 -0.59206 
1.77332 2.29900 -0.58771 
1.85549 2.28200 -0.58337 
-1.59856 2.16900 -0.56014 
-1.44113 2.23200 -0.57641 
-1.39735 2.33400 -0.60275 
-1.39126 2.33400 -0.60275 
-1.37908 2.33400 -0.60275 
-1.37299 2.33400 -0.60275 
-1.32726 2.36100 -0.60973 
-1.25192 2.37000 -0.61205 
-1.05157 2.43600 -0.62909 
-0.99587 2.53700 -0.65518 
-0.98689 2.54800 -0.65802 
-0.88775 2.56900 -0.66344 
-0.87762 2.55900 -0.66086 
-0.86720 2.54800 -0.65802 
-0.75490 2.32500 -0.60043 
-0.55487 1.99800 -0.51598 
-0.49152 2.03800 -0.52631 
-0.45430 2.03800 -0.52631 
-0.31584 2.22400 -0.57435 
-0.35443 2.80500 -0.72439 
0.13854 3.20200 -0.82691 
0.33562 2.12300 -0.54826 
0.36284 2.15300 -0.55601 
0.36983 2.16100 -0.55808 
0.38818 2.16900 -0.56014 
0.47697 2.16100 -0.55808 
0.61927 2.14600 -0.55420 
0.62487 2.14600 -0.55420 
0.73452 2.12300 -0.54826 
0.73518 2.10900 -0.54465 
0.76931 2.02500 -0.52295 
0.77741 2.00500 -0.51779 
0.78796 1.99200 -0.51443 
1.14298 2.69400 -0.69572 
1.40416 3.13600 -0.80987 
1.46372 3.08900 -0.79773 
1.46499 3.05800 -0.78972 
1.51010 2.88500 -0.74505 
1.55522 2.87100 -0.74143 
1.53499 2.76700 -0.71457 
1.57911 2.61300 -0.67480 
1.76895 2.49600 -0.64459 
1.77869 2.15300 -0.55601 
-1.62593 2.13800 -0.55772 
-1.58101 2.17600 -0.56763 
-1.49478 2.20800 -0.57598 
-1.48285 2.21600 -0.57806 
-1.45278 2.23200 -0.58224 
-1.30758 2.37000 -0.61823 
-1.27181 2.36100 -0.61589 
-1.25810 2.37000 -0.61823 
-1.25667 2.37900 -0.62058 
-1.18714 2.38900 -0.62319 
-1.13002 2.42700 -0.63310 
-1.11514 2.43600 -0.63545 
-1.10879 2.43600 -0.63545 
-0.97779 2.55900 -0.66754 
-0.65257 2.09400 -0.54624 
-0.63413 2.05200 -0.53528 
-0.56880 1.99200 -0.51963 
-0.47720 2.04500 -0.53346 
-0.46119 2.04500 -0.53346 
-0.43302 2.03800 -0.53163 
-0.34452 2.01800 -0.52641 
-0.35615 2.94000 -0.76692 
-0.30985 3.01200 -0.78571 
-0.28769 3.02700 -0.78962 
-0.03581 3.10400 -0.80970 
0.00470 3.10400 -0.80970 
0.07057 3.15200 -0.82223 
0.17288 3.21900 -0.83970 
0.32845 3.02700 -0.78962 
0.40516 2.16900 -0.56580 
0.43912 2.16900 -0.56580 
0.49572 2.16900 -0.56580 
0.65743 2.16100 -0.56371 
0.66871 2.16100 -0.56371 
0.74678 2.08000 -0.54259 
1.42052 3.13600 -0.81805 
1.42956 3.12000 -0.81388 
1.48030 2.87100 -0.74892 
1.56528 2.65900 -0.69362 
1.56512 2.64700 -0.69049 
1.59322 2.62500 -0.68475 
1.59957 2.61300 -0.68162 
1.67627 2.67000 -0.69649 
1.67140 2.50600 -0.65371 
1.79833 2.30800 -0.60206 
1.80332 2.29900 -0.59971 
1.85292 2.31600 -0.60415 
-1.59856 2.16900 -0.57146 
-1.59290 2.16900 -0.57146 
-1.55829 2.17600 -0.57331 
-1.50084 2.20000 -0.57963 
-1.43201 2.27300 -0.59886 
-1.41680 2.31600 -0.61019 
-1.41623 2.32500 -0.61256 
-1.37908 2.33400 -0.61493 
-1.36690 2.33400 -0.61493 
-1.35191 2.36100 -0.62205 
-1.33232 2.37000 -0.62442 
-1.31995 2.37000 -0.62442 
-1.23542 2.39800 -0.63180 
-1.21039 2.39800 -0.63180 
-1.19961 2.38900 -0.62942 
-1.14631 2.40800 -0.63443 
-1.13636 2.42700 -0.63944 
-1.06021 2.45600 -0.64708 
-1.00772 2.51700 -0.66315 
-0.91175 2.58000 -0.67975 
-0.88775 2.56900 -0.67685 
-0.58094 1.99800 -0.52641 
-0.54301 2.01200 -0.53010 
-0.52010 2.02500 -0.53352 
-0.51280 2.03800 -0.53695 
-0.48788 2.04500 -0.53879 
-0.35053 2.71800 -0.71611 
-0.21187 3.07300 -0.80964 
-0.07670 3.12000 -0.82202 
-0.01150 3.10400 -0.81780 
0.07840 3.13600 -0.82624 
0.18128 3.21900 -0.84810 
0.19068 3.23600 -0.85258 
0.29730 3.20200 -0.84362 
0.26549 2.05200 -0.54064 
0.31254 2.08000 -0.54801 
0.44478 2.16900 -0.57146 
0.48261 2.16100 -0.56935 
0.54263 2.15300 -0.56725 
0.65987 2.16900 -0.57146 
0.79332 1.95400 -0.51482 
1.41066 3.16900 -0.83493 
1.44508 3.13600 -0.82624 
1.45641 2.89800 -0.76353 
1.69429 2.59100 -0.68265 
1.80874 2.50600 -0.66025 
1.81204 2.46600 -0.64971 
1.81649 2.44600 -0.64444 
1.86618 2.32500 -0.61256 
-1.60372 2.17600 -0.57898 
-1.53558 2.17600 -0.57898 
-1.52990 2.17600 -0.57898 
-1.43173 2.28200 -0.60719 
-1.42480 2.29000 -0.60932 
-1.36690 2.33400 -0.62102 
-1.24168 2.39800 -0.63805 
-1.12369 2.42700 -0.64577 
-1.06866 2.44600 -0.65083 
-0.92127 2.56900 -0.68355 
-0.91849 2.58000 -0.68648 
-0.57573 1.99800 -0.53162 
-0.48047 2.05900 -0.54785 
-0.45898 2.05900 -0.54785 
-0.38138 2.01800 -0.53694 
-0.34160 2.03200 -0.54067 
-0.31604 2.07300 -0.55158 
-0.32537 2.33400 -0.62102 
-0.26269 3.01200 -0.80143 
-0.12555 3.12000 -0.83016 
0.06986 3.12000 -0.83016 
0.31411 3.12000 -0.83016 
0.32711 3.08900 -0.82191 
0.48261 2.16100 -0.57499 
0.58567 2.14600 -0.57100 
0.66200 2.17600 -0.57898 
0.68251 2.16900 -0.57712 
0.68871 2.15300 -0.57286 
0.77015 1.97300 -0.52497 
0.81359 1.96600 -0.52311 
1.41066 3.16900 -0.84320 
1.41893 3.16900 -0.84320 
1.46416 3.07300 -0.81766 
1.46499 3.05800 -0.81366 
1.46020 2.98300 -0.79371 
1.47909 2.89800 -0.77109 
1.56271 2.87100 -0.76391 
1.55058 2.70600 -0.72001 
1.60692 2.62500 -0.69845 
1.61377 2.62500 -0.69845 
1.72943 2.48600 -0.66147 
1.77604 2.50600 -0.66679 
1.78258 2.50600 -0.66679 
1.79833 2.30800 -0.61411 
-1.59804 2.17600 -0.58466 
-1.59236 2.17600 -0.58466 
-1.54126 2.17600 -0.58466 
-1.45146 2.24800 -0.60401 
-1.42172 2.33400 -0.62712 
-1.37908 2.33400 -0.62712 
-1.32496 2.37900 -0.63921 
-1.06021 2.45600 -0.65990 
-0.89155 2.58000 -0.69321 
-0.82674 2.50600 -0.67333 
-0.73446 2.29900 -0.61771 
-0.35701 2.88500 -0.77516 
-0.34242 2.95400 -0.79370 
-0.12491 3.10400 -0.83400 
-0.05201 3.10400 -0.83400 
0.00467 3.08900 -0.82997 
0.05357 3.12000 -0.83830 
0.09476 3.13600 -0.84260 
0.14689 3.20200 -0.86034 
0.26528 3.21900 -0.86490 
0.36846 2.15300 -0.57848 
0.52209 2.16100 -0.58063 
0.75432 2.10100 -0.56451 
0.75474 2.08700 -0.56075 
0.76665 2.01800 -0.54221 
0.78576 1.92300 -0.51669 
1.46397 2.89800 -0.77866 
1.48666 2.89800 -0.77866 
1.56223 2.91200 -0.78242 
1.56280 2.88500 -0.77516 
1.54221 2.76700 -0.74346 
1.57176 2.67000 -0.71739 
1.63429 2.63600 -0.70826 
1.76950 2.50600 -0.67333 
1.77424 2.30800 -0.62013 
1.77402 2.16100 -0.58063 
1.70061 2.05200 -0.55135 
1.68351 2.02500 -0.54409 
1.67616 1.98500 -0.53334 
-1.63114 2.12300 -0.57596 
-1.53552 2.18400 -0.59251 
-1.49355 2.23200 -0.60553 
-1.42888 2.31600 -0.62832 
-1.38517 2.33400 -0.63321 
-1.18091 2.38900 -0.64813 
-1.03423 2.48600 -0.67444 
-1.02537 2.49600 -0.67716 
-0.42645 2.03200 -0.55127 
-0.41441 2.02500 -0.54938 
-0.38138 2.01800 -0.54748 
-0.32701 2.95400 -0.80141 
-0.23017 2.99800 -0.81335 
0.23168 3.21900 -0.87330 
0.32542 3.07300 -0.83369 
0.25672 2.02500 -0.54938 
0.28314 2.02500 -0.54938 
0.37547 2.16100 -0.58627 
0.46570 2.16100 -0.58627 
0.53901 2.16100 -0.58627 
0.68563 2.16100 -0.58627 
0.70948 2.13100 -0.57813 
0.79579 1.92300 -0.52170 
1.42871 3.13600 -0.85079 
1.45190 2.99800 -0.81335 
1.52199 2.71800 -0.73738 
1.52995 2.67000 -0.72436 
1.57267 2.62500 -0.71215 
1.69200 2.52700 -0.68557 
1.82371 2.32500 -0.63076 
1.82718 2.24000 -0.60770 
1.66603 1.97300 -0.53527 
-1.63114 2.12300 -0.58150 
-1.61532 2.18400 -0.59821 
-1.58682 2.18400 -0.59821 
-1.54126 2.17600 -0.59602 
-1.52971 2.19200 -0.60040 
-1.48773 2.23200 -0.61136 
-1.45146 2.24800 -0.61574 
-1.43493 2.31600 -0.63437 
-1.38517 2.33400 -0.63930 
-1.35383 2.34300 -0.64176 
-1.35289 2.35200 -0.64423 
-1.33738 2.37900 -0.65162 
-1.20413 2.39800 -0.65683 
-1.12904 2.39800 -0.65683 
-1.05592 2.47600 -0.67819 
-1.04300 2.47600 -0.67819 
-0.61204 2.03200 -0.55658 
-0.53067 2.02500 -0.55466 
-0.47132 2.06600 -0.56589 
-0.46054 2.06600 -0.56589 
-0.29130 2.98300 -0.81706 
-0.19105 2.99800 -0.82117 
-0.05982 3.08900 -0.84610 
-0.02743 3.07300 -0.84171 
0.06986 3.12000 -0.85459 
0.30597 3.12000 -0.85459 
0.26636 2.01800 -0.55274 
0.33104 2.09400 -0.57356 
0.46176 2.16900 -0.59410 
0.51270 2.16900 -0.59410 
0.54825 2.15300 -0.58972 
0.64970 2.19200 -0.60040 
0.71235 2.12300 -0.58150 
0.77131 2.07300 -0.56781 
0.76807 1.92900 -0.52837 
0.93571 2.19200 -0.60040 
1.47153 2.89800 -0.79378 
1.48752 2.88500 -0.79022 
1.56512 2.64700 -0.72503 
1.71815 2.51700 -0.68942 
1.80399 2.37900 -0.65162 
1.79852 2.31600 -0.63437 
1.82978 2.32500 -0.63683 
1.86618 2.32500 -0.63683 
1.66128 1.99200 -0.54562 
-1.63114 2.12300 -0.58704 
-1.63201 2.14600 -0.59340 
-1.63172 2.15300 -0.59534 
-1.59252 2.18400 -0.60391 
-1.44549 2.25700 -0.62410 
-1.43768 2.28200 -0.63101 
-1.35994 2.34300 -0.64788 
-1.33958 2.36100 -0.65285 
-1.29521 2.37000 -0.65534 
-1.04946 2.47600 -0.68465 
-1.01885 2.49600 -0.69018 
-0.99458 2.51700 -0.69599 
-0.96938 2.53700 -0.70152 
-0.93104 2.55900 -0.70760 
-0.92798 2.56900 -0.71037 
-0.86462 2.58000 -0.71341 
-0.80717 2.48600 -0.68742 
-0.54826 2.01200 -0.55635 
-0.53595 2.02500 -0.55994 
-0.50389 2.04500 -0.56548 
-0.48210 2.06600 -0.57128 
-0.37611 2.01800 -0.55801 
-0.34793 2.03800 -0.56354 
-0.24344 2.96900 -0.82098 
-0.22795 2.96900 -0.82098 
-0.00339 3.08900 -0.85416 
0.18867 3.20200 -0.88540 
0.27223 3.20200 -0.88540 
0.31476 2.05900 -0.56935 
0.33891 2.10900 -0.58317 
0.55593 2.16100 -0.59755 
0.61657 2.17600 -0.60170 
0.62453 2.18400 -0.60391 
0.63023 2.18400 -0.60391 
0.74006 2.12300 -0.58704 
0.76507 1.96000 -0.54197 
0.76568 1.92300 -0.53174 
1.44757 2.92600 -0.80909 
1.51786 2.62500 -0.72585 
1.73638 2.49600 -0.69018 
1.76296 2.50600 -0.69295 
1.77604 2.50600 -0.69295 
1.78643 2.31600 -0.64041 
1.71260 2.07300 -0.57322 
-1.66509 2.13100 -0.59482 
-1.63173 2.13100 -0.59482 
-1.63151 2.13800 -0.59677 
-1.58112 2.18400 -0.60961 
-1.55262 2.18400 -0.60961 
-1.51827 2.19200 -0.61184 
-1.42172 2.33400 -0.65148 
-1.39126 2.33400 -0.65148 
-1.22916 2.39800 -0.66934 
-1.11026 2.39800 -0.66934 
-1.03423 2.48600 -0.69391 
-0.83035 2.53700 -0.70814 
-0.56728 2.00500 -0.55965 
-0.52720 2.03200 -0.56718 
-0.44286 2.05900 -0.57472 
-0.37213 2.02500 -0.56523 
-0.34912 2.04500 -0.57081 
-0.31932 2.13100 -0.59482 
-0.29617 2.95400 -0.82454 
0.06203 3.13600 -0.87534 
0.26528 3.21900 -0.89850 
0.33979 3.05800 -0.85357 
0.29269 2.01800 -0.56328 
0.40217 2.15300 -0.60096 
0.43186 2.16100 -0.60319 
0.44478 2.16900 -0.60542 
0.47874 2.16900 -0.60542 
0.56930 2.16900 -0.60542 
0.67013 2.18400 -0.60961 
0.70392 2.13100 -0.59482 
0.75953 2.13100 -0.59482 
1.38071 3.12000 -0.87087 
1.46637 2.69400 -0.75196 
1.47740 2.60200 -0.72628 
1.55210 2.60200 -0.72628 
1.66048 2.59100 -0.72321 
1.73680 2.50600 -0.69949 
1.73638 2.49600 -0.69670 
1.81413 2.22400 -0.62078 
1.76171 2.14600 -0.59900 
1.71221 2.06600 -0.57667 
1.69896 2.01200 -0.56160 
-1.63172 2.15300 -0.60658 
-1.43599 2.30800 -0.65024 
-1.21832 2.38900 -0.67307 
-1.09202 2.42700 -0.68377 
-1.07303 2.45600 -0.69194 
-1.06021 2.45600 -0.69194 
-0.99678 2.50600 -0.70603 
-0.89155 2.58000 -0.72688 
-0.79424 2.46600 -0.69476 
-0.52343 2.03800 -0.57418 
-0.47067 2.08700 -0.58798 
-0.33653 2.06600 -0.58206 
0.25688 3.21900 -0.90691 
0.32711 3.08900 -0.87028 
0.33344 3.07300 -0.86577 
0.44314 2.16100 -0.60883 
0.45610 2.16900 -0.61108 
0.62453 2.18400 -0.61531 
0.71504 2.13100 -0.60038 
0.77217 2.00500 -0.56488 
0.76568 1.92300 -0.54178 
0.89388 2.09400 -0.58995 
1.38885 3.12000 -0.87901 
1.41328 3.12000 -0.87901 
1.44884 2.89800 -0.81647 
1.43592 2.61300 -0.73617 
1.57934 2.59100 -0.72998 
1.67990 2.56900 -0.72378 
1.76895 2.49600 -0.70321 
1.82324 2.51700 -0.70913 
1.82181 2.50600 -0.70603 
1.82835 2.50600 -0.70603 
1.83674 2.45600 -0.69194 
1.77932 2.29900 -0.64771 
1.82270 2.31600 -0.65250 
1.86458 2.30800 -0.65024 
1.74234 2.10900 -0.59418 
1.72381 2.08000 -0.58601 
1.71760 2.06600 -0.58206 
-1.63211 2.17600 -0.61873 
-1.62671 2.18400 -0.62101 
-1.59804 2.17600 -0.61873 
-1.55829 2.17600 -0.61873 
-1.55261 2.17600 -0.61873 
-1.43768 2.28200 -0.64887 
-1.43675 2.29000 -0.65115 
-1.40410 2.32500 -0.66110 
-1.27047 2.37000 -0.67390 
-0.95897 2.52700 -0.71854 
-0.87809 2.58000 -0.73361 
-0.51632 2.05200 -0.58348 
-0.49289 2.06600 -0.58746 
-0.46522 2.08700 -0.59343 
-0.34614 2.05900 -0.58547 
-0.32280 2.23200 -0.63466 
-0.35279 2.79200 -0.79389 
-0.14411 2.99800 -0.85247 
-0.01145 3.08900 -0.87834 
0.11230 3.16900 -0.90109 
0.26528 3.21900 -0.91531 
0.29899 2.02500 -0.57580 
0.37846 2.14600 -0.61020 
0.43026 2.15300 -0.61219 
0.50138 2.16900 -0.61674 
0.52571 2.17600 -0.61873 
0.62453 2.18400 -0.62101 
0.63023 2.18400 -0.62101 
0.67013 2.18400 -0.62101 
0.70065 2.13800 -0.60793 
0.78074 1.92300 -0.54679 
1.16282 2.65900 -0.75607 
1.41855 3.02700 -0.86071 
1.47878 2.56900 -0.73048 
1.51230 2.56900 -0.73048 
1.55252 2.56900 -0.73048 
1.57264 2.58000 -0.73361 
1.67947 2.54800 -0.72451 
1.82757 2.49600 -0.70972 
1.80588 2.39800 -0.68186 
1.79034 2.36100 -0.67134 
1.80435 2.30800 -0.65627 
1.81640 2.30800 -0.65627 
1.74122 2.10100 -0.59741 
1.72838 2.06600 -0.58746 
-1.60940 2.17600 -0.62441 
-1.47494 2.25700 -0.64766 
-1.45653 2.26500 -0.64995 
-1.43794 2.27300 -0.65225 
-1.40410 2.32500 -0.66717 
-1.36081 2.33400 -0.66975 
-1.35383 2.34300 -0.67233 
-1.29645 2.36100 -0.67750 
-1.01885 2.49600 -0.71624 
-0.93369 2.54800 -0.73116 
-0.74525 2.35200 -0.67492 
-0.57451 2.01200 -0.57735 
-0.51632 2.05200 -0.58883 
-0.48915 2.07300 -0.59486 
-0.47382 2.10100 -0.60289 
-0.34684 2.63600 -0.75641 
-0.35208 2.73000 -0.78339 
-0.32996 2.91200 -0.83561 
-0.14411 2.99800 -0.86029 
-0.06788 3.08900 -0.88640 
0.06235 3.15200 -0.90448 
0.20539 3.20200 -0.91883 
0.25683 1.98500 -0.56960 
0.35224 2.12300 -0.60920 
0.41341 2.15300 -0.61781 
0.43588 2.15300 -0.61781 
0.49389 2.16100 -0.62011 
0.64163 2.18400 -0.62671 
0.73172 2.13100 -0.61150 
0.76509 2.13100 -0.61150 
1.39923 3.08900 -0.88640 
1.41764 3.04200 -0.87291 
1.41025 2.91200 -0.83561 
1.40700 2.84400 -0.81610 
1.43525 2.74200 -0.78683 
1.42228 2.61300 -0.74981 
1.42628 2.55900 -0.73432 
1.47970 2.55900 -0.73432 
1.76638 2.29000 -0.65713 
1.79028 2.29000 -0.65713 
1.83211 2.29000 -0.65713 
1.83809 2.29000 -0.65713 
1.78634 2.17600 -0.62441 
-1.67056 2.13800 -0.61909 
-1.63151 2.13800 -0.61909 
-1.63214 2.16100 -0.62575 
-1.55829 2.17600 -0.63009 
-1.55261 2.17600 -0.63009 
-1.51255 2.19200 -0.63472 
-1.50561 2.22400 -0.64399 
-1.09986 2.38900 -0.69177 
-1.06021 2.45600 -0.71117 
-1.00583 2.49600 -0.72275 
-0.92704 2.54800 -0.73781 
-0.92437 2.55900 -0.74099 
-0.89446 2.56900 -0.74389 
-0.86094 2.56900 -0.74389 
-0.59936 2.02500 -0.58637 
-0.58149 2.01800 -0.58434 
-0.49997 2.07300 -0.60027 
-0.33339 2.08000 -0.60229 
-0.18146 2.96900 -0.85972 
-0.02757 3.08900 -0.89446 
0.02111 3.13600 -0.90807 
0.07057 3.15200 -0.91271 
0.51081 2.16100 -0.62575 
0.65873 2.18400 -0.63241 
0.66768 2.17600 -0.63009 
0.67903 2.17600 -0.63009 
0.77621 2.13100 -0.61706 
0.87894 2.05900 -0.59621 
1.36923 3.05800 -0.88549 
1.41152 3.01200 -0.87217 
1.42347 2.70600 -0.78356 
1.43344 2.54800 -0.73781 
1.63911 2.53700 -0.73462 
1.78998 2.28200 -0.66078 
1.82784 2.24800 -0.65094 
1.77164 2.13100 -0.61706 
-1.54122 2.18400 -0.63811 
-1.38590 2.32500 -0.67930 
-1.34771 2.34300 -0.68456 
-1.11585 2.37000 -0.69245 
-1.09202 2.42700 -0.70911 
-0.98628 2.49600 -0.72927 
-0.86426 2.55900 -0.74767 
-0.83395 2.54800 -0.74446 
-0.46131 2.09400 -0.61181 
-0.32392 2.20000 -0.64278 
-0.33597 2.45600 -0.71758 
-0.34948 2.88500 -0.84292 
-0.30388 2.95400 -0.86308 
-0.20470 2.96900 -0.86746 
-0.08441 3.10400 -0.90691 
-0.06821 3.10400 -0.90691 
0.00470 3.10400 -0.90691 
0.06235 3.15200 -0.92093 
0.10403 3.16900 -0.92590 
0.48645 2.15300 -0.62905 
0.68251 2.16900 -0.63372 
0.77285 1.94100 -0.56711 
0.77792 1.94100 -0.56711 
1.39232 2.74200 -0.80114 
1.39432 2.71800 -0.79413 
1.40141 2.71800 -0.79413 
1.40228 2.70600 -0.79062 
1.40826 2.62500 -0.76696 
1.40503 2.56900 -0.75059 
1.40077 2.53700 -0.74124 
1.48664 2.54800 -0.74446 
1.52767 2.51700 -0.73540 
1.54080 2.51700 -0.73540 
1.70736 2.43600 -0.71173 
1.81376 2.48600 -0.72634 
1.75920 2.27300 -0.66411 
1.82393 2.26500 -0.66177 
1.78431 2.15300 -0.62905 
-1.64824 2.13800 -0.63025 
-1.61554 2.16900 -0.63938 
-1.44981 2.27300 -0.67004 
-1.34160 2.34300 -0.69068 
-1.29645 2.36100 -0.69598 
-1.27181 2.36100 -0.69598 
-1.13626 2.36100 -0.69598 
-1.03878 2.46600 -0.72694 
-0.97977 2.49600 -0.73578 
-0.94861 2.51700 -0.74197 
-0.89380 2.54800 -0.75111 
-0.85091 2.55900 -0.75435 
-0.58351 2.02500 -0.59694 
-0.52875 2.03800 -0.60077 
-0.51271 2.05900 -0.60696 
-0.49410 2.09400 -0.61728 
-0.41441 2.02500 -0.59694 
-0.39599 2.01200 -0.59310 
-0.37342 2.03200 -0.59900 
-0.34849 2.07300 -0.61109 
-0.34684 2.63600 -0.77705 
-0.34948 2.88500 -0.85045 
-0.17623 3.01200 -0.88789 
0.14611 3.18500 -0.93888 
0.33040 3.12000 -0.91972 
0.25605 1.97900 -0.58338 
0.46246 2.14600 -0.63260 
0.61314 2.18400 -0.64381 
0.70556 2.15300 -0.63467 
0.78179 2.11600 -0.62376 
1.38410 2.85800 -0.84249 
1.37498 2.69400 -0.79415 
1.53446 2.49600 -0.73578 
1.67078 2.47600 -0.72988 
1.77416 2.47600 -0.72988 
1.77915 2.37900 -0.70129 
1.74733 2.27300 -0.67004 
1.76483 2.26500 -0.66768 
1.77037 2.25700 -0.66533 
1.77626 2.25700 -0.66533 
1.78091 2.24800 -0.66267 
1.81455 2.16900 -0.63938 
-1.48017 2.26500 -0.67359 
-1.43768 2.28200 -0.67865 
-1.14421 2.35200 -0.69947 
-1.10469 2.42700 -0.72177 
-1.06021 2.45600 -0.73040 
-1.03235 2.46600 -0.73337 
-1.01948 2.46600 -0.73337 
-0.92600 2.52700 -0.75151 
-0.35271 2.06600 -0.61441 
-0.33017 2.09400 -0.62274 
-0.35363 2.74200 -0.81545 
0.04590 3.15200 -0.93738 
0.11230 3.16900 -0.94244 
0.16274 3.18500 -0.94720 
0.27657 3.25300 -0.96742 
0.58169 2.30800 -0.68638 
0.59580 2.31600 -0.68876 
0.64163 2.18400 -0.64951 
0.65303 2.18400 -0.64951 
0.65873 2.18400 -0.64951 
0.68251 2.16900 -0.64504 
0.78459 2.09400 -0.62274 
0.78222 2.05900 -0.61233 
0.77956 2.03800 -0.60609 
1.13790 2.60200 -0.77382 
1.38008 3.01200 -0.89575 
1.35389 2.69400 -0.80118 
1.39678 2.59100 -0.77054 
1.39759 2.58000 -0.76727 
1.39957 2.55900 -0.76103 
1.49483 2.50600 -0.74527 
1.52183 2.48600 -0.73932 
1.79430 2.48600 -0.73932 
1.81752 2.20000 -0.65426 
-1.64824 2.13800 -0.64141 
-1.63729 2.13100 -0.63930 
-1.61521 2.14600 -0.64381 
-1.60924 2.15300 -0.64591 
-1.51617 2.25700 -0.67711 
-1.46150 2.28200 -0.68461 
-1.29029 2.36100 -0.70831 
-1.25333 2.36100 -0.70831 
-1.10469 2.42700 -0.72811 
-1.02591 2.46600 -0.73981 
-1.00661 2.46600 -0.73981 
-0.95372 2.49600 -0.74881 
-0.91642 2.53700 -0.76111 
-0.90709 2.54800 -0.76441 
-0.80713 2.50600 -0.75181 
-0.54841 2.03200 -0.60960 
-0.51619 2.07300 -0.62190 
-0.50124 2.10100 -0.63030 
-0.34768 2.59100 -0.77731 
-0.22339 3.01200 -0.90361 
-0.17798 3.04200 -0.91261 
-0.17004 3.04200 -0.91261 
-0.00340 3.10400 -0.93121 
0.00470 3.10400 -0.93121 
0.17196 3.20200 -0.96061 
0.18032 3.20200 -0.96061 
0.40930 2.16100 -0.64831 
0.65457 2.24800 -0.67441 
0.67903 2.17600 -0.65281 
0.69127 2.16100 -0.64831 
0.71118 2.15300 -0.64591 
0.71739 2.13800 -0.64141 
0.74284 2.13100 -0.63930 
0.77803 1.95400 -0.58620 
1.36436 3.01200 -0.90361 
1.36584 2.99800 -0.89941 
1.37366 2.99800 -0.89941 
1.37732 2.84400 -0.85321 
1.40141 2.62500 -0.78751 
1.45460 2.52700 -0.75811 
1.59308 2.49600 -0.74881 
1.76056 2.46600 -0.73981 
1.76569 2.36100 -0.70831 
1.74118 2.26500 -0.67951 
1.75859 2.25700 -0.67711 
1.77458 2.24000 -0.67201 
-1.66561 2.14600 -0.64941 
-1.59801 2.15300 -0.65152 
-1.57575 2.16100 -0.65394 
-1.55328 2.16900 -0.65637 
-1.52186 2.24800 -0.68027 
-1.51617 2.25700 -0.68300 
-1.50319 2.27300 -0.68784 
-1.37449 2.31600 -0.70085 
-1.34160 2.34300 -0.70902 
-1.30262 2.36100 -0.71447 
-1.15648 2.35200 -0.71174 
-1.03878 2.46600 -0.74624 
-0.95372 2.49600 -0.75532 
-0.95100 2.50600 -0.75835 
-0.62107 2.08000 -0.62943 
-0.55003 2.03800 -0.61672 
-0.51251 2.08000 -0.62943 
-0.47324 2.12300 -0.64245 
-0.35367 2.85800 -0.86486 
-0.26016 2.98300 -0.90269 
-0.14772 3.07300 -0.92993 
-0.13168 3.07300 -0.92993 
-0.05227 3.12000 -0.94415 
0.11230 3.16900 -0.95898 
0.21601 3.23600 -0.97925 
0.25392 2.04500 -0.61884 
0.36983 2.16100 -0.65394 
0.37547 2.16100 -0.65394 
0.43284 2.22400 -0.67301 
0.44338 2.24800 -0.68027 
0.53789 2.49600 -0.75532 
0.56904 2.54800 -0.77106 
0.59384 2.56900 -0.77741 
0.68859 2.40800 -0.72869 
0.66499 2.22400 -0.67301 
0.71447 2.14600 -0.64941 
0.78042 1.96000 -0.59312 
0.79597 1.94800 -0.58949 
0.80106 1.94800 -0.58949 
1.40728 2.63600 -0.79768 
1.40354 2.59100 -0.78407 
1.40432 2.58000 -0.78074 
1.52831 2.48600 -0.75229 
1.58006 2.49600 -0.75532 
1.62524 2.45600 -0.74321 
1.64318 2.39800 -0.72566 
1.66195 2.38900 -0.72294 
1.75270 2.25700 -0.68300 
1.78571 2.23200 -0.67543 
-1.59239 2.15300 -0.65714 
-1.58703 2.16100 -0.65958 
-1.52883 2.22400 -0.67881 
-1.50319 2.28200 -0.69652 
-1.49723 2.28200 -0.69652 
-1.42440 2.29900 -0.70170 
-1.26565 2.36100 -0.72063 
-1.24241 2.35200 -0.71788 
-1.10696 2.44600 -0.74657 
-1.08584 2.45600 -0.74962 
-1.01534 2.45600 -0.74962 
-0.93547 2.51700 -0.76824 
-0.83035 2.53700 -0.77435 
-0.59461 2.04500 -0.62418 
-0.45737 2.10100 -0.64127 
-0.04413 3.12000 -0.95229 
0.01280 3.10400 -0.94741 
0.22564 3.25300 -0.99289 
0.38252 2.16900 -0.66203 
0.77765 1.97900 -0.60403 
1.39137 2.96900 -0.90620 
1.38487 2.65900 -0.81158 
1.47999 2.54800 -0.77770 
1.52645 2.55900 -0.78106 
1.52656 2.53700 -0.77435 
1.52767 2.51700 -0.76824 
1.54098 2.49600 -0.76183 
1.56052 2.49600 -0.76183 
1.62472 2.43600 -0.74352 
1.69402 2.40800 -0.73497 
1.70665 2.41700 -0.73772 
1.73639 2.28200 -0.69652 
1.74571 2.24800 -0.68614 
-1.60361 2.13800 -0.65814 
-1.28413 2.36100 -0.72679 
-1.27181 2.36100 -0.72679 
-1.17040 2.34300 -0.72125 
-1.09225 2.45600 -0.75603 
-1.06662 2.45600 -0.75603 
-0.95754 2.50600 -0.77142 
-0.84725 2.54800 -0.78435 
-0.54309 2.05200 -0.63167 
-0.53420 2.05900 -0.63382 
-0.46616 2.11600 -0.65137 
-0.41707 2.03800 -0.62736 
-0.37984 2.03800 -0.62736 
-0.34540 2.08700 -0.64244 
-0.35106 2.89800 -0.89209 
-0.21660 3.02700 -0.93180 
0.07880 3.15200 -0.97028 
0.30566 3.20200 -0.98568 
0.38943 2.17600 -0.66984 
0.63677 2.88500 -0.88809 
0.67313 2.91200 -0.89640 
0.70691 2.92600 -0.90071 
0.77192 2.91200 -0.89640 
0.78333 2.89800 -0.89209 
0.76523 2.11600 -0.65137 
0.77459 2.02500 -0.62336 
0.80862 1.95400 -0.60150 
1.39137 2.96900 -0.91395 
1.39911 2.96900 -0.91395 
1.39975 2.95400 -0.90933 
1.37666 2.67000 -0.82191 
1.41174 2.56900 -0.79082 
1.42064 2.53700 -0.78097 
1.54715 2.50600 -0.77142 
1.56703 2.49600 -0.76835 
1.59319 2.45600 -0.75603 
1.74571 2.24800 -0.69200 
-1.57026 2.16900 -0.67335 
-1.56460 2.16900 -0.67335 
-1.54115 2.19200 -0.68049 
-1.53489 2.21600 -0.68794 
-1.35994 2.34300 -0.72736 
-1.34771 2.34300 -0.72736 
-1.17040 2.34300 -0.72736 
-1.14631 2.40800 -0.74754 
-1.14269 2.42700 -0.75344 
-1.10507 2.45600 -0.76244 
-1.08383 2.46600 -0.76555 
-1.04739 2.45600 -0.76244 
-1.01534 2.45600 -0.76244 
-0.96174 2.51700 -0.78138 
-0.81067 2.51700 -0.78138 
-0.57860 2.04500 -0.63485 
-0.56259 2.04500 -0.63485 
-0.28218 2.96900 -0.92170 
-0.20180 3.04200 -0.94436 
0.02915 3.12000 -0.96857 
0.23412 3.25300 -1.00986 
0.33209 3.13600 -0.97354 
0.30195 2.04500 -0.63485 
0.34357 2.13800 -0.66372 
0.36419 2.16100 -0.67086 
0.68511 3.10400 -0.96361 
0.71235 2.12300 -0.65907 
0.75114 2.12300 -0.65907 
0.76820 2.10900 -0.65472 
0.77469 1.99800 -0.62026 
0.78559 1.97300 -0.61250 
1.37085 2.74200 -0.85123 
1.40310 2.69400 -0.83633 
1.41778 2.58000 -0.80094 
1.44009 2.54800 -0.79100 
1.59929 2.43600 -0.75623 
1.76448 2.25700 -0.70066 
1.87122 2.21600 -0.68794 
-1.58139 2.16100 -0.67650 
-1.45871 2.32500 -0.72784 
-1.39262 2.31600 -0.72502 
-1.36606 2.34300 -0.73348 
-1.34061 2.35200 -0.73629 
-1.26565 2.36100 -0.73911 
-1.19331 2.35200 -0.73629 
-1.13249 2.44600 -0.76572 
-1.06452 2.46600 -0.77198 
-0.97488 2.51700 -0.78795 
-0.60071 2.06600 -0.64676 
-0.49171 2.13100 -0.66711 
-0.47324 2.12300 -0.66461 
-0.45912 2.10900 -0.66022 
-0.31159 2.95400 -0.92475 
-0.28993 2.96900 -0.92945 
-0.23911 3.01200 -0.94291 
-0.10012 3.08900 -0.96701 
-0.01150 3.10400 -0.97171 
0.07057 3.15200 -0.98673 
0.18128 3.21900 -1.00771 
0.25110 3.25300 -1.01835 
0.31078 3.16900 -0.99206 
0.30298 2.05200 -0.64238 
0.64307 3.13600 -0.98173 
0.69253 3.25300 -1.01835 
0.80753 3.37900 -1.05780 
0.81176 3.36000 -1.05185 
0.86437 3.36000 -1.05185 
0.89139 3.08900 -0.96701 
0.69207 2.14600 -0.67181 
0.72344 2.12300 -0.66461 
0.77469 1.99800 -0.62547 
0.80352 1.95400 -0.61170 
1.34237 2.99800 -0.93852 
1.40571 2.98300 -0.93383 
1.40470 2.88500 -0.90315 
1.38985 2.78000 -0.87028 
1.49144 2.59100 -0.81111 
1.56708 2.51700 -0.78795 
1.69404 2.41700 -0.75664 
1.70738 2.42700 -0.75977 
1.76056 2.46600 -0.77198 
1.77915 2.37900 -0.74475 
1.74733 2.27300 -0.71156 
1.83813 2.23200 -0.69873 
-1.57026 2.16900 -0.68467 
-1.56397 2.17600 -0.68688 
-1.36606 2.34300 -0.73959 
-1.25333 2.36100 -0.74527 
-1.15407 2.39800 -0.75695 
-1.07303 2.45600 -0.77526 
-0.94290 2.53700 -0.80083 
-0.90709 2.54800 -0.80430 
-0.89380 2.54800 -0.80430 
-0.87435 2.56900 -0.81093 
-0.55569 2.05900 -0.64994 
-0.52701 2.07300 -0.65436 
-0.52337 2.08000 -0.65657 
-0.47878 2.12300 -0.67015 
-0.44888 2.08700 -0.65878 
-0.38516 2.03800 -0.64331 
-0.33633 2.16900 -0.68467 
-0.35664 2.46600 -0.77842 
-0.37221 2.67000 -0.84281 
-0.30543 2.96900 -0.93719 
-0.26794 2.98300 -0.94161 
-0.11624 3.08900 -0.97507 
-0.03581 3.10400 -0.97981 
0.23412 3.25300 -1.02684 
0.24261 3.25300 -1.02684 
0.29048 3.21900 -1.01611 
0.29730 3.20200 -1.01074 
0.32391 3.13600 -0.98991 
0.32899 2.11600 -0.66794 
0.82209 3.59700 -1.13543 
0.97684 3.41600 -1.07829 
0.97507 3.37900 -1.06661 
0.70681 2.12300 -0.67015 
0.76820 2.10900 -0.66573 
0.77157 2.04500 -0.64552 
0.76931 2.02500 -0.63921 
0.78282 1.97900 -0.62469 
1.36584 2.99800 -0.94635 
1.58588 2.69400 -0.85039 
1.57937 2.58000 -0.81440 
1.59309 2.44600 -0.77210 
1.59971 2.42700 -0.76611 
1.61238 2.42700 -0.76611 
1.62466 2.41700 -0.76295 
1.63727 2.41700 -0.76295 
1.80152 2.49600 -0.78789 
1.81011 2.44600 -0.77210 
1.74932 2.29900 -0.72570 
1.80072 2.27300 -0.71749 
1.84809 2.21600 -0.69950 
-1.66543 2.15300 -0.68523 
-1.64881 2.14600 -0.68301 
-1.59841 2.14600 -0.68301 
-1.58677 2.15300 -0.68523 
-1.56397 2.17600 -0.69255 
-1.54043 2.22400 -0.70783 
-1.32110 2.36100 -0.75143 
-1.27181 2.36100 -0.75143 
-1.16976 2.37900 -0.75716 
-1.01948 2.46600 -0.78485 
-0.98024 2.54800 -0.81095 
-0.88775 2.56900 -0.81763 
-0.77180 2.45600 -0.78167 
-0.55916 2.05200 -0.65309 
-0.55380 2.05200 -0.65309 
-0.41316 2.04500 -0.65086 
-0.33474 2.12300 -0.67569 
-0.37389 2.68200 -0.85360 
-0.34681 2.92600 -0.93126 
-0.18690 3.05800 -0.97327 
0.20757 3.23600 -1.02992 
0.24261 3.25300 -1.03533 
0.33680 3.10400 -0.98791 
0.25605 1.97900 -0.62986 
0.26813 1.99200 -0.63399 
0.87718 3.34200 -1.06366 
0.92451 3.32400 -1.05793 
0.77217 2.00500 -0.63813 
0.87296 2.04500 -0.65086 
1.50359 2.63600 -0.83896 
1.58589 2.70600 -0.86124 
1.61381 2.68200 -0.85360 
1.61356 2.67000 -0.84978 
1.57973 2.54800 -0.81095 
1.60605 2.42700 -0.77244 
1.63746 2.40800 -0.76639 
1.71371 2.43600 -0.77530 
1.82674 2.48600 -0.79122 
1.78663 2.38900 -0.76035 
1.78256 2.26500 -0.72088 
1.82571 2.28200 -0.72629 
-1.56397 2.17600 -0.69823 
-1.55251 2.20000 -0.70593 
-1.36690 2.33400 -0.74893 
-1.36081 2.33400 -0.74893 
-1.34675 2.35200 -0.75471 
-1.30878 2.36100 -0.75760 
-1.22099 2.37000 -0.76048 
-1.20080 2.37900 -0.76337 
-1.09225 2.45600 -0.78808 
-1.07303 2.45600 -0.78808 
-0.97111 2.55900 -0.82113 
-0.87136 2.58000 -0.82787 
-0.50648 2.12300 -0.68123 
-0.50283 2.13100 -0.68379 
-0.44343 2.08700 -0.66967 
-0.40783 2.04500 -0.65620 
-0.38114 2.04500 -0.65620 
-0.35931 2.07300 -0.66518 
-0.23017 2.99800 -0.96200 
0.12949 3.18500 -1.02200 
0.25959 3.25300 -1.04382 
0.28895 3.20200 -1.02745 
0.89162 3.39700 -1.09003 
0.71594 2.10100 -0.67417 
0.75169 2.10900 -0.67673 
0.78282 1.97900 -0.63502 
1.19572 2.71800 -0.87215 
1.46531 2.87100 -0.92124 
1.49511 2.67000 -0.85675 
1.60692 2.62500 -0.84231 
1.59309 2.44600 -0.78487 
1.64374 2.40800 -0.77268 
1.79430 2.48600 -0.79771 
1.75443 2.29000 -0.73481 
1.79479 2.27300 -0.72936 
-1.65470 2.16100 -0.69906 
-1.58115 2.15300 -0.69647 
-1.56397 2.17600 -0.70391 
-1.52206 2.25700 -0.73011 
-1.50972 2.26500 -0.73270 
-1.30878 2.36100 -0.76376 
-1.25046 2.37900 -0.76958 
-1.21942 2.37900 -0.76958 
-1.13798 2.41700 -0.78187 
-1.11334 2.44600 -0.79125 
-1.10696 2.44600 -0.79125 
-0.92039 2.54800 -0.82425 
-0.90433 2.55900 -0.82781 
-0.87809 2.58000 -0.83460 
-0.53057 2.08700 -0.67512 
-0.48059 2.13100 -0.68935 
-0.36796 2.59100 -0.83816 
-0.32546 2.94000 -0.95106 
-0.31159 2.95400 -0.95559 
-0.08400 3.08900 -0.99926 
0.11287 3.18500 -1.03031 
0.14611 3.18500 -1.03031 
0.22564 3.25300 -1.05231 
0.25110 3.25300 -1.05231 
0.29572 3.18500 -1.03031 
0.29965 2.06600 -0.66833 
0.51728 2.69400 -0.87148 
0.69964 2.80500 -0.90739 
0.78118 2.65900 -0.86016 
0.69279 2.13100 -0.68935 
0.72690 2.10100 -0.67965 
0.76931 2.02500 -0.65506 
1.19044 2.70600 -0.87536 
1.28247 2.89800 -0.93747 
1.33454 2.99800 -0.96982 
1.40275 3.02700 -0.97920 
1.49528 2.87100 -0.92874 
1.60601 2.45600 -0.79449 
1.67516 2.40800 -0.77896 
1.73351 2.44600 -0.79125 
1.77057 2.34300 -0.75793 
1.77074 2.26500 -0.73270 
1.83813 2.23200 -0.72203 
-1.69417 2.16100 -0.70470 
-1.64342 2.16100 -0.70470 
-1.54624 2.22400 -0.72524 
-1.40588 2.30800 -0.75263 
-1.05809 2.46600 -0.80416 
-0.98161 2.56900 -0.83775 
-0.63725 2.15300 -0.70209 
-0.62077 2.11600 -0.69002 
-0.60886 2.09400 -0.68285 
-0.43109 2.08000 -0.67828 
-0.40922 2.05200 -0.66915 
-0.10818 3.08900 -1.00732 
-0.02785 3.12000 -1.01743 
0.24286 1.99800 -0.65154 
0.25165 1.98500 -0.64731 
0.72448 2.09400 -0.68285 
0.74087 2.09400 -0.68285 
0.76849 2.08000 -0.67828 
0.76962 2.01200 -0.65611 
0.80846 1.96600 -0.64111 
1.19044 2.70600 -0.88242 
1.42558 3.04200 -0.99199 
1.50496 3.04200 -0.99199 
1.51370 3.01200 -0.98221 
1.55721 2.73000 -0.89025 
1.76986 2.33400 -0.76111 
1.84167 2.26500 -0.73861 
1.83958 2.24800 -0.73307 
1.84396 2.23200 -0.72785 
-1.59801 2.15300 -0.70771 
-1.58677 2.15300 -0.70771 
-1.49790 2.26500 -0.74452 
-1.49020 2.30800 -0.75866 
-1.40588 2.30800 -0.75866 
-1.36974 2.30800 -0.75866 
-1.36770 2.32500 -0.76425 
-1.35383 2.34300 -0.77016 
-1.20413 2.39800 -0.78824 
-0.55032 2.05900 -0.67681 
-0.53235 2.09400 -0.68831 
-0.51564 2.13800 -0.70278 
-0.43109 2.08000 -0.68371 
-0.37013 2.07300 -0.68141 
-0.36053 2.08000 -0.68371 
-0.34468 2.11600 -0.69555 
-0.34080 2.94000 -0.96640 
-0.31930 2.95400 -0.97100 
-0.31159 2.95400 -0.97100 
-0.27573 2.98300 -0.98054 
-0.02799 3.13600 -1.03083 
-0.01981 3.13600 -1.03083 
0.17288 3.21900 -1.05811 
0.25165 1.98500 -0.65249 
0.30918 2.09400 -0.68831 
0.31690 2.10900 -0.69325 
0.67185 2.15300 -0.70771 
0.72206 2.08700 -0.68601 
0.82930 1.97900 -0.65051 
1.33454 2.99800 -0.98547 
1.34237 2.99800 -0.98547 
1.47218 3.07300 -1.01012 
1.51209 3.08900 -1.01538 
1.52884 3.05800 -1.00519 
1.54157 2.79200 -0.91775 
1.62132 2.73000 -0.89737 
1.61914 2.49600 -0.82045 
1.61914 2.48600 -0.81717 
1.62542 2.46600 -0.81059 
1.63185 2.46600 -0.81059 
1.63138 2.42700 -0.79777 
1.64878 2.37900 -0.78200 
1.83813 2.23200 -0.73368 
1.83565 2.20800 -0.72579 
1.84142 2.20800 -0.72579 
-1.67162 2.16100 -0.71598 
-1.66648 2.16900 -0.71863 
-1.61522 2.16100 -0.71598 
-1.57026 2.16900 -0.71863 
-1.56397 2.17600 -0.72095 
-1.52186 2.24800 -0.74480 
-1.48456 2.29000 -0.75872 
-1.38179 2.30800 -0.76468 
-1.31995 2.37000 -0.78522 
-1.27922 2.39800 -0.79450 
-1.20413 2.39800 -0.79450 
-1.17910 2.39800 -0.79450 
-1.06238 2.47600 -0.82034 
-1.05592 2.47600 -0.82034 
-1.00683 2.54800 -0.84420 
-0.86521 2.60200 -0.86209 
-0.48506 2.17600 -0.72095 
-0.35520 2.45600 -0.81372 
-0.24582 2.99800 -0.99329 
-0.18500 3.02700 -1.00290 
-0.05227 3.12000 -1.03371 
0.01299 3.15200 -1.04431 
0.13018 3.20200 -1.06088 
0.13854 3.20200 -1.06088 
0.28357 3.23600 -1.07214 
0.24457 2.01200 -0.66661 
0.25773 1.99200 -0.65998 
0.30918 2.09400 -0.69378 
0.49647 2.36100 -0.78224 
0.56495 2.26500 -0.75043 
0.57447 2.14600 -0.71101 
0.66967 2.14600 -0.71101 
0.78798 1.97900 -0.65568 
1.33454 2.99800 -0.99329 
1.39382 3.04200 -1.00787 
1.44105 3.05800 -1.01317 
1.47985 3.08900 -1.02344 
1.57847 2.78000 -0.92106 
1.60708 2.73000 -0.90450 
1.61420 2.71800 -0.90052 
1.62119 2.70600 -0.89655 
1.61286 2.56900 -0.85115 
1.62489 2.40800 -0.79781 
1.61782 2.36100 -0.78224 
1.78085 2.39800 -0.79450 
1.77185 2.36100 -0.78224 
1.77124 2.35200 -0.77926 
1.77212 2.28200 -0.75607 
-1.36845 2.31600 -0.77338 
-1.28548 2.39800 -0.80076 
-1.11102 2.42700 -0.81044 
-1.00683 2.54800 -0.85085 
-0.54141 2.06600 -0.68989 
-0.53413 2.10100 -0.70158 
-0.52865 2.12300 -0.70893 
-0.47218 2.16900 -0.72429 
-0.36595 2.08000 -0.69457 
-0.34314 2.29000 -0.76469 
-0.35745 2.51700 -0.84049 
0.26095 3.27000 -1.09194 
0.29201 3.23600 -1.08059 
0.30403 3.18500 -1.06356 
0.25329 1.99800 -0.66719 
0.46935 2.23200 -0.74533 
0.47517 2.23200 -0.74533 
0.50098 2.19200 -0.73197 
0.55723 2.12300 -0.70893 
0.68852 2.10100 -0.70158 
0.76893 2.03800 -0.68054 
1.34864 3.01200 -1.00579 
1.51943 3.10400 -1.03651 
1.60697 2.69400 -0.89960 
1.62587 2.53700 -0.84717 
1.63868 2.49600 -0.83348 
1.64234 2.35200 -0.78540 
1.76942 2.40800 -0.80410 
1.83951 2.19200 -0.73197 
-1.60988 2.16900 -0.72995 
-1.47260 2.29000 -0.77067 
-1.41075 2.31600 -0.77942 
-1.33053 2.38900 -0.80399 
-1.29713 2.40800 -0.81038 
-1.22916 2.39800 -0.80701 
-1.20413 2.39800 -0.80701 
-1.14631 2.40800 -0.81038 
-1.01832 2.52700 -0.85043 
-1.01573 2.53700 -0.85379 
-0.98743 2.60200 -0.87567 
-0.93868 2.58000 -0.86826 
-0.86600 2.62500 -0.88341 
-0.85230 2.62500 -0.88341 
-0.59193 2.07300 -0.69764 
-0.57522 2.05200 -0.69057 
-0.54324 2.07300 -0.69764 
-0.52680 2.13800 -0.71952 
-0.39851 2.05200 -0.69057 
-0.36595 2.08000 -0.70000 
-0.34194 2.28200 -0.76798 
-0.29768 2.96900 -0.99918 
-0.25894 2.96900 -0.99918 
-0.16837 3.01200 -1.01365 
-0.12366 3.07300 -1.03418 
0.10512 3.20200 -1.07759 
0.20866 3.25300 -1.09475 
0.24388 3.27000 -1.10047 
0.26238 3.28800 -1.10653 
0.30403 3.18500 -1.07187 
0.38844 2.10900 -0.70976 
0.52075 2.04500 -0.68822 
0.68014 2.10900 -0.70976 
0.69558 2.07300 -0.69764 
0.77217 2.00500 -0.67476 
0.78001 1.98500 -0.66803 
0.78519 1.98500 -0.66803 
0.79589 1.97300 -0.66399 
0.82930 1.97900 -0.66601 
1.62587 2.53700 -0.85379 
1.79393 2.25700 -0.75956 
1.81178 2.20000 -0.74038 
1.83379 2.19200 -0.73769 
-1.66648 2.16900 -0.73561 
-1.60988 2.16900 -0.73561 
-1.54624 2.22400 -0.75426 
-1.46150 2.28200 -0.77393 
