ply
format ascii 1.0
comment pointcloud saved from Realsense Viewer
element vertex 1805
property float32 x
property float32 y
property float32 z
end_header
-1.21002 1.44800 -0.34296 
-1.20093 1.45900 -0.34556 
-1.19157 1.47000 -0.34817 
-1.13466 1.51700 -0.35930 
-1.11810 1.52900 -0.36214 
-1.06236 1.57900 -0.37399 
-1.04700 1.60600 -0.38038 
-1.03457 1.68400 -0.39886 
-1.03181 1.69100 -0.40051 
-0.98913 1.75300 -0.41520 
-0.96614 1.82000 -0.43107 
-0.96035 1.83800 -0.43533 
-0.91171 1.93000 -0.45712 
-0.75528 2.10000 -0.49739 
-0.74651 2.10000 -0.49739 
-0.73221 2.13500 -0.50567 
-0.71147 2.20900 -0.52320 
-0.66317 2.33100 -0.55210 
-0.54680 2.41900 -0.57294 
-0.54003 2.43400 -0.57649 
-0.50954 2.43400 -0.57649 
-0.31486 2.20900 -0.52320 
-0.24463 2.15900 -0.51136 
-0.23431 2.14700 -0.50852 
-0.22409 2.13500 -0.50567 
-0.16692 2.08900 -0.49478 
-0.14862 2.07700 -0.49194 
-0.09505 2.04400 -0.48412 
-0.01815 2.03300 -0.48152 
-0.00117 2.03300 -0.48152 
0.03314 2.05500 -0.48673 
0.09125 2.46600 -0.58407 
0.34304 3.44300 -0.81547 
0.35430 3.41300 -0.80837 
0.36855 3.41300 -0.80837 
0.60920 2.98600 -0.70723 
0.49162 1.76100 -0.41709 
0.55295 1.76900 -0.41899 
0.57459 1.74500 -0.41330 
0.58188 1.74500 -0.41330 
0.60297 1.72200 -0.40786 
0.68004 1.69900 -0.40241 
0.69513 1.68400 -0.39886 
0.72682 1.67600 -0.39696 
0.83179 1.67600 -0.39696 
0.83528 1.66900 -0.39530 
0.86678 1.67600 -0.39696 
0.92348 1.64000 -0.38843 
0.94118 1.64700 -0.39009 
0.95266 1.65500 -0.39199 
3.62360 5.79100 -1.37160 
4.15628 6.26600 -1.48410 
4.33165 6.37000 -1.50873 
4.31326 6.26600 -1.48410 
4.27760 6.06700 -1.43697 
4.45601 5.62100 -1.33133 
4.75920 5.97200 -1.41447 
4.86024 6.06700 -1.43697 
5.36175 6.59000 -1.56084 
6.10788 7.21100 -1.70792 
6.22831 7.21100 -1.70792 
6.25842 7.21100 -1.70792 
6.58962 7.21100 -1.70792 
6.61973 7.21100 -1.70792 
6.77802 7.35000 -1.74085 
7.57605 7.96300 -1.88604 
8.07870 8.30900 -1.96799 
8.36399 8.49300 -2.01157 
9.85573 9.80000 -2.32113 
10.43190 10.33000 -2.44666 
-1.29148 1.38000 -0.33262 
-1.28572 1.38000 -0.33262 
-1.26384 1.37500 -0.33141 
-1.25235 1.37500 -0.33141 
-1.22939 1.37500 -0.33141 
-1.21959 1.39000 -0.33503 
-1.21373 1.43100 -0.34491 
-1.19484 1.45900 -0.35166 
-1.16957 1.48100 -0.35696 
-1.16810 1.48700 -0.35840 
-1.13279 1.52300 -0.36708 
-1.11608 1.53500 -0.36997 
-1.08866 1.56000 -0.37600 
-1.08631 1.56600 -0.37745 
-1.07146 1.57300 -0.37913 
-1.04700 1.60600 -0.38709 
-1.04483 1.61300 -0.38877 
-1.04439 1.65500 -0.39890 
-0.99724 1.72900 -0.41673 
-0.96148 1.85500 -0.44710 
-0.95241 1.88300 -0.45385 
-0.91977 1.93000 -0.46518 
-0.90024 1.94000 -0.46759 
-0.81607 2.03300 -0.49000 
-0.74196 2.11200 -0.50905 
-0.72676 2.17200 -0.52351 
-0.71678 2.19700 -0.52953 
-0.71147 2.20900 -0.53243 
-0.68523 2.27500 -0.54833 
-0.60219 2.35900 -0.56858 
-0.57352 2.40400 -0.57943 
-0.47715 2.37400 -0.57219 
-0.42184 2.28900 -0.55171 
-0.40742 2.26200 -0.54520 
-0.37238 2.22200 -0.53556 
-0.30398 2.19700 -0.52953 
-0.28394 2.18400 -0.52640 
-0.22283 2.12300 -0.51170 
-0.18437 2.08900 -0.50350 
-0.16597 2.07700 -0.50061 
-0.15729 2.07700 -0.50061 
-0.13921 2.06600 -0.49796 
-0.12989 2.05500 -0.49531 
-0.11212 2.04400 -0.49266 
-0.09505 2.04400 -0.49266 
0.07744 2.35900 -0.56858 
0.21180 3.41300 -0.82262 
0.45211 3.29500 -0.79418 
0.54280 3.03300 -0.73103 
0.62645 3.00900 -0.72525 
0.67153 2.98600 -0.71970 
0.67587 2.75000 -0.66282 
0.50752 1.87400 -0.45168 
0.49898 1.76100 -0.42445 
0.59820 1.72900 -0.41673 
0.61448 1.71400 -0.41312 
0.66147 1.70600 -0.41119 
0.66860 1.70600 -0.41119 
0.67295 1.69900 -0.40950 
0.80380 1.67600 -0.40396 
0.81779 1.67600 -0.40396 
3.35027 5.53900 -1.33504 
3.54596 5.70500 -1.37505 
3.56978 5.70500 -1.37505 
3.72839 5.88000 -1.41723 
4.26093 6.26600 -1.51026 
4.25227 6.06700 -1.46230 
2.98764 4.02300 -0.96964 
3.03956 3.98100 -0.95952 
5.66694 6.82500 -1.64500 
6.12289 6.82500 -1.64500 
6.32118 6.94900 -1.67488 
10.11520 10.05800 -2.42423 
-1.22098 1.38500 -0.33960 
-1.21959 1.39000 -0.34083 
-1.19898 1.44200 -0.35358 
-1.15711 1.50500 -0.36903 
-1.11810 1.52900 -0.37491 
-1.10394 1.55400 -0.38104 
-1.08631 1.56600 -0.38398 
-1.07977 1.56600 -0.38398 
-1.04439 1.65500 -0.40581 
-0.99724 1.72900 -0.42395 
-0.99460 1.73700 -0.42591 
-0.96614 1.82000 -0.44627 
-0.92350 1.92100 -0.47103 
-0.86481 1.97000 -0.48305 
-0.82854 2.02200 -0.49580 
-0.80341 2.04400 -0.50119 
-0.77302 2.07700 -0.50928 
-0.73142 2.15900 -0.52939 
-0.70638 2.22200 -0.54484 
-0.67414 2.30200 -0.56445 
-0.66857 2.31600 -0.56788 
-0.53004 2.38900 -0.58578 
-0.52007 2.38900 -0.58578 
-0.49698 2.37400 -0.58211 
-0.48399 2.35900 -0.57843 
-0.44096 2.28900 -0.56126 
-0.40490 2.24800 -0.55121 
-0.34067 2.19700 -0.53871 
-0.25365 2.15900 -0.52939 
-0.19411 2.10000 -0.51492 
-0.09505 2.04400 -0.50119 
-0.06908 2.03300 -0.49849 
-0.05210 2.03300 -0.49849 
-0.03512 2.03300 -0.49849 
-0.02649 2.02200 -0.49580 
0.05197 2.12300 -0.52056 
0.23015 3.47500 -0.85207 
0.26148 3.50600 -0.85967 
0.44607 3.35300 -0.82216 
0.52584 3.08200 -0.75571 
0.59346 3.03300 -0.74369 
0.67671 3.00900 -0.73781 
0.70498 2.91800 -0.71550 
0.53352 1.97000 -0.48305 
0.51061 1.82900 -0.44847 
0.52104 1.76100 -0.43180 
0.60297 1.72200 -0.42224 
0.63892 1.72200 -0.42224 
0.67295 1.69900 -0.41660 
0.76181 1.67600 -0.41096 
0.82479 1.67600 -0.41096 
0.82831 1.66900 -0.40924 
0.84922 1.66900 -0.40924 
0.85619 1.66900 -0.40924 
0.93884 1.65500 -0.40581 
0.98162 1.66900 -0.40924 
3.49375 5.62100 -1.37827 
3.82659 5.88000 -1.44178 
4.17627 6.06700 -1.48763 
3.62974 5.02900 -1.23311 
3.22573 4.39300 -1.07717 
2.89957 3.86100 -0.94672 
3.68184 4.71900 -1.15710 
4.39100 5.53900 -1.35817 
5.47182 6.59000 -1.61587 
5.75243 6.82500 -1.67349 
5.86642 6.82500 -1.67349 
6.00890 6.82500 -1.67349 
6.06590 6.82500 -1.67349 
6.17989 6.82500 -1.67349 
7.83870 8.13200 -1.99397 
8.04401 8.30900 -2.03737 
8.32853 8.49300 -2.08249 
9.48965 9.55500 -2.34289 
9.77389 9.80000 -2.40297 
11.02770 10.92000 -2.67759 
-1.30194 1.38500 -0.34539 
-1.26384 1.37500 -0.34289 
-1.21284 1.41600 -0.35312 
-1.19898 1.44200 -0.35960 
-1.17779 1.45300 -0.36234 
-1.17179 1.47600 -0.36808 
-1.09745 1.55400 -0.38753 
-1.07977 1.56600 -0.39052 
-1.07323 1.56600 -0.39052 
-1.07146 1.57300 -0.39227 
-1.03457 1.68400 -0.41995 
-1.01006 1.71400 -0.42743 
-1.00759 1.72200 -0.42943 
-0.96732 1.79400 -0.44738 
-0.96328 1.82900 -0.45611 
-0.96035 1.83800 -0.45835 
-0.94263 1.91100 -0.47656 
-0.91977 1.93000 -0.48130 
-0.91644 1.94000 -0.48379 
-0.91302 1.95000 -0.48628 
-0.89673 1.95000 -0.48628 
-0.86093 1.98000 -0.49376 
-0.83284 2.01200 -0.50174 
-0.80341 2.04400 -0.50972 
-0.77755 2.06600 -0.51521 
-0.71147 2.20900 -0.55087 
-0.70638 2.22200 -0.55411 
-0.67989 2.28900 -0.57082 
-0.58619 2.37400 -0.59202 
-0.56995 2.38900 -0.59576 
-0.51354 2.35900 -0.58828 
-0.50369 2.35900 -0.58828 
-0.49091 2.34500 -0.58479 
-0.46550 2.31600 -0.57756 
-0.42367 2.24800 -0.56060 
-0.41429 2.24800 -0.56060 
-0.33150 2.19700 -0.54788 
-0.15646 2.06600 -0.51521 
0.00728 2.02200 -0.50424 
0.02430 2.03300 -0.50698 
0.12745 2.81000 -0.70075 
0.14903 3.00900 -0.75037 
0.23220 3.50600 -0.87431 
0.24684 3.50600 -0.87431 
0.27872 3.53900 -0.88254 
0.37859 3.50600 -0.87431 
0.46191 3.26700 -0.81471 
0.48096 3.21200 -0.80100 
0.49529 3.13300 -0.78130 
0.51713 3.10700 -0.77481 
0.57281 3.05800 -0.76259 
0.61112 3.05800 -0.76259 
0.64411 3.03300 -0.75636 
0.71585 2.96300 -0.73890 
0.52340 1.76900 -0.44115 
0.55295 1.76900 -0.44115 
0.56515 1.76100 -0.43915 
0.63173 1.72200 -0.42943 
0.69802 1.69100 -0.42170 
0.77580 1.67600 -0.41795 
0.80380 1.67600 -0.41795 
0.82831 1.66900 -0.41621 
0.83528 1.66900 -0.41621 
0.89103 1.66900 -0.41621 
0.89800 1.66900 -0.41621 
0.91811 1.65500 -0.41272 
0.97465 1.66900 -0.41621 
0.99274 1.67600 -0.41795 
3.34809 5.46000 -1.36159 
3.98620 5.97200 -1.48927 
4.12561 6.06700 -1.51296 
4.12120 5.88000 -1.46633 
3.36217 4.60500 -1.14838 
3.15521 4.11000 -1.02493 
4.88557 6.06700 -1.51296 
5.23595 6.37000 -1.58852 
5.76327 6.70500 -1.67207 
5.84726 6.70500 -1.67207 
6.52718 7.07800 -1.76508 
6.87008 7.35000 -1.83291 
7.03597 7.49400 -1.86882 
7.60930 7.96300 -1.98578 
8.11340 8.30900 -2.07206 
8.32853 8.49300 -2.11795 
-1.26384 1.37500 -0.34863 
-1.25810 1.37500 -0.34863 
-1.21359 1.41000 -0.35751 
-1.20949 1.42600 -0.36156 
-1.19482 1.43700 -0.36435 
-1.17173 1.45300 -0.36841 
-1.16837 1.46400 -0.37120 
-1.15875 1.49900 -0.38007 
-1.10757 1.54100 -0.39072 
-1.08866 1.56000 -0.39554 
-1.07323 1.56600 -0.39706 
-1.06489 1.57300 -0.39884 
-1.06045 1.58600 -0.40213 
-1.05383 1.58600 -0.40213 
-1.05183 1.59300 -0.40391 
-1.04911 1.59900 -0.40543 
-1.04622 1.64700 -0.41760 
-0.99460 1.73700 -0.44042 
-0.97449 1.75300 -0.44448 
-0.95241 1.88300 -0.47744 
-0.92783 1.93000 -0.48935 
-0.91302 1.95000 -0.49443 
-0.87303 1.97000 -0.49950 
-0.84077 1.99100 -0.50482 
-0.82009 2.02200 -0.51268 
-0.81607 2.03300 -0.51547 
-0.77755 2.06600 -0.52384 
-0.76877 2.08900 -0.52967 
-0.76404 2.10000 -0.53246 
-0.74582 2.12300 -0.53829 
-0.72069 2.20900 -0.56010 
-0.70638 2.22200 -0.56339 
-0.69076 2.26200 -0.57353 
-0.65343 2.33100 -0.59103 
-0.62799 2.34500 -0.59458 
-0.61204 2.35900 -0.59813 
-0.52028 2.34500 -0.59458 
-0.28238 2.17200 -0.55071 
-0.20288 2.10000 -0.53246 
-0.11212 2.04400 -0.51826 
-0.01805 2.02200 -0.51268 
-0.00116 2.02200 -0.51268 
0.26394 3.53900 -0.89732 
0.42169 3.38200 -0.85751 
0.46191 3.26700 -0.82835 
0.50837 3.13300 -0.79438 
0.67496 3.05800 -0.77536 
0.68773 3.05800 -0.77536 
0.71408 2.81000 -0.71248 
0.66878 2.54800 -0.64605 
0.53336 1.85500 -0.47034 
0.53818 1.76900 -0.44853 
0.56034 1.76900 -0.44853 
0.56515 1.76100 -0.44650 
0.63892 1.72200 -0.43662 
0.64311 1.71400 -0.43459 
0.66147 1.70600 -0.43256 
0.74081 1.67600 -0.42495 
0.74781 1.67600 -0.42495 
0.76181 1.67600 -0.42495 
0.76880 1.67600 -0.42495 
0.78650 1.66900 -0.42318 
0.80044 1.66900 -0.42318 
0.81779 1.67600 -0.42495 
0.87012 1.66900 -0.42318 
3.64124 5.70500 -1.44651 
3.99845 5.88000 -1.49088 
4.02237 5.70500 -1.44651 
2.96143 3.90000 -0.98885 
3.48986 4.49700 -1.14022 
4.32838 5.46000 -1.38439 
4.54642 5.70500 -1.44651 
4.93623 6.06700 -1.53830 
5.67635 6.47800 -1.64250 
6.20838 6.82500 -1.73049 
6.37921 6.94900 -1.76193 
6.40822 6.94900 -1.76193 
7.09855 7.49400 -1.90011 
7.87265 8.13200 -2.06188 
10.03120 10.05800 -2.55022 
-1.26384 1.37500 -0.35437 
-1.22939 1.37500 -0.35437 
-1.22098 1.38500 -0.35695 
-1.19759 1.42600 -0.36752 
-1.19482 1.43700 -0.37035 
-1.17979 1.44800 -0.37319 
-1.16562 1.47600 -0.38040 
-1.15946 1.47600 -0.38040 
-1.15411 1.49300 -0.38479 
-1.14454 1.50500 -0.38788 
-1.12448 1.52900 -0.39406 
-1.11810 1.52900 -0.39406 
-1.11608 1.53500 -0.39561 
-1.05848 1.59300 -0.41056 
-1.04911 1.59900 -0.41211 
-1.01722 1.71400 -0.44174 
-1.01006 1.71400 -0.44174 
-0.97158 1.76100 -0.45386 
-0.96136 1.81100 -0.46674 
-0.92783 1.93000 -0.49741 
-0.91302 1.95000 -0.50257 
-0.87303 1.97000 -0.50772 
-0.84908 1.99100 -0.51313 
-0.79058 2.05500 -0.52963 
-0.76877 2.08900 -0.53839 
-0.76404 2.10000 -0.54123 
-0.74529 2.14700 -0.55334 
-0.67573 2.27500 -0.58633 
-0.56924 2.34500 -0.60437 
-0.46007 2.28900 -0.58994 
-0.37737 2.19700 -0.56623 
-0.34067 2.19700 -0.56623 
-0.28238 2.17200 -0.55978 
-0.27331 2.17200 -0.55978 
-0.22283 2.12300 -0.54715 
-0.17464 2.07700 -0.53530 
-0.00116 2.01200 -0.51855 
0.22399 3.38200 -0.87163 
0.43835 3.29500 -0.84921 
0.44827 3.26700 -0.84199 
0.53010 3.10700 -0.80076 
0.55157 3.08200 -0.79431 
0.73568 2.89500 -0.74612 
0.54091 1.77800 -0.45824 
0.60297 1.72200 -0.44381 
0.64311 1.71400 -0.44174 
0.66860 1.70600 -0.43968 
0.73732 1.68400 -0.43401 
0.77953 1.66900 -0.43015 
0.84566 1.66200 -0.42834 
0.99897 1.76100 -0.45386 
1.01089 1.76900 -0.45592 
3.34582 5.38300 -1.38734 
3.81703 5.79100 -1.49249 
3.93793 5.79100 -1.49249 
3.96211 5.79100 -1.49249 
4.03465 5.79100 -1.49249 
3.96315 5.62100 -1.44868 
3.92846 5.53900 -1.42755 
3.31439 4.29400 -1.10668 
5.14467 6.16500 -1.58888 
5.30744 6.26600 -1.61491 
5.38593 6.26600 -1.61491 
5.51675 6.26600 -1.61491 
5.66151 6.37000 -1.64172 
6.29387 6.82500 -1.75898 
6.77027 7.21100 -1.85847 
6.96215 7.35000 -1.89429 
7.55124 7.80000 -2.01027 
7.94056 8.13200 -2.09583 
9.48965 9.55500 -2.46258 
10.03120 10.05800 -2.59221 
-1.26384 1.37500 -0.36012 
-1.20770 1.41000 -0.36928 
-1.17047 1.45900 -0.38212 
-1.13825 1.50500 -0.39416 
-1.13279 1.52300 -0.39888 
-1.12448 1.52900 -0.40045 
-1.11810 1.52900 -0.40045 
-1.09897 1.54700 -0.40516 
-1.05848 1.59300 -0.41721 
-1.05371 1.60600 -0.42062 
-1.05156 1.61300 -0.42245 
-1.04936 1.62000 -0.42428 
-1.05097 1.63300 -0.42769 
-1.00759 1.72200 -0.45100 
-1.00040 1.72200 -0.45100 
-0.96611 1.77800 -0.46566 
-0.96464 1.80300 -0.47221 
-0.95267 1.83800 -0.48138 
-0.91644 1.94000 -0.50809 
-0.90488 1.95000 -0.51071 
-0.88126 1.97000 -0.51595 
-0.82854 2.02200 -0.52957 
-0.82009 2.02200 -0.52957 
-0.80341 2.04400 -0.53533 
-0.79915 2.05500 -0.53821 
-0.79058 2.05500 -0.53821 
-0.77749 2.08900 -0.54711 
-0.75004 2.13500 -0.55916 
-0.71051 2.23500 -0.58535 
-0.70118 2.23500 -0.58535 
-0.67573 2.27500 -0.59583 
-0.66453 2.30200 -0.60290 
-0.62799 2.34500 -0.61416 
-0.53958 2.30200 -0.60290 
-0.26425 2.17200 -0.56885 
-0.19309 2.08900 -0.54711 
-0.18437 2.08900 -0.54711 
-0.16509 2.06600 -0.54109 
-0.12066 2.04400 -0.53533 
-0.09454 2.03300 -0.53245 
-0.07757 2.03300 -0.53245 
-0.06908 2.03300 -0.53245 
0.01572 2.02200 -0.52957 
0.04127 2.03300 -0.53245 
0.13239 2.67300 -0.70006 
0.15317 2.85200 -0.74694 
0.19603 3.15900 -0.82735 
0.32004 3.50600 -0.91823 
0.33468 3.50600 -0.91823 
0.37179 3.44300 -0.90173 
0.52146 3.13300 -0.82054 
0.53010 3.10700 -0.81373 
0.73276 3.03300 -0.79435 
0.75296 2.96300 -0.77602 
0.71782 2.69200 -0.70504 
0.54879 1.82900 -0.47902 
0.57722 1.75300 -0.45911 
0.62454 1.72200 -0.45100 
0.66860 1.70600 -0.44681 
0.68004 1.69900 -0.44497 
0.71214 1.69100 -0.44288 
0.72326 1.68400 -0.44104 
0.81437 1.66900 -0.43711 
0.82484 1.66200 -0.43528 
0.83872 1.66200 -0.43528 
0.85954 1.66200 -0.43528 
0.89477 1.67600 -0.43895 
0.91690 1.69100 -0.44288 
0.94368 1.71400 -0.44890 
0.95916 1.72900 -0.45283 
3.48904 5.53900 -1.45067 
3.88957 5.79100 -1.51667 
3.95091 5.70500 -1.49415 
3.01957 4.06600 -1.06489 
2.94514 3.90000 -1.02142 
3.07162 4.02300 -1.05363 
3.31439 4.29400 -1.12461 
3.44873 4.44400 -1.16389 
3.89372 4.96400 -1.30008 
5.08822 6.06700 -1.58896 
10.07320 10.05800 -2.63421 
11.35190 11.24100 -2.94404 
-1.27532 1.37500 -0.36586 
-1.24538 1.38000 -0.36719 
-1.22810 1.38000 -0.36719 
-1.21515 1.40500 -0.37384 
-1.20770 1.41000 -0.37517 
-1.20692 1.41600 -0.37677 
-1.20354 1.42600 -0.37943 
-1.19482 1.43700 -0.38235 
-1.18694 1.44200 -0.38368 
-1.17173 1.45300 -0.38661 
-1.15829 1.45900 -0.38821 
-1.13997 1.49900 -0.39885 
-1.13825 1.50500 -0.40045 
-1.05371 1.60600 -0.42732 
-1.05097 1.63300 -0.43450 
-1.04626 1.66900 -0.44408 
-0.97449 1.75300 -0.46643 
-0.96300 1.78600 -0.47521 
-0.95854 1.82000 -0.48426 
-0.94786 1.87400 -0.49863 
-0.89315 1.96000 -0.52151 
-0.88497 1.96000 -0.52151 
-0.81165 2.02200 -0.53801 
-0.80758 2.03300 -0.54094 
-0.80341 2.04400 -0.54386 
-0.77749 2.08900 -0.55584 
-0.75469 2.12300 -0.56488 
-0.72595 2.19700 -0.58457 
-0.66453 2.30200 -0.61251 
-0.36601 2.18400 -0.58111 
-0.25365 2.15900 -0.57446 
-0.18437 2.08900 -0.55584 
-0.12989 2.05500 -0.54679 
-0.10359 2.04400 -0.54386 
-0.07757 2.03300 -0.54094 
-0.04338 2.02200 -0.53801 
0.02405 2.01200 -0.53535 
0.07130 2.17200 -0.57792 
0.08270 2.23500 -0.59468 
0.37607 3.35300 -0.89216 
0.39708 3.29500 -0.87673 
0.45032 3.18500 -0.84746 
0.48621 3.15900 -0.84054 
0.50837 3.13300 -0.83362 
0.54307 3.10700 -0.82670 
0.56902 3.10700 -0.82670 
0.58199 3.10700 -0.82670 
0.60794 3.10700 -0.82670 
0.71326 3.05800 -0.81366 
0.76465 3.00900 -0.80063 
0.77128 2.98600 -0.79451 
0.73935 2.73000 -0.72639 
0.72490 2.63600 -0.70138 
0.55917 1.83800 -0.48905 
0.55605 1.80300 -0.47974 
0.56515 1.76100 -0.46856 
0.62454 1.72200 -0.45819 
0.62879 1.71400 -0.45606 
0.67572 1.70600 -0.45393 
0.68004 1.69900 -0.45207 
0.71214 1.69100 -0.44994 
0.71920 1.69100 -0.44994 
0.73732 1.68400 -0.44807 
0.75481 1.67600 -0.44595 
0.75863 1.66900 -0.44408 
0.76559 1.66900 -0.44408 
0.81790 1.66200 -0.44222 
0.85260 1.66200 -0.44222 
1.01221 1.81100 -0.48187 
3.86927 5.62100 -1.49562 
3.85908 5.53900 -1.47380 
3.84963 5.46000 -1.45278 
3.22573 4.39300 -1.16888 
2.92886 3.90000 -1.03770 
2.97535 3.94000 -1.04834 
4.52642 5.62100 -1.49562 
4.73585 5.79100 -1.54085 
4.85774 5.88000 -1.56453 
5.03348 5.97200 -1.58901 
5.08335 5.97200 -1.58901 
5.10829 5.97200 -1.58901 
5.23297 5.97200 -1.58901 
5.50505 6.16500 -1.64037 
6.04964 6.59000 -1.75345 
6.21121 6.70500 -1.78405 
6.43636 6.82500 -1.81598 
6.61132 6.94900 -1.84897 
9.85573 9.80000 -2.60756 
-1.25235 1.37500 -0.37160 
-1.21667 1.40000 -0.37835 
-1.20525 1.42100 -0.38403 
-1.16438 1.45900 -0.39430 
-1.15003 1.46400 -0.39565 
-1.14327 1.48700 -0.40187 
-1.13197 1.50500 -0.40673 
-1.11608 1.53500 -0.41484 
-1.09517 1.56000 -0.42159 
-1.08460 1.57300 -0.42511 
-1.01959 1.70600 -0.46105 
-0.96861 1.76900 -0.47808 
-0.94280 1.86400 -0.50375 
-0.92783 1.93000 -0.52159 
-0.82009 2.02200 -0.54645 
-0.78169 2.07700 -0.56132 
-0.76404 2.10000 -0.56753 
-0.73583 2.17200 -0.58699 
-0.71051 2.23500 -0.60402 
-0.69587 2.24800 -0.60753 
-0.67573 2.27500 -0.61483 
-0.63956 2.31600 -0.62591 
-0.62022 2.31600 -0.62591 
-0.52387 2.23500 -0.60402 
-0.30218 2.18400 -0.59023 
-0.22283 2.12300 -0.57375 
-0.15646 2.06600 -0.55834 
-0.12989 2.05500 -0.55537 
-0.04338 2.02200 -0.54645 
0.23366 3.13300 -0.84670 
0.29207 3.35300 -0.90616 
0.33407 3.35300 -0.90616 
0.45983 3.15900 -0.85373 
0.47302 3.15900 -0.85373 
0.58199 3.10700 -0.83968 
0.72603 3.05800 -0.82643 
0.76465 3.00900 -0.81319 
0.76725 2.79000 -0.75401 
0.56708 1.86400 -0.50375 
0.55576 1.77800 -0.48051 
0.56515 1.76100 -0.47592 
0.61016 1.72200 -0.46538 
0.64311 1.71400 -0.46321 
0.66147 1.70600 -0.46105 
0.73029 1.68400 -0.45511 
0.73732 1.68400 -0.45511 
0.78320 1.66200 -0.44916 
0.83178 1.66200 -0.44916 
1.00021 1.80300 -0.48727 
2.94647 4.83800 -1.30748 
3.50767 5.46000 -1.47558 
3.55326 5.46000 -1.47558 
3.69718 5.53900 -1.49693 
3.84580 5.62100 -1.51909 
3.85908 5.53900 -1.49693 
3.68184 4.71900 -1.27532 
3.89372 4.96400 -1.34153 
5.33271 5.97200 -1.61395 
6.15971 6.59000 -1.78097 
6.37918 6.70500 -1.81204 
6.40718 6.70500 -1.81204 
8.43491 8.49300 -2.29526 
-1.27640 1.37000 -0.37597 
-1.23255 1.38500 -0.38008 
-1.22251 1.40000 -0.38420 
-1.21119 1.42100 -0.38996 
-1.20179 1.43100 -0.39271 
-1.16438 1.45900 -0.40039 
-1.14713 1.47600 -0.40506 
-1.13706 1.48700 -0.40807 
-1.12199 1.51700 -0.41631 
-1.12007 1.52300 -0.41795 
-1.10543 1.54700 -0.42454 
-1.09285 1.56600 -0.42975 
-1.06041 1.60600 -0.44073 
-1.05547 1.64000 -0.45006 
-1.02672 1.70600 -0.46817 
-0.99724 1.72900 -0.47449 
-0.99002 1.72900 -0.47449 
-0.98735 1.73700 -0.47668 
-0.95711 1.80300 -0.49479 
-0.94003 1.87400 -0.51428 
-0.92783 1.93000 -0.52965 
-0.90488 1.95000 -0.53514 
-0.88497 1.96000 -0.53788 
-0.82009 2.02200 -0.55489 
-0.78169 2.07700 -0.56999 
-0.74044 2.15900 -0.59249 
-0.67573 2.27500 -0.62432 
-0.66623 2.27500 -0.62432 
-0.53622 2.20900 -0.60621 
-0.43306 2.24800 -0.61691 
-0.33150 2.19700 -0.60292 
-0.30218 2.18400 -0.59935 
-0.20288 2.10000 -0.57630 
-0.13058 2.06600 -0.56697 
-0.11273 2.05500 -0.56395 
-0.08699 2.05500 -0.56395 
-0.04361 2.03300 -0.55791 
0.02405 2.01200 -0.55215 
0.12991 2.41900 -0.66384 
0.24470 3.10700 -0.85265 
0.34205 3.29500 -0.90424 
0.35581 3.29500 -0.90424 
0.48221 3.13300 -0.85978 
0.49529 3.13300 -0.85978 
0.58199 3.10700 -0.85265 
0.62091 3.10700 -0.85265 
0.78342 3.03300 -0.83234 
0.80235 2.87400 -0.78871 
0.78488 2.77000 -0.76017 
0.58646 1.73700 -0.47668 
0.61448 1.71400 -0.47037 
0.62879 1.71400 -0.47037 
0.63298 1.70600 -0.46817 
0.72326 1.68400 -0.46214 
0.78320 1.66200 -0.45610 
1.37376 2.40400 -0.65973 
2.31007 3.90000 -1.07027 
3.10479 5.02900 -1.38010 
3.59886 5.46000 -1.49838 
3.64445 5.46000 -1.49838 
3.72031 5.53900 -1.52006 
3.69170 5.23600 -1.43691 
4.20788 5.30800 -1.45666 
4.28981 5.38300 -1.47725 
4.78458 5.62100 -1.54256 
5.49353 6.06700 -1.66495 
6.00727 6.37000 -1.74811 
6.06046 6.37000 -1.74811 
-1.27640 1.37000 -0.38169 
-1.24538 1.38000 -0.38447 
-1.23119 1.39000 -0.38726 
-1.21119 1.42100 -0.39590 
-1.20082 1.43700 -0.40035 
-1.19188 1.44800 -0.40342 
-1.18386 1.45300 -0.40481 
-1.15829 1.45900 -0.40648 
-1.12199 1.51700 -0.42264 
-1.10967 1.53500 -0.42766 
-1.07178 1.59300 -0.44382 
-1.02672 1.70600 -0.47530 
-0.97733 1.74500 -0.48616 
-0.97158 1.76100 -0.49062 
-0.94003 1.87400 -0.52210 
-0.88497 1.96000 -0.54606 
-0.82854 2.02200 -0.56334 
-0.80773 2.05500 -0.57253 
-0.78618 2.06600 -0.57560 
-0.77749 2.08900 -0.58200 
-0.73077 2.18400 -0.60847 
-0.71147 2.20900 -0.61544 
-0.69185 2.23500 -0.62268 
-0.68132 2.26200 -0.63020 
-0.59974 2.27500 -0.63382 
-0.53016 2.18400 -0.60847 
-0.51818 2.17200 -0.60513 
-0.48575 2.27500 -0.63382 
-0.34067 2.19700 -0.61209 
-0.21285 2.11200 -0.58841 
-0.18437 2.08900 -0.58200 
-0.15729 2.07700 -0.57866 
-0.09557 2.05500 -0.57253 
-0.08699 2.05500 -0.57253 
-0.03512 2.03300 -0.56640 
0.03245 2.01200 -0.56055 
0.04925 2.01200 -0.56055 
0.11070 2.23500 -0.62268 
0.27979 3.21200 -0.89487 
0.30919 3.23900 -0.90240 
0.41042 3.18500 -0.88735 
0.48221 3.13300 -0.87286 
0.53454 3.13300 -0.87286 
0.60794 3.10700 -0.86562 
0.63388 3.10700 -0.86562 
0.82141 3.03300 -0.84500 
0.82747 3.00900 -0.83832 
0.73363 2.51500 -0.70069 
0.55826 1.78600 -0.49759 
0.64723 1.70600 -0.47530 
0.67295 1.69900 -0.47335 
0.68714 1.69900 -0.47335 
0.70132 1.69900 -0.47335 
0.71214 1.69100 -0.47112 
0.84210 1.65500 -0.46109 
0.84901 1.65500 -0.46109 
0.85591 1.65500 -0.46109 
0.87342 1.66200 -0.46304 
0.91791 1.70600 -0.47530 
1.00204 1.82000 -0.50706 
1.04958 1.89200 -0.52712 
1.31381 2.31600 -0.64525 
2.63877 4.39300 -1.22390 
3.29818 5.23600 -1.45877 
3.36569 5.30800 -1.47883 
3.41002 5.30800 -1.47883 
3.43218 5.30800 -1.47883 
3.52563 5.38300 -1.49972 
3.56516 5.30800 -1.47883 
3.11852 4.24700 -1.18323 
3.07162 4.02300 -1.12082 
3.63659 4.66100 -1.29857 
3.84352 4.90000 -1.36516 
4.57602 5.53900 -1.54318 
4.78458 5.62100 -1.56603 
4.90193 5.62100 -1.56603 
6.19345 6.37000 -1.77470 
-1.28212 1.37000 -0.38741 
-1.26496 1.37000 -0.38741 
-1.25810 1.37500 -0.38882 
-1.25115 1.38000 -0.39024 
-1.23700 1.39000 -0.39306 
-1.22836 1.40000 -0.39589 
-1.18386 1.45300 -0.41088 
-1.17173 1.45300 -0.41088 
-1.11371 1.52300 -0.43067 
-1.08460 1.57300 -0.44481 
-1.07178 1.59300 -0.45047 
-1.06041 1.60600 -0.45414 
-1.05830 1.61300 -0.45612 
-1.05310 1.64700 -0.46574 
-1.02960 1.69900 -0.48044 
-0.98181 1.75300 -0.49571 
-0.93825 1.85500 -0.52456 
-0.87678 1.96000 -0.55425 
-0.85740 1.99100 -0.56301 
-0.84077 1.99100 -0.56301 
-0.83664 2.00100 -0.56584 
-0.81607 2.03300 -0.57489 
-0.79037 2.07700 -0.58733 
-0.74529 2.14700 -0.60713 
-0.63210 2.28900 -0.64728 
-0.61874 2.27500 -0.64332 
-0.56083 2.19700 -0.62127 
-0.48575 2.27500 -0.64332 
-0.40256 2.23500 -0.63201 
-0.12196 2.06600 -0.58422 
-0.10470 2.06600 -0.58422 
-0.09557 2.05500 -0.58111 
-0.04385 2.04400 -0.57800 
0.07523 2.03300 -0.57489 
0.09579 2.11200 -0.59723 
0.30661 3.21200 -0.90829 
0.34685 3.21200 -0.90829 
0.36026 3.21200 -0.90829 
0.40707 3.15900 -0.89330 
0.42026 3.15900 -0.89330 
0.49529 3.13300 -0.88595 
0.53454 3.13300 -0.88595 
0.71886 3.08200 -0.87152 
0.84608 2.98600 -0.84438 
0.83238 2.89500 -0.81865 
0.60297 1.72200 -0.48695 
0.65876 1.69900 -0.48044 
0.76932 1.66200 -0.46998 
0.79708 1.66200 -0.46998 
0.84901 1.65500 -0.46800 
1.14244 2.04400 -0.57800 
1.36373 2.40400 -0.67980 
2.01063 3.44300 -0.97361 
3.53866 5.23600 -1.48063 
3.17088 4.34300 -1.22811 
2.94514 3.90000 -1.10284 
3.15521 4.11000 -1.16222 
4.11608 5.16500 -1.46055 
4.46516 5.46000 -1.54397 
4.48796 5.46000 -1.54397 
4.55635 5.46000 -1.54397 
4.57915 5.46000 -1.54397 
4.71479 5.53900 -1.56631 
4.76104 5.53900 -1.56631 
5.38870 5.79100 -1.63757 
5.35631 5.70500 -1.61325 
5.42777 5.70500 -1.61325 
5.58213 5.79100 -1.63757 
5.92418 6.06700 -1.71562 
6.90147 6.94900 -1.96503 
-1.26384 1.37500 -0.39456 
-1.22536 1.41000 -0.40461 
-1.20500 1.44200 -0.41379 
-1.18266 1.45900 -0.41867 
-1.15829 1.45900 -0.41867 
-1.13633 1.47000 -0.42182 
-1.12746 1.49900 -0.43014 
-1.11371 1.52300 -0.43703 
-1.06004 1.62600 -0.46659 
-1.04593 1.69100 -0.48524 
-0.97893 1.76100 -0.50533 
-0.95711 1.80300 -0.51738 
-0.94801 1.82900 -0.52484 
-0.93465 1.91100 -0.54837 
-0.85740 1.99100 -0.57133 
-0.82854 2.02200 -0.58022 
-0.81607 2.03300 -0.58338 
-0.75469 2.12300 -0.60920 
-0.74529 2.14700 -0.61609 
-0.71147 2.20900 -0.63388 
-0.68649 2.24800 -0.64507 
-0.63774 2.27500 -0.65282 
-0.62824 2.27500 -0.65282 
-0.60201 2.24800 -0.64507 
-0.52421 2.12300 -0.60920 
-0.49097 2.17200 -0.62326 
-0.49011 2.20900 -0.63388 
-0.45583 2.31600 -0.66459 
-0.42876 2.27500 -0.65282 
-0.33150 2.19700 -0.63044 
-0.24192 2.13500 -0.61265 
-0.23169 2.12300 -0.60920 
-0.21164 2.10000 -0.60260 
-0.17565 2.08900 -0.59945 
-0.13995 2.07700 -0.59600 
-0.13128 2.07700 -0.59600 
-0.12261 2.07700 -0.59600 
-0.07840 2.05500 -0.58969 
-0.06982 2.05500 -0.58969 
-0.05238 2.04400 -0.58653 
0.04062 2.00100 -0.57420 
0.09474 2.08900 -0.59945 
0.11933 2.22200 -0.63761 
0.32002 3.21200 -0.92170 
0.42026 3.15900 -0.90649 
0.62091 3.10700 -0.89157 
0.64686 3.10700 -0.89157 
0.71886 3.08200 -0.88439 
0.76434 3.05800 -0.87751 
0.84095 3.05800 -0.87751 
0.56889 1.82000 -0.52226 
0.61448 1.71400 -0.49184 
0.66585 1.69900 -0.48754 
0.72626 1.69100 -0.48524 
0.82136 1.65500 -0.47491 
0.87342 1.66200 -0.47692 
1.52748 2.67300 -0.76703 
2.14087 3.64000 -1.04451 
2.65711 4.39300 -1.26059 
2.98687 4.83800 -1.38828 
3.46911 5.16500 -1.48212 
3.17088 4.34300 -1.24624 
2.95644 3.98100 -1.14236 
3.81509 4.83800 -1.38828 
3.93518 4.96400 -1.42444 
4.00770 5.02900 -1.44309 
4.15922 5.16500 -1.48212 
4.62474 5.46000 -1.56677 
4.64754 5.46000 -1.56677 
4.94606 5.53900 -1.58944 
5.79068 5.88000 -1.68729 
6.43369 6.47800 -1.85889 
-1.23562 1.39500 -0.40613 
-1.23275 1.40500 -0.40904 
-1.16438 1.45900 -0.42476 
-1.13781 1.46400 -0.42621 
-1.09117 1.57300 -0.45795 
-1.06289 1.62000 -0.47163 
-1.05778 1.63300 -0.47541 
-1.05821 1.65500 -0.48182 
-1.02197 1.72200 -0.50133 
-0.94911 1.84600 -0.53743 
-0.94599 1.85500 -0.54005 
-0.88497 1.96000 -0.57061 
-0.84908 1.99100 -0.57964 
-0.82854 2.02200 -0.58866 
-0.82048 2.04400 -0.59507 
-0.78621 2.08900 -0.60817 
-0.75469 2.12300 -0.61807 
-0.62465 2.26200 -0.65854 
-0.50977 2.10000 -0.61137 
-0.49428 2.14700 -0.62506 
-0.49299 2.22200 -0.64689 
-0.48112 2.34500 -0.68270 
-0.43140 2.28900 -0.66640 
-0.41686 2.26200 -0.65854 
-0.38865 2.20900 -0.64311 
-0.27168 2.15900 -0.62855 
-0.18437 2.08900 -0.60817 
-0.16692 2.08900 -0.60817 
-0.13995 2.07700 -0.60468 
-0.04385 2.04400 -0.59507 
0.04873 1.99100 -0.57964 
0.07445 2.01200 -0.58575 
0.14918 2.40400 -0.69988 
0.18686 2.65400 -0.77266 
0.38383 3.18500 -0.92725 
0.41042 3.18500 -0.92725 
0.43345 3.15900 -0.91968 
0.47302 3.15900 -0.91968 
0.52578 3.15900 -0.91968 
0.78320 3.08200 -0.89726 
0.78987 3.05800 -0.89027 
0.82580 2.83100 -0.82419 
0.56991 1.75300 -0.51035 
0.57459 1.74500 -0.50802 
0.60297 1.72200 -0.50133 
0.61448 1.71400 -0.49900 
0.66860 1.70600 -0.49667 
0.79014 1.66200 -0.48386 
1.39890 2.46600 -0.71793 
3.20978 5.02900 -1.46409 
3.38021 5.09600 -1.48360 
3.44405 5.09600 -1.48360 
3.41701 4.96400 -1.44517 
3.41388 4.90000 -1.42653 
3.26502 4.55000 -1.32464 
4.09169 5.02900 -1.46409 
4.73873 5.46000 -1.58957 
4.76153 5.46000 -1.58957 
4.82992 5.46000 -1.58957 
4.85272 5.46000 -1.58957 
4.99231 5.53900 -1.61257 
5.02790 5.30800 -1.54532 
5.18885 5.38300 -1.56715 
5.53561 5.62100 -1.63644 
6.12283 6.16500 -1.79481 
6.48779 6.47800 -1.88594 
-1.28212 1.37000 -0.40457 
-1.27532 1.37500 -0.40604 
-1.25691 1.38000 -0.40752 
-1.23700 1.39000 -0.41047 
-1.23562 1.39500 -0.41195 
-1.23421 1.40000 -0.41343 
-1.15829 1.45900 -0.43085 
-1.14392 1.46400 -0.43233 
-1.13633 1.47000 -0.43410 
-1.11189 1.54700 -0.45684 
-1.08873 1.57900 -0.46629 
-1.08032 1.58600 -0.46835 
-1.06914 1.59900 -0.47219 
-1.06503 1.61300 -0.47633 
-1.06289 1.62000 -0.47839 
-1.05575 1.66200 -0.49080 
-1.05323 1.66900 -0.49286 
-1.04160 1.68400 -0.49729 
-1.03384 1.70600 -0.50379 
-1.02437 1.71400 -0.50615 
-1.00911 1.73700 -0.51294 
-0.99918 1.74500 -0.51531 
-0.99645 1.75300 -0.51767 
-0.96732 1.79400 -0.52978 
-0.87678 1.96000 -0.57880 
-0.85740 1.99100 -0.58795 
-0.84908 1.99100 -0.58795 
-0.83284 2.01200 -0.59415 
-0.82854 2.02200 -0.59711 
-0.72676 2.17200 -0.64140 
-0.72166 2.18400 -0.64495 
-0.66623 2.27500 -0.67182 
-0.66078 2.28900 -0.67595 
-0.63774 2.27500 -0.67182 
-0.57575 2.18400 -0.64495 
-0.56015 2.15900 -0.63756 
-0.49504 2.11200 -0.62368 
-0.49368 2.18400 -0.64495 
-0.47133 2.34500 -0.69249 
-0.43140 2.28900 -0.67595 
-0.30959 2.17200 -0.64140 
-0.30052 2.17200 -0.64140 
-0.28971 2.15900 -0.63756 
-0.20288 2.10000 -0.62014 
-0.15820 2.08900 -0.61689 
-0.13204 2.08900 -0.61689 
-0.09659 2.07700 -0.61335 
-0.04408 2.05500 -0.60685 
-0.00971 2.04400 -0.60360 
0.04042 1.99100 -0.58795 
0.05705 1.99100 -0.58795 
0.15104 2.43400 -0.71877 
0.18820 2.67300 -0.78935 
0.24764 2.98600 -0.88178 
0.33063 3.18500 -0.94055 
0.41042 3.18500 -0.94055 
0.42026 3.15900 -0.93287 
0.52578 3.15900 -0.93287 
0.53897 3.15900 -0.93287 
0.55216 3.15900 -0.93287 
0.56535 3.15900 -0.93287 
0.62611 3.13300 -0.92519 
0.64686 3.10700 -0.91751 
0.65983 3.10700 -0.91751 
0.73173 3.08200 -0.91013 
0.77033 3.08200 -0.91013 
0.80894 3.08200 -0.91013 
0.56730 1.74500 -0.51531 
0.57459 1.74500 -0.51531 
0.62164 1.71400 -0.50615 
0.63298 1.70600 -0.50379 
0.66860 1.70600 -0.50379 
0.69709 1.70600 -0.50379 
0.79014 1.66200 -0.49080 
0.80402 1.66200 -0.49080 
0.82136 1.65500 -0.48873 
3.26603 4.60500 -1.35988 
3.15275 4.34300 -1.28251 
2.95644 3.98100 -1.17561 
2.89957 3.86100 -1.14017 
2.96143 3.90000 -1.15169 
3.84758 4.77800 -1.41097 
4.49600 5.30800 -1.56748 
4.73873 5.46000 -1.61236 
4.82992 5.46000 -1.61236 
4.98950 5.46000 -1.61236 
4.96142 5.30800 -1.56748 
5.18304 5.30800 -1.56748 
5.95609 5.97200 -1.76356 
6.07617 6.06700 -1.79161 
-1.29254 1.37500 -0.41179 
-1.24538 1.38000 -0.41328 
-1.23275 1.40500 -0.42077 
-1.21882 1.43700 -0.43035 
-1.21002 1.44800 -0.43365 
-1.20093 1.45900 -0.43694 
-1.19484 1.45900 -0.43694 
-1.12120 1.49900 -0.44892 
-1.11608 1.53500 -0.45970 
-1.07582 1.59900 -0.47887 
-1.06712 1.60600 -0.48097 
-0.95682 1.84600 -0.55284 
-0.94280 1.86400 -0.55823 
-0.88497 1.96000 -0.58698 
-0.87678 1.96000 -0.58698 
-0.84499 2.00100 -0.59926 
-0.83698 2.02200 -0.60555 
-0.82854 2.02200 -0.60555 
-0.75469 2.12300 -0.63580 
-0.74582 2.12300 -0.63580 
-0.71254 2.18400 -0.65407 
-0.68132 2.26200 -0.67742 
-0.51014 2.06600 -0.61873 
-0.49588 2.23500 -0.66934 
-0.49384 2.35900 -0.70647 
-0.41686 2.26200 -0.67742 
-0.30959 2.17200 -0.65047 
-0.27913 2.14700 -0.64298 
-0.25083 2.13500 -0.63939 
-0.23169 2.12300 -0.63580 
-0.15027 2.10000 -0.62891 
-0.12396 2.10000 -0.62891 
-0.09715 2.08900 -0.62561 
0.05705 1.99100 -0.59627 
0.06536 1.99100 -0.59627 
0.10817 2.18400 -0.65407 
0.26420 3.03300 -0.90832 
0.29659 3.10700 -0.93049 
0.59173 3.15900 -0.94606 
0.80774 2.73000 -0.81758 
0.62586 1.70600 -0.51091 
0.66860 1.70600 -0.51091 
0.68997 1.70600 -0.51091 
0.75138 1.68400 -0.50433 
0.77580 1.67600 -0.50193 
0.78650 1.66900 -0.49983 
0.81096 1.66200 -0.49774 
1.06260 1.93000 -0.57800 
1.12780 2.03300 -0.60884 
1.51663 2.65400 -0.79482 
2.08146 3.53900 -1.05986 
2.45162 4.11000 -1.23086 
2.52284 4.20000 -1.25782 
2.87760 4.66100 -1.39588 
3.14848 4.83800 -1.44889 
3.28988 4.83800 -1.44889 
3.28898 4.77800 -1.43092 
2.93181 3.86100 -1.15629 
4.27387 5.09600 -1.52615 
4.45687 5.23600 -1.56808 
4.80712 5.46000 -1.63516 
4.82992 5.46000 -1.63516 
4.92111 5.46000 -1.63516 
4.89666 5.38300 -1.61210 
4.94161 5.38300 -1.61210 
4.87225 5.23600 -1.56808 
4.82775 5.16500 -1.54682 
5.32371 5.38300 -1.61210 
-1.22466 1.41600 -0.42998 
-1.22140 1.42600 -0.43301 
-1.21971 1.43100 -0.43453 
-1.21102 1.44200 -0.43787 
-1.16226 1.46400 -0.44455 
-1.15003 1.46400 -0.44455 
-1.12120 1.49900 -0.45518 
-1.11608 1.53500 -0.46611 
-1.07582 1.59900 -0.48555 
-1.06289 1.62000 -0.49192 
-1.04626 1.66900 -0.50680 
-1.00647 1.74500 -0.52988 
-0.97792 1.78600 -0.54233 
-0.97217 1.80300 -0.54749 
-0.94280 1.86400 -0.56601 
-0.93465 1.91100 -0.58029 
-0.92350 1.92100 -0.58332 
-0.88497 1.96000 -0.59517 
-0.84124 2.01200 -0.61096 
-0.82455 2.03300 -0.61733 
-0.82048 2.04400 -0.62067 
-0.74582 2.12300 -0.64466 
-0.71254 2.18400 -0.66318 
-0.70760 2.19700 -0.66713 
-0.70225 2.20900 -0.67078 
-0.69710 2.22200 -0.67472 
-0.50113 2.30200 -0.69902 
-0.49698 2.37400 -0.72088 
-0.47414 2.35900 -0.71632 
-0.04432 2.06600 -0.62735 
-0.00966 2.03300 -0.61733 
0.21271 2.85200 -0.86603 
0.37053 3.18500 -0.96714 
0.47302 3.15900 -0.95925 
0.53897 3.15900 -0.95925 
0.57854 3.15900 -0.95925 
0.60492 3.15900 -0.95925 
0.61302 3.13300 -0.95135 
0.65227 3.13300 -0.95135 
0.65983 3.10700 -0.94346 
0.80264 3.05800 -0.92858 
0.82818 3.05800 -0.92858 
0.75943 2.53100 -0.76855 
0.58646 1.73700 -0.52745 
0.62879 1.71400 -0.52047 
0.66147 1.70600 -0.51804 
0.73332 1.69100 -0.51348 
0.85260 1.66200 -0.50468 
0.91505 1.71400 -0.52047 
1.02395 1.87400 -0.56905 
3.07104 4.71900 -1.43295 
3.14985 4.71900 -1.43295 
3.16989 4.60500 -1.39833 
3.09835 4.34300 -1.31878 
3.60252 4.49700 -1.36554 
4.10949 4.90000 -1.48791 
4.78428 5.38300 -1.63458 
4.89666 5.38300 -1.63458 
4.85060 5.30800 -1.61180 
4.87276 5.30800 -1.61180 
4.76363 5.02900 -1.52708 
4.82662 5.02900 -1.52708 
4.84762 5.02900 -1.52708 
4.91061 5.02900 -1.52708 
5.34618 5.38300 -1.63458 
5.44545 5.46000 -1.65796 
5.62949 5.62100 -1.70685 
5.65296 5.62100 -1.70685 
-1.26384 1.37500 -0.42327 
-1.23421 1.40000 -0.43096 
-1.20813 1.45300 -0.44728 
-1.18060 1.46400 -0.45066 
-1.15475 1.47000 -0.45251 
-1.14097 1.47600 -0.45436 
-1.12007 1.52300 -0.46883 
-1.10430 1.57300 -0.48422 
-1.10192 1.57900 -0.48607 
-1.06966 1.62000 -0.49869 
-1.02960 1.69900 -0.52301 
-0.97792 1.78600 -0.54979 
-0.95564 1.82900 -0.56302 
-0.95682 1.84600 -0.56826 
-0.94280 1.86400 -0.57380 
-0.90133 1.96000 -0.60335 
-0.87303 1.97000 -0.60643 
-0.86093 1.98000 -0.60951 
-0.82455 2.03300 -0.62582 
-0.82048 2.04400 -0.62921 
-0.77749 2.08900 -0.64306 
-0.73632 2.14700 -0.66091 
-0.70760 2.19700 -0.67630 
-0.68523 2.27500 -0.70032 
-0.67033 2.28900 -0.70463 
-0.52153 2.07700 -0.63937 
-0.51014 2.06600 -0.63598 
-0.49837 2.08900 -0.64306 
-0.50187 2.26200 -0.69631 
-0.47414 2.35900 -0.72617 
-0.41429 2.24800 -0.69200 
-0.40022 2.22200 -0.68400 
-0.28810 2.14700 -0.66091 
-0.25083 2.13500 -0.65722 
-0.24192 2.13500 -0.65722 
-0.23300 2.13500 -0.65722 
-0.18737 2.12300 -0.65353 
-0.16964 2.12300 -0.65353 
-0.15995 2.11200 -0.65014 
-0.08842 2.08900 -0.64306 
0.04798 1.96000 -0.60335 
0.06467 1.97000 -0.60643 
0.14366 2.48200 -0.76404 
0.18346 2.77000 -0.85269 
0.35723 3.18500 -0.98044 
0.37053 3.18500 -0.98044 
0.42372 3.18500 -0.98044 
0.45983 3.15900 -0.97244 
0.51259 3.15900 -0.97244 
0.62611 3.13300 -0.96443 
0.65227 3.13300 -0.96443 
0.67280 3.10700 -0.95643 
0.74460 3.08200 -0.94874 
0.78342 3.03300 -0.93365 
0.79608 3.03300 -0.93365 
0.82747 3.00900 -0.92626 
0.59820 1.72900 -0.53224 
0.65435 1.70600 -0.52516 
0.68997 1.70600 -0.52516 
0.69709 1.70600 -0.52516 
0.70421 1.70600 -0.52516 
0.72970 1.69900 -0.52301 
0.75841 1.68400 -0.51839 
0.78980 1.67600 -0.51593 
0.81096 1.66200 -0.51162 
0.83178 1.66200 -0.51162 
0.84566 1.66200 -0.51162 
0.89201 1.68400 -0.51839 
1.14001 2.05500 -0.63259 
3.05133 4.71900 -1.45265 
3.03329 4.66100 -1.43480 
3.05275 4.66100 -1.43480 
3.11221 4.60500 -1.41756 
3.08021 4.34300 -1.33691 
2.89629 3.90000 -1.20054 
2.96405 3.86100 -1.18854 
3.01028 3.90000 -1.20054 
3.22385 4.11000 -1.26518 
3.51921 4.39300 -1.35230 
3.93799 4.71900 -1.45265 
4.62897 5.30800 -1.63397 
4.73933 5.38300 -1.65705 
4.68133 4.96400 -1.52807 
4.80511 4.90000 -1.50837 
-1.27532 1.37500 -0.42901 
-1.23275 1.40500 -0.43837 
-1.22140 1.42600 -0.44492 
-1.21971 1.43100 -0.44648 
-1.21882 1.43700 -0.44835 
-1.20813 1.45300 -0.45335 
-1.20702 1.45900 -0.45522 
-1.14713 1.47600 -0.46052 
-1.14484 1.48100 -0.46208 
-1.13706 1.48700 -0.46395 
-1.12007 1.52300 -0.47519 
-1.11371 1.52300 -0.47519 
-1.10192 1.57900 -0.49266 
-1.09356 1.58600 -0.49484 
-1.06966 1.62000 -0.50545 
-1.04160 1.68400 -0.52542 
-1.03457 1.68400 -0.52542 
-1.02960 1.69900 -0.53010 
-1.01959 1.70600 -0.53228 
-1.00647 1.74500 -0.54445 
-0.93025 1.90200 -0.59344 
-0.86093 1.98000 -0.61777 
-0.74196 2.11200 -0.65896 
-0.73221 2.13500 -0.66613 
-0.72736 2.14700 -0.66988 
-0.71340 2.15900 -0.67362 
-0.70862 2.17200 -0.67768 
-0.70760 2.19700 -0.68548 
-0.68523 2.27500 -0.70981 
-0.52153 2.07700 -0.64804 
-0.50100 2.10000 -0.65521 
-0.37307 2.17200 -0.67768 
-0.28971 2.15900 -0.67362 
-0.14231 2.11200 -0.65896 
-0.09766 2.10000 -0.65521 
-0.07057 2.07700 -0.64804 
0.00713 1.98000 -0.61777 
0.22442 3.00900 -0.93883 
0.38383 3.18500 -0.99374 
0.57854 3.15900 -0.98563 
0.59994 3.13300 -0.97752 
0.67280 3.10700 -0.96940 
0.70599 3.08200 -0.96160 
0.78978 3.00900 -0.93883 
0.85760 2.94000 -0.91730 
0.59359 1.87400 -0.58470 
0.57061 1.77800 -0.55475 
0.60542 1.72900 -0.53946 
0.62164 1.71400 -0.53478 
0.67572 1.70600 -0.53228 
0.72558 1.70600 -0.53228 
0.72970 1.69900 -0.53010 
0.74744 1.69100 -0.52760 
0.75450 1.69100 -0.52760 
0.75841 1.68400 -0.52542 
0.89201 1.68400 -0.52542 
1.02887 1.88300 -0.58751 
1.07912 1.96000 -0.61153 
1.40797 2.48200 -0.77440 
2.08146 3.53900 -1.10419 
2.97762 4.60500 -1.43679 
3.05907 4.44400 -1.38656 
2.87028 3.82200 -1.19249 
3.34706 4.20000 -1.31043 
3.51542 4.34300 -1.35504 
3.79696 4.55000 -1.41963 
4.04707 4.77800 -1.49077 
4.56618 5.23600 -1.63366 
4.82923 5.38300 -1.67953 
4.76306 5.16500 -1.61151 
4.72070 5.09600 -1.58998 
4.67963 5.02900 -1.56908 
4.62097 4.90000 -1.52883 
4.58821 4.71900 -1.47236 
4.60791 4.71900 -1.47236 
-1.25810 1.37500 -0.43475 
-1.17179 1.47600 -0.46668 
-1.15946 1.47600 -0.46668 
-1.14713 1.47600 -0.46668 
-1.14327 1.48700 -0.47016 
-1.12120 1.49900 -0.47396 
-1.08053 1.60600 -0.50779 
-1.05310 1.64700 -0.52075 
-1.04881 1.66200 -0.52549 
-0.99918 1.74500 -0.55174 
-0.99364 1.76100 -0.55680 
-0.98839 1.77800 -0.56217 
-0.96892 1.81100 -0.57261 
-0.95682 1.84600 -0.58367 
-0.90746 1.92100 -0.60739 
-0.86093 1.98000 -0.62604 
-0.82854 2.02200 -0.63932 
-0.81195 2.04400 -0.64628 
-0.80773 2.05500 -0.64975 
-0.79915 2.05500 -0.64975 
-0.75077 2.11200 -0.66778 
-0.74196 2.11200 -0.66778 
-0.67414 2.30200 -0.72785 
-0.66857 2.31600 -0.73228 
-0.49662 2.19700 -0.69465 
-0.44096 2.28900 -0.72374 
-0.42631 2.26200 -0.71520 
-0.21517 2.13500 -0.67505 
-0.18843 2.13500 -0.67505 
-0.17952 2.13500 -0.67505 
0.03112 1.93000 -0.61023 
0.07216 1.95000 -0.61655 
0.21185 3.00900 -0.95139 
0.25767 3.10700 -0.98238 
0.31474 3.15900 -0.99882 
0.38069 3.15900 -0.99882 
0.46913 3.13300 -0.99060 
0.61302 3.13300 -0.99060 
0.65983 3.10700 -0.98238 
0.70599 3.08200 -0.97447 
0.83305 2.94000 -0.92957 
0.62164 1.71400 -0.54194 
0.63595 1.71400 -0.54194 
0.72558 1.70600 -0.53941 
0.73679 1.69900 -0.53719 
0.76544 1.68400 -0.53245 
0.81079 1.67600 -0.52992 
0.84225 1.66900 -0.52771 
0.88077 1.67600 -0.52992 
2.26387 3.82200 -1.20845 
2.42537 4.06600 -1.28559 
2.76218 4.44400 -1.40511 
2.90778 4.49700 -1.42187 
2.96105 4.55000 -1.43863 
2.99905 4.55000 -1.43863 
3.07899 4.39300 -1.38899 
3.01386 4.20000 -1.32796 
2.96864 4.06600 -1.28559 
2.89629 3.90000 -1.23311 
2.99630 3.86100 -1.22078 
3.22329 4.06600 -1.28559 
3.32774 4.15400 -1.31342 
3.79028 4.49700 -1.42187 
3.90054 4.60500 -1.45602 
4.15850 4.83800 -1.52969 
4.82844 5.30800 -1.67829 
4.64143 4.90000 -1.54929 
5.14626 5.09600 -1.61126 
-1.23057 1.41600 -0.45363 
-1.22466 1.41600 -0.45363 
-1.21704 1.44200 -0.46196 
-1.16562 1.47600 -0.47285 
-1.15102 1.48100 -0.47445 
-1.09174 1.59300 -0.51033 
-1.08723 1.60600 -0.51449 
-1.07642 1.62000 -0.51898 
-1.06460 1.63300 -0.52314 
-1.01636 1.73700 -0.55646 
-0.99645 1.75300 -0.56159 
-0.96328 1.82900 -0.58593 
-0.93502 1.86400 -0.59715 
-0.92536 1.89200 -0.60612 
-0.91072 1.91100 -0.61220 
-0.90024 1.94000 -0.62149 
-0.86920 1.98000 -0.63431 
-0.80758 2.03300 -0.65129 
-0.73221 2.13500 -0.68396 
-0.72736 2.14700 -0.68781 
-0.71340 2.15900 -0.69165 
-0.68945 2.28900 -0.73330 
-0.64531 2.30200 -0.73746 
-0.57918 2.19700 -0.70382 
-0.49704 2.15900 -0.69165 
-0.49662 2.19700 -0.70382 
-0.49091 2.34500 -0.75124 
-0.40949 2.22200 -0.71183 
-0.25518 2.17200 -0.69582 
-0.22661 2.15900 -0.69165 
-0.21638 2.14700 -0.68781 
-0.08889 2.10000 -0.67275 
0.00706 1.96000 -0.62790 
0.01508 1.94000 -0.62149 
0.06369 1.94000 -0.62149 
0.07216 1.95000 -0.62470 
0.20088 3.03300 -0.97164 
0.21530 3.05800 -0.97965 
0.25767 3.10700 -0.99535 
0.41680 3.13300 -1.00368 
0.45605 3.13300 -1.00368 
0.49118 3.10700 -0.99535 
0.54307 3.10700 -0.99535 
0.65452 3.08200 -0.98734 
0.82030 2.89500 -0.92743 
0.83835 2.87400 -0.92071 
0.58323 1.79400 -0.57472 
0.58916 1.74500 -0.55902 
0.64723 1.70600 -0.54653 
0.69320 1.71400 -0.54909 
0.70036 1.71400 -0.54909 
0.74389 1.69900 -0.54429 
0.78280 1.67600 -0.53692 
0.78980 1.67600 -0.53692 
0.82134 1.66900 -0.53468 
0.82831 1.66900 -0.53468 
0.85619 1.66900 -0.53468 
0.89572 1.69100 -0.54172 
0.92306 1.72900 -0.55390 
0.94750 1.76100 -0.56415 
1.15221 2.07700 -0.66538 
1.21398 2.17200 -0.69582 
2.26387 3.82200 -1.22440 
2.73048 4.39300 -1.40733 
2.76717 4.39300 -1.40733 
2.87351 4.44400 -1.42367 
3.04230 4.39300 -1.40733 
3.06065 4.39300 -1.40733 
3.02986 4.24700 -1.36056 
2.92320 3.98100 -1.27534 
2.88001 3.90000 -1.24939 
2.84174 3.78400 -1.21223 
3.05913 3.90000 -1.24939 
3.20600 4.02300 -1.28880 
3.25725 4.06600 -1.30257 
3.27422 4.06600 -1.30257 
3.41447 4.15400 -1.33076 
3.60126 4.29400 -1.37561 
3.66049 4.34300 -1.39131 
4.71922 5.23600 -1.67739 
4.67815 5.09600 -1.63254 
4.63988 4.96400 -1.59025 
4.58271 4.83800 -1.54989 
-1.24538 1.38000 -0.44786 
-1.23562 1.39500 -0.45272 
-1.22305 1.42100 -0.46116 
-1.21002 1.44800 -0.46992 
-1.20206 1.45300 -0.47155 
-1.18875 1.45900 -0.47349 
-1.16562 1.47600 -0.47901 
-1.11472 1.56000 -0.50627 
-1.11087 1.57300 -0.51049 
-1.10681 1.58600 -0.51471 
-1.08524 1.61300 -0.52347 
-1.05778 1.63300 -0.52996 
-1.02960 1.69900 -0.55138 
-1.02437 1.71400 -0.55625 
-1.00911 1.73700 -0.56371 
-1.00647 1.74500 -0.56631 
-0.98839 1.77800 -0.57702 
-0.98538 1.78600 -0.57962 
-0.96035 1.83800 -0.59649 
-0.94140 1.84600 -0.59909 
-0.92882 1.88300 -0.61109 
-0.90365 1.93000 -0.62635 
-0.88859 1.95000 -0.63284 
-0.87678 1.96000 -0.63608 
-0.86093 1.98000 -0.64257 
-0.84908 1.99100 -0.64614 
-0.83284 2.01200 -0.65296 
-0.80758 2.03300 -0.65977 
-0.76435 2.07700 -0.67405 
-0.71839 2.14700 -0.69677 
-0.71340 2.15900 -0.70067 
-0.59853 2.23500 -0.72533 
-0.54500 2.13500 -0.69288 
-0.49451 2.31600 -0.75162 
-0.39571 2.19700 -0.71300 
-0.37084 2.15900 -0.70067 
-0.32042 2.18400 -0.70878 
-0.30398 2.19700 -0.71300 
-0.25177 2.22200 -0.72111 
-0.19390 2.19700 -0.71300 
-0.13494 2.13500 -0.69288 
-0.02663 2.03300 -0.65977 
-0.01796 2.01200 -0.65296 
0.03082 1.91100 -0.62018 
0.08417 2.04400 -0.66334 
0.09964 2.19700 -0.71300 
0.27291 3.13300 -1.01676 
0.40372 3.13300 -1.01676 
0.46524 3.10700 -1.00832 
0.55605 3.10700 -1.00832 
0.58199 3.10700 -1.00832 
0.62878 3.08200 -1.00021 
0.68026 3.08200 -1.00021 
0.75296 2.96300 -0.96159 
0.79612 2.89500 -0.93952 
0.80235 2.87400 -0.93271 
0.78553 2.61800 -0.84963 
0.58546 1.77800 -0.57702 
0.60097 1.73700 -0.56371 
0.60542 1.72900 -0.56112 
0.62879 1.71400 -0.55625 
0.71467 1.71400 -0.55625 
0.74389 1.69900 -0.55138 
0.75450 1.69100 -0.54878 
0.85978 1.67600 -0.54392 
0.88498 1.68400 -0.54651 
1.30414 2.31600 -0.75162 
2.97141 4.34300 -1.40944 
2.99167 4.29400 -1.39354 
2.97666 4.24700 -1.37829 
2.87654 3.74700 -1.21602 
3.07541 3.90000 -1.26568 
3.35911 4.06600 -1.31955 
3.73931 4.39300 -1.42567 
4.44866 5.02900 -1.63207 
4.57176 5.09600 -1.65382 
4.63764 5.02900 -1.63207 
4.59842 4.96400 -1.61098 
4.55960 4.90000 -1.59021 
4.49289 4.66100 -1.51265 
4.49659 4.60500 -1.49447 
5.01295 4.96400 -1.61098 
-1.26267 1.38000 -0.45362 
-1.24538 1.38000 -0.45362 
-1.23700 1.39000 -0.45690 
-1.21882 1.43700 -0.47235 
-1.21002 1.44800 -0.47597 
-1.20206 1.45300 -0.47761 
-1.18060 1.46400 -0.48123 
-1.15102 1.48100 -0.48682 
-1.13372 1.49900 -0.49273 
-1.12199 1.51700 -0.49865 
-1.11343 1.58600 -0.52133 
-1.07642 1.62000 -0.53251 
-1.06460 1.63300 -0.53678 
-1.05547 1.64000 -0.53908 
-1.04439 1.65500 -0.54401 
-1.04187 1.66200 -0.54631 
-1.03929 1.66900 -0.54861 
-1.03384 1.70600 -0.56078 
-0.99645 1.75300 -0.57623 
-0.99077 1.76900 -0.58148 
-0.97792 1.78600 -0.58707 
-0.96614 1.82000 -0.59825 
-0.89560 1.93000 -0.63441 
-0.85740 1.99100 -0.65446 
-0.75568 2.07700 -0.68273 
-0.69473 2.27500 -0.74781 
-0.68945 2.28900 -0.75241 
-0.68375 2.30200 -0.75669 
-0.67290 2.33100 -0.76622 
-0.63569 2.30200 -0.75669 
-0.47824 2.33100 -0.76622 
-0.46268 2.30200 -0.75669 
-0.39571 2.19700 -0.72217 
-0.18902 2.24800 -0.73894 
-0.15900 2.22200 -0.73039 
-0.10101 2.17200 -0.71395 
-0.02663 2.03300 -0.66826 
0.01501 1.93000 -0.63441 
0.03082 1.91100 -0.62816 
0.05504 1.92100 -0.63145 
0.46524 3.10700 -1.02129 
0.47436 3.08200 -1.01308 
0.48723 3.08200 -1.01308 
0.69477 3.03300 -0.99697 
0.71440 3.00900 -0.98908 
0.81384 2.79000 -0.91709 
0.58916 1.74500 -0.57360 
1.22795 2.19700 -0.72217 
2.52990 4.15400 -1.36545 
2.59299 4.20000 -1.38057 
2.72840 4.24700 -1.39602 
2.87026 4.24700 -1.39602 
2.90573 4.24700 -1.39602 
2.94119 4.24700 -1.39602 
2.81396 3.74700 -1.23167 
2.83341 3.71100 -1.21983 
3.10798 3.90000 -1.28196 
3.27226 3.98100 -1.30859 
3.34038 4.02300 -1.32239 
3.92994 4.55000 -1.49562 
4.49479 4.96400 -1.63170 
4.51868 4.90000 -1.61067 
4.45028 4.71900 -1.55117 
4.38589 4.55000 -1.49562 
-1.25691 1.38000 -0.45938 
-1.25115 1.38000 -0.45938 
-1.24538 1.38000 -0.45938 
-1.23700 1.39000 -0.46271 
-1.22140 1.42600 -0.47469 
-1.21971 1.43100 -0.47636 
-1.21882 1.43700 -0.47835 
-1.14165 1.49300 -0.49699 
-1.11810 1.52900 -0.50898 
-1.11511 1.57900 -0.52562 
-1.11343 1.58600 -0.52795 
-1.10504 1.59300 -0.53028 
-1.07362 1.62600 -0.54127 
-1.04187 1.66200 -0.55325 
-1.02197 1.72200 -0.57323 
-1.01890 1.72900 -0.57556 
-1.00647 1.74500 -0.58088 
-0.99918 1.74500 -0.58088 
-0.98839 1.77800 -0.59187 
-0.97792 1.78600 -0.59453 
-0.97217 1.80300 -0.60019 
-0.96892 1.81100 -0.60285 
-0.92438 1.87400 -0.62382 
-0.88859 1.95000 -0.64912 
-0.86093 1.98000 -0.65911 
-0.85740 1.99100 -0.66277 
-0.84908 1.99100 -0.66277 
-0.82009 2.02200 -0.67309 
-0.77341 2.05500 -0.68408 
-0.76483 2.05500 -0.68408 
-0.71769 2.17200 -0.72302 
-0.71147 2.20900 -0.73534 
-0.63569 2.30200 -0.76630 
-0.49762 2.12300 -0.70671 
-0.49299 2.22200 -0.73967 
-0.47517 2.31600 -0.77096 
-0.43826 2.27500 -0.75731 
-0.40949 2.22200 -0.73967 
-0.38425 2.18400 -0.72702 
-0.34985 2.19700 -0.73134 
-0.31297 2.26200 -0.75298 
-0.29929 2.30200 -0.76630 
-0.15423 2.28900 -0.76197 
-0.13512 2.28900 -0.76197 
-0.12479 2.27500 -0.75731 
-0.05471 2.13500 -0.71071 
-0.04531 2.11200 -0.70305 
-0.03588 2.07700 -0.69140 
0.23366 3.13300 -1.04292 
0.27517 3.15900 -1.05158 
0.30155 3.15900 -1.05158 
0.50010 3.08200 -1.02595 
0.52584 3.08200 -1.02595 
0.57731 3.08200 -1.02595 
0.61591 3.08200 -1.02595 
0.65678 3.03300 -1.00963 
0.71585 2.96300 -0.98633 
0.73484 2.94000 -0.97868 
0.74153 2.91800 -0.97135 
0.62164 1.71400 -0.57056 
0.73271 1.70600 -0.56790 
0.86678 1.67600 -0.55791 
0.87794 1.68400 -0.56058 
1.58291 2.77000 -0.92209 
2.80343 4.20000 -1.39811 
2.89111 4.20000 -1.39811 
2.88996 3.98100 -1.32521 
2.87664 3.94000 -1.31156 
3.02986 3.82200 -1.27228 
3.27147 3.94000 -1.31156 
4.24657 4.77800 -1.59052 
4.35666 4.66100 -1.55157 
4.34277 4.60500 -1.53293 
4.62912 4.66100 -1.55157 
-1.25691 1.38000 -0.46514 
-1.22536 1.41000 -0.47525 
-1.21002 1.44800 -0.48806 
-1.17448 1.46400 -0.49345 
-1.14947 1.48700 -0.50121 
-1.14788 1.49300 -0.50323 
-1.10504 1.59300 -0.53693 
-1.08318 1.62000 -0.54604 
-1.07642 1.62000 -0.54604 
