ply
format ascii 1.0
comment pointcloud saved from Realsense Viewer
element vertex 1875
property float32 x
property float32 y
property float32 z
end_header
0.31080 2.61300 1.49360 
0.36320 2.64700 1.51304 
0.41672 2.63600 1.50675 
0.47925 2.60200 1.48731 
0.48809 2.61300 1.49360 
0.67084 2.50600 1.43244 
1.22665 2.64700 1.51304 
1.32923 2.73000 1.56048 
1.38623 2.73000 1.56048 
1.44241 2.74200 1.56734 
1.67497 2.85800 1.63364 
1.68243 2.85800 1.63364 
2.02612 3.13600 1.79255 
2.05571 3.16900 1.81141 
2.30850 3.30600 1.88972 
2.39474 3.37900 1.93145 
2.50812 3.47500 1.98632 
2.84378 3.66200 2.09321 
3.04688 3.84600 2.19839 
3.13620 3.92000 2.24069 
-2.00881 2.53700 1.44354 
-1.84592 2.55900 1.45606 
-1.72576 2.56900 1.46175 
-1.68713 2.61300 1.48678 
-1.59856 2.64700 1.50613 
-1.47228 2.69400 1.53287 
-1.38376 2.65900 1.51296 
-1.20631 2.54800 1.44980 
-1.17971 2.54800 1.44980 
-1.08855 2.53700 1.44354 
-0.99777 2.47600 1.40883 
-0.91769 2.55900 1.45606 
-0.81042 2.49600 1.42021 
-0.78436 2.49600 1.42021 
-0.77411 2.54800 1.44980 
-0.76325 2.62500 1.49361 
-0.66937 2.58000 1.46801 
-0.60198 2.49600 1.42021 
-0.41988 2.53700 1.44354 
-0.36602 2.48600 1.41452 
-0.33359 2.48600 1.41452 
-0.29703 2.50600 1.42590 
-0.27314 2.52700 1.43785 
-0.26760 2.53700 1.44354 
-0.17423 2.52700 1.43785 
-0.15444 2.52700 1.43785 
-0.14125 2.52700 1.43785 
-0.12807 2.52700 1.43785 
-0.02247 2.51700 1.43216 
0.06317 2.52700 1.43785 
0.08401 2.55900 1.45606 
0.22801 2.60200 1.48052 
0.45018 2.59100 1.47426 
0.46370 2.59100 1.47426 
0.49283 2.60200 1.48052 
0.56435 2.52700 1.43785 
0.59000 2.49600 1.42021 
0.60954 2.49600 1.42021 
0.61605 2.49600 1.42021 
0.67846 2.48600 1.41452 
1.21833 2.65900 1.51296 
1.32211 2.73000 1.55335 
1.35654 2.74200 1.56018 
2.67135 3.53500 2.01139 
3.18745 3.82200 2.17470 
-1.98641 2.51700 1.42559 
-1.91653 2.48600 1.40803 
-1.77269 2.56900 1.45504 
-1.76599 2.56900 1.45504 
-1.75928 2.56900 1.45504 
-1.73246 2.56900 1.45504 
-1.68134 2.63600 1.49299 
-1.66071 2.63600 1.49299 
-1.57111 2.65900 1.50602 
-1.50040 2.69400 1.52584 
-1.48590 2.70600 1.53264 
-1.42373 2.68200 1.51904 
-1.34907 2.65900 1.50602 
-0.84686 2.52700 1.43125 
-0.80390 2.49600 1.41370 
-0.53719 2.62500 1.48676 
-0.53257 2.63600 1.49299 
-0.50716 2.64700 1.49922 
-0.46262 2.59100 1.46750 
-0.43500 2.54800 1.44315 
-0.38052 2.49600 1.41370 
-0.36602 2.48600 1.40803 
-0.31539 2.49600 1.41370 
-0.11392 2.50600 1.41936 
-0.05575 2.53700 1.43692 
0.02983 2.49600 1.41370 
0.18806 2.61300 1.47996 
0.27205 2.56900 1.45504 
0.30438 2.55900 1.44938 
0.33523 2.59100 1.46750 
0.47722 2.59100 1.46750 
0.54021 2.56900 1.45504 
0.59412 2.48600 1.40803 
0.68494 2.48600 1.40803 
1.88056 2.98300 1.68953 
2.21509 3.27000 1.85208 
-1.88879 2.52700 1.42466 
-1.87264 2.55900 1.44270 
-1.78028 2.58000 1.45454 
-1.71349 2.59100 1.46074 
-1.67454 2.64700 1.49231 
-1.63310 2.64700 1.49231 
-1.27118 2.61300 1.47314 
-1.16741 2.62500 1.47991 
-0.78771 2.48600 1.40154 
-0.57081 2.59100 1.46074 
-0.37401 2.49600 1.40718 
-0.35954 2.48600 1.40154 
-0.24730 2.60200 1.46694 
-0.23949 2.59100 1.46074 
-0.12046 2.50600 1.41282 
-0.08776 2.50600 1.41282 
-0.06237 2.53700 1.43030 
0.38392 2.64700 1.49231 
0.45018 2.59100 1.46074 
0.54021 2.56900 1.44834 
0.60061 2.48600 1.40154 
0.60465 2.47600 1.39591 
1.22031 2.69400 1.51881 
1.36698 2.70600 1.52558 
1.37404 2.70600 1.52558 
1.67418 2.84400 1.60338 
1.83915 2.95400 1.66539 
1.95976 3.05800 1.72402 
2.57654 3.49400 1.96983 
2.73698 3.59700 2.02790 
2.90554 3.72900 2.10232 
3.18709 3.87000 2.18181 
-1.92302 2.48600 1.39506 
-1.90759 2.51700 1.41245 
-1.78787 2.59100 1.45398 
-1.76759 2.59100 1.45398 
-1.72228 2.62500 1.47306 
-1.64001 2.64700 1.48540 
-1.52187 2.67000 1.49831 
-1.51446 2.69400 1.51178 
-1.45822 2.69400 1.51178 
-1.44416 2.69400 1.51178 
-1.41604 2.69400 1.51178 
-1.34071 2.67000 1.49831 
-1.23026 2.61300 1.46633 
-1.21358 2.63600 1.47923 
-0.94034 2.54800 1.42985 
-0.91769 2.55900 1.43602 
-0.87670 2.53700 1.42368 
-0.85346 2.52700 1.41807 
-0.72004 2.69400 1.51178 
-0.55803 2.65900 1.49214 
-0.52786 2.68200 1.50505 
-0.45199 2.56900 1.44163 
-0.34796 2.49600 1.40067 
-0.09430 2.50600 1.40628 
-0.00277 2.52700 1.41807 
0.13004 2.68200 1.50505 
0.21352 2.59100 1.45398 
0.24628 2.58000 1.44781 
0.60954 2.49600 1.40067 
1.62223 2.84400 1.59595 
1.62965 2.84400 1.59595 
1.91456 3.01200 1.69023 
2.10218 3.20200 1.79685 
2.21871 3.28800 1.84511 
2.52626 3.47500 1.95005 
2.72759 3.59700 2.01851 
-1.91653 2.48600 1.38857 
-1.72290 2.64700 1.47850 
-1.52187 2.67000 1.49134 
-1.51471 2.68200 1.49805 
-1.48590 2.70600 1.51145 
-1.44416 2.69400 1.50475 
-1.39410 2.70600 1.51145 
-1.38704 2.70600 1.51145 
-1.24962 2.62500 1.46621 
-1.22226 2.67000 1.49134 
-1.00986 2.50600 1.39974 
-0.84686 2.52700 1.41147 
-0.76207 2.46600 1.37740 
-0.72254 2.73000 1.52486 
-0.60386 2.64700 1.47850 
-0.54671 2.70600 1.51145 
-0.42835 2.54800 1.42320 
-0.32461 2.51700 1.40589 
-0.08815 2.51700 1.40589 
0.01708 2.53700 1.41706 
0.03020 2.52700 1.41147 
0.03694 2.53700 1.41706 
0.10159 2.67000 1.49134 
0.11604 2.68200 1.49805 
0.19578 2.62500 1.46621 
0.65745 2.45600 1.37181 
1.24987 2.68200 1.49805 
1.26952 2.69400 1.50475 
1.34939 2.74200 1.53156 
1.35060 2.73000 1.52486 
1.37099 2.65900 1.48520 
1.47818 2.74200 1.53156 
1.62276 2.85800 1.59635 
2.24811 3.30600 1.84659 
2.27770 3.32400 1.85664 
2.30747 3.34200 1.86669 
3.13652 3.89500 2.17558 
3.18734 3.92000 2.18954 
3.27974 3.94500 2.20350 
-1.95545 2.48600 1.38208 
-1.93599 2.48600 1.38208 
-1.91772 2.49600 1.38764 
-1.91233 2.50600 1.39320 
-1.87931 2.55900 1.42267 
-1.82589 2.55900 1.42267 
-1.75472 2.60200 1.44657 
-1.68213 2.67000 1.48438 
-1.55724 2.65900 1.47826 
-1.54974 2.67000 1.48438 
-1.39934 2.73000 1.51773 
-1.28237 2.63600 1.46547 
-1.25192 2.65900 1.47826 
-1.02491 2.52700 1.40488 
-0.75926 2.65900 1.47826 
-0.75104 2.73000 1.51773 
-0.72511 2.76700 1.53830 
-0.65677 2.69400 1.49772 
-0.62305 2.67000 1.48438 
-0.32973 2.50600 1.39320 
-0.23776 2.64700 1.47159 
-0.16697 2.51700 1.39932 
0.01050 2.54800 1.41655 
0.24838 2.60200 1.44657 
0.30972 2.54800 1.41655 
0.44718 2.61300 1.45269 
0.46846 2.58000 1.43434 
0.51140 2.55900 1.42267 
0.58234 2.54800 1.41655 
1.23437 2.69400 1.49772 
1.27655 2.69400 1.49772 
2.19803 3.27000 1.81794 
2.26902 3.32400 1.84797 
2.47566 3.45500 1.92079 
2.66791 3.55500 1.97639 
2.97093 3.77500 2.09870 
3.25990 3.97100 2.20766 
3.37512 3.99700 2.22212 
-1.94897 2.48600 1.37559 
-1.94248 2.48600 1.37559 
-1.91415 2.51700 1.39275 
-1.83799 2.54800 1.40990 
-1.73943 2.69400 1.49069 
-1.65438 2.65900 1.47132 
-1.54277 2.67000 1.47741 
-1.39833 2.74200 1.51725 
-1.27800 2.67000 1.47741 
-1.25842 2.71800 1.50397 
-1.19107 2.69400 1.49069 
-1.13316 2.62500 1.45251 
-1.08680 2.58000 1.42761 
-1.00601 2.58000 1.42761 
-0.86345 2.53700 1.40382 
-0.77473 2.48600 1.37559 
-0.73895 2.79200 1.54492 
-0.69623 2.76700 1.53108 
-0.58718 2.73000 1.51061 
-0.46184 2.62500 1.45251 
-0.45101 2.60200 1.43978 
-0.29302 2.64700 1.46468 
-0.27010 2.69400 1.49069 
-0.18232 2.54800 1.40990 
0.07999 2.64700 1.46468 
0.13358 2.75500 1.52444 
0.27995 2.58000 1.42761 
1.28358 2.69400 1.49069 
1.52700 2.79200 1.54492 
1.75981 2.91200 1.61132 
2.09933 3.18500 1.76238 
2.19803 3.27000 1.80941 
2.39422 3.41600 1.89020 
2.61955 3.51500 1.94498 
3.16688 3.92000 2.16908 
3.32297 3.99700 2.21169 
3.34383 3.99700 2.21169 
-1.93599 2.48600 1.36911 
-1.81583 2.60200 1.43299 
-1.70369 2.68200 1.47705 
-1.62619 2.64700 1.45777 
-1.56368 2.67000 1.47044 
-1.41215 2.75500 1.51725 
-0.86426 2.55900 1.40931 
-0.86094 2.56900 1.41482 
-0.76081 2.79200 1.53763 
-0.69523 2.79200 1.53763 
-0.67048 2.78000 1.53102 
-0.62402 2.76700 1.52386 
-0.55181 2.76700 1.52386 
-0.32861 2.54800 1.40325 
-0.32335 2.55900 1.40931 
-0.30129 2.65900 1.46438 
-0.22209 2.62500 1.44566 
-0.03041 2.63600 1.45172 
0.05826 2.60200 1.43299 
0.08804 2.68200 1.47705 
0.22607 2.65900 1.46438 
0.46764 2.61300 1.43905 
0.50886 2.58000 1.42088 
0.52680 2.56900 1.41482 
1.34348 2.73000 1.50348 
1.64513 2.87100 1.58114 
1.77591 2.92600 1.61143 
1.95976 3.05800 1.68412 
2.23948 3.30600 1.82070 
2.53533 3.47500 1.91378 
2.88429 3.75200 2.06633 
2.94138 3.77500 2.07899 
2.94304 3.75200 2.06633 
3.15665 3.92000 2.15885 
3.31309 4.02300 2.21557 
-1.90759 2.51700 1.37961 
-1.88453 2.54800 1.39660 
-1.83303 2.56900 1.40811 
-1.82068 2.58000 1.41414 
-1.80904 2.60200 1.42620 
-1.65438 2.65900 1.45744 
-1.57761 2.67000 1.46347 
-1.41934 2.75500 1.51006 
-1.36971 2.74200 1.50294 
-1.05987 2.58000 1.41414 
-1.04641 2.58000 1.41414 
-1.02356 2.62500 1.43881 
-0.98931 2.62500 1.43881 
-0.91769 2.55900 1.40263 
-0.83450 2.59100 1.42017 
-0.79063 2.53700 1.39057 
-0.75742 2.55900 1.40263 
-0.74150 2.85800 1.56652 
-0.64288 2.81800 1.54459 
-0.32600 2.58000 1.41414 
-0.27131 2.70600 1.48321 
-0.24790 2.68200 1.47005 
-0.16903 2.54800 1.39660 
-0.07293 2.68200 1.47005 
0.03822 2.62500 1.43881 
0.24202 2.68200 1.47005 
0.33557 2.64700 1.45087 
0.48604 2.60200 1.42620 
0.51559 2.58000 1.41414 
0.54252 2.58000 1.41414 
0.58965 2.58000 1.41414 
0.62223 2.54800 1.39660 
1.24287 2.68200 1.47005 
1.33507 2.74200 1.50294 
1.35285 2.70600 1.48321 
1.95178 3.05800 1.67614 
2.00544 3.10400 1.70136 
2.32420 3.37900 1.85209 
2.35431 3.39700 1.86195 
2.54007 3.49400 1.91512 
2.61038 3.51500 1.92663 
3.14643 3.92000 2.14862 
3.29209 4.02300 2.20508 
3.34589 4.05000 2.21988 
-1.89538 2.52700 1.37850 
-1.83303 2.56900 1.40141 
-1.80987 2.61300 1.42541 
-1.55671 2.67000 1.45651 
-1.47178 2.70600 1.47614 
-1.37621 2.75500 1.50287 
-1.30531 2.74200 1.49578 
-1.26210 2.80500 1.53015 
-1.22334 2.76700 1.50942 
-1.03473 2.63600 1.43796 
-0.99345 2.63600 1.43796 
-0.92522 2.58000 1.40741 
-0.86334 2.65900 1.45051 
-0.82795 2.61300 1.42541 
-0.76409 2.55900 1.39595 
-0.76387 2.85800 1.55906 
-0.66246 2.87100 1.56615 
-0.52539 2.78000 1.51651 
-0.48744 2.73000 1.48924 
-0.25718 2.70600 1.47614 
-0.08810 2.71800 1.48269 
-0.08100 2.71800 1.48269 
-0.06025 2.74200 1.49578 
0.02517 2.69400 1.46960 
0.19915 2.76700 1.50942 
0.34001 2.68200 1.46305 
0.41917 2.74200 1.49578 
1.39685 2.68200 1.46305 
1.78440 2.94000 1.60379 
1.84164 2.98300 1.62725 
1.87526 3.01200 1.64307 
2.30236 3.36000 1.83291 
2.37639 3.41600 1.86345 
2.63445 3.53500 1.92837 
2.77688 3.66200 1.99765 
3.26059 4.02300 2.19458 
-1.89445 2.51700 1.36647 
-1.83303 2.56900 1.39471 
-1.68214 2.65900 1.44357 
-1.59170 2.68200 1.45605 
-1.05781 2.62500 1.42511 
-1.05536 2.63600 1.43108 
-0.81431 2.61300 1.41859 
-0.77205 2.78000 1.50926 
-0.56671 2.80500 1.52283 
-0.44886 2.67000 1.44954 
-0.27251 2.71800 1.47560 
-0.21425 2.61300 1.41859 
-0.17042 2.56900 1.39471 
-0.03251 2.81800 1.52989 
0.06675 2.67000 1.44954 
0.18724 2.80500 1.52283 
1.35992 2.70600 1.46908 
1.38201 2.69400 1.46257 
1.46459 2.73000 1.48211 
2.35066 3.37900 1.83445 
2.94939 3.79800 2.06193 
-1.86978 2.53700 1.37071 
-1.79197 2.64700 1.43014 
-1.62662 2.65900 1.43663 
-1.62639 2.67000 1.44257 
-1.61270 2.68200 1.44905 
-1.51377 2.71800 1.46850 
-1.43647 2.70600 1.46202 
-1.41934 2.75500 1.48850 
-1.39595 2.78000 1.50200 
-1.04102 2.70600 1.46202 
-1.02937 2.69400 1.45554 
-0.94530 2.63600 1.42420 
-0.59233 2.85800 1.54414 
-0.55232 2.84400 1.53658 
-0.39333 2.58000 1.39394 
-0.35967 2.58000 1.39394 
-0.34684 2.63600 1.42420 
-0.23085 2.64700 1.43014 
-0.21425 2.61300 1.41177 
-0.14606 2.61300 1.41177 
0.04011 2.75500 1.48850 
0.13726 2.83100 1.52956 
0.16681 2.83100 1.52956 
0.36034 2.73000 1.47499 
1.02866 3.04200 1.64356 
1.37198 2.73000 1.47499 
1.38110 2.70600 1.46202 
1.39432 2.71800 1.46850 
1.51332 2.76700 1.49498 
1.66862 2.91200 1.57332 
1.80975 2.96900 1.60412 
2.04249 3.13600 1.69435 
2.75070 3.64000 1.96665 
3.29372 4.07700 2.20276 
3.39050 4.10400 2.21734 
-1.86655 2.50600 1.34742 
-1.84592 2.55900 1.37592 
-1.78622 2.65900 1.42969 
-1.62670 2.68200 1.44206 
-1.56367 2.69400 1.44851 
-1.38869 2.78000 1.49475 
-1.35968 2.78000 1.49475 
-1.31454 2.79200 1.50120 
-1.26942 2.80500 1.50819 
-1.14889 2.69400 1.44851 
-1.06927 2.70600 1.45496 
-0.80783 2.65900 1.42969 
-0.77167 2.80500 1.50819 
-0.74387 2.92600 1.57325 
-0.73557 2.95400 1.58830 
-0.66183 2.96900 1.59637 
-0.50779 2.84400 1.52916 
-0.46315 2.75500 1.48131 
-0.19216 2.59100 1.39313 
-0.06221 2.83100 1.52217 
0.16681 2.83100 1.52217 
0.24861 2.75500 1.48131 
0.30468 2.74200 1.47432 
0.45899 2.68200 1.44206 
0.70777 2.67000 1.43560 
0.85456 2.85800 1.53669 
1.10783 2.69400 1.44851 
1.19550 2.67000 1.43560 
1.39947 2.74200 1.47432 
1.59997 2.84400 1.52916 
1.63014 2.87100 1.54368 
1.68428 2.92600 1.57325 
1.79290 2.95400 1.58830 
3.19760 4.02300 2.16308 
3.34458 4.02300 2.16308 
-1.89167 2.49600 1.33553 
-1.85129 2.54800 1.36336 
-1.83414 2.58000 1.38048 
-1.82503 2.62500 1.40456 
-1.67454 2.64700 1.41633 
-1.52045 2.73000 1.46074 
-1.08561 2.69400 1.44148 
-1.08339 2.70600 1.44790 
-1.02176 2.73000 1.46074 
-0.98180 2.71800 1.45432 
-0.82576 2.71800 1.45432 
-0.75642 2.85800 1.52923 
-0.65716 2.98300 1.59611 
-0.51262 2.87100 1.53618 
-0.46208 2.79200 1.49391 
-0.31353 2.76700 1.48054 
-0.22496 2.65900 1.42275 
-0.18540 2.59100 1.38636 
-0.11805 2.75500 1.47412 
-0.05559 2.87100 1.53618 
0.07504 2.71800 1.45432 
0.09717 2.74200 1.46716 
0.25459 2.74200 1.46716 
0.33897 2.73000 1.46074 
0.35322 2.73000 1.46074 
0.36034 2.73000 1.46074 
0.44897 2.70600 1.44790 
0.49927 2.63600 1.41044 
0.79125 2.76700 1.48054 
0.90111 2.91200 1.55812 
1.02850 2.84400 1.52174 
1.03155 2.79200 1.49391 
1.15704 2.69400 1.44148 
1.18862 2.71800 1.45432 
1.43487 2.75500 1.47412 
1.66862 2.91200 1.55812 
1.69191 2.92600 1.56561 
1.73070 2.94000 1.57310 
1.73837 2.94000 1.57310 
2.00544 3.10400 1.66086 
2.38128 3.36000 1.79783 
2.40356 3.37900 1.80800 
2.51719 3.47500 1.85937 
2.74120 3.64000 1.94765 
3.25116 4.07700 2.18148 
3.28899 3.89500 2.08410 
-1.93466 2.47600 1.31837 
-1.81270 2.64700 1.40942 
-1.79141 2.63600 1.40356 
-1.76434 2.64700 1.40942 
-1.64069 2.68200 1.42806 
-1.55664 2.69400 1.43445 
-1.55632 2.71800 1.44723 
-1.45765 2.70600 1.44084 
-1.25811 2.78000 1.48024 
-1.17136 2.73000 1.45362 
-1.08819 2.71800 1.44723 
-1.02392 2.75500 1.46693 
-1.01673 2.75500 1.46693 
-0.75271 2.84400 1.51432 
-0.57864 2.94000 1.56543 
-0.51994 2.91200 1.55052 
-0.31500 2.78000 1.48024 
-0.20926 2.63600 1.40356 
-0.04855 2.89800 1.54307 
-0.04119 2.91200 1.55052 
-0.01095 2.95400 1.57289 
0.21881 2.74200 1.46000 
0.29037 2.74200 1.46000 
0.29752 2.74200 1.46000 
0.41021 2.73000 1.45362 
0.46893 2.65900 1.41581 
0.50826 2.64700 1.40942 
0.54054 2.63600 1.40356 
0.68182 2.79200 1.48663 
0.69738 2.76700 1.47332 
0.70154 2.75500 1.46693 
0.93723 2.95400 1.57289 
0.95748 2.96900 1.58087 
1.02903 2.80500 1.49355 
1.07790 2.78000 1.48024 
1.20944 2.67000 1.42167 
1.23731 2.67000 1.42167 
1.31984 2.75500 1.46693 
1.47172 2.73000 1.45362 
1.66862 2.91200 1.55052 
1.73837 2.94000 1.56543 
1.73773 2.92600 1.55798 
1.90982 3.04200 1.61974 
2.01354 3.10400 1.65276 
2.12725 3.20200 1.70494 
2.22729 3.28800 1.75073 
2.25303 3.28800 1.75073 
2.29124 3.30600 1.76031 
2.39005 3.36000 1.78907 
3.37050 4.13200 2.20012 
-1.84517 2.48600 1.31721 
-1.84693 2.50600 1.32780 
-1.82168 2.59100 1.37284 
-1.75053 2.64700 1.40251 
-1.65438 2.65900 1.40887 
-1.57070 2.69400 1.42742 
-1.45765 2.70600 1.43377 
-1.44353 2.70600 1.43377 
-1.42941 2.70600 1.43377 
-1.42234 2.70600 1.43377 
-1.41528 2.70600 1.43377 
-1.39934 2.73000 1.44649 
-1.28833 2.76700 1.46610 
-1.10725 2.73000 1.44649 
-1.09125 2.78000 1.47298 
-1.03767 2.79200 1.47934 
-1.02596 2.78000 1.47298 
-0.94568 2.84400 1.50689 
-0.94287 2.85800 1.51431 
-0.82283 2.78000 1.47298 
-0.65265 2.99800 1.58849 
-0.59399 2.94000 1.55776 
-0.45809 2.85800 1.51431 
-0.34711 2.80500 1.48623 
-0.18698 2.61300 1.38450 
-0.15970 2.61300 1.38450 
-0.02637 2.95400 1.56518 
-0.01100 2.96900 1.57313 
-0.00324 2.95400 1.56518 
0.02695 2.88500 1.52862 
0.17748 2.76700 1.46610 
0.34046 2.74200 1.45285 
0.37623 2.74200 1.45285 
0.44191 2.70600 1.43377 
0.51517 2.64700 1.40251 
0.67036 2.80500 1.48623 
0.69964 2.80500 1.48623 
1.01649 2.98300 1.58054 
1.03884 2.79200 1.47934 
1.23034 2.67000 1.41470 
1.38474 2.84400 1.50689 
1.45967 2.83100 1.50001 
1.46525 2.71800 1.44013 
1.60739 2.84400 1.50689 
1.96938 3.07300 1.62823 
2.34709 3.32400 1.76122 
2.64634 3.57600 1.89474 
3.03390 3.92000 2.07701 
3.37163 4.16000 2.20418 
-1.85606 2.46600 1.30018 
-1.84319 2.46600 1.30018 
-1.83868 2.48600 1.31072 
-1.79078 2.62500 1.38401 
-1.66132 2.65900 1.40193 
-1.42941 2.70600 1.42671 
-1.34026 2.75500 1.45255 
-1.30277 2.76700 1.45887 
-1.13358 2.74200 1.44569 
-0.98568 2.83100 1.49262 
-0.97536 2.84400 1.49947 
-0.73156 2.96900 1.56538 
-0.55827 2.95400 1.55747 
-0.29123 2.83100 1.49262 
-0.18098 2.62500 1.38401 
-0.12356 2.71800 1.43304 
-0.08398 2.81800 1.48576 
-0.00326 2.96900 1.56538 
0.06139 2.74200 1.44569 
0.16157 2.74200 1.44569 
0.24419 2.70600 1.42671 
0.25125 2.70600 1.42671 
0.28910 2.73000 1.43937 
0.31899 2.74200 1.44569 
0.36908 2.74200 1.44569 
0.43678 2.71800 1.43304 
0.48480 2.67000 1.40773 
0.50571 2.67000 1.40773 
0.55661 2.64700 1.39561 
0.67346 2.81800 1.48576 
0.71428 2.80500 1.47891 
0.74468 2.75500 1.45255 
0.76625 2.75500 1.45255 
0.88921 2.89800 1.52794 
1.03029 2.91200 1.53532 
1.46240 2.78000 1.46573 
1.51396 2.74200 1.44569 
1.55614 2.79200 1.47206 
1.66060 2.89800 1.52794 
1.82525 2.96900 1.56538 
1.94157 3.04200 1.60387 
2.15828 3.23600 1.70615 
2.27399 3.30600 1.74306 
2.32575 3.30600 1.74306 
2.94652 3.84600 2.02777 
3.10392 3.99700 2.10738 
-1.83305 2.49600 1.30948 
-1.75653 2.62500 1.37716 
-1.51998 2.74200 1.43854 
-1.41528 2.70600 1.41965 
-1.26836 2.75500 1.44536 
-1.24091 2.74200 1.43854 
-1.09411 2.84400 1.49205 
-0.83846 2.85800 1.49940 
-0.65265 2.99800 1.57284 
-0.55563 2.94000 1.54242 
-0.55056 2.95400 1.54976 
-0.38525 2.87100 1.50622 
-0.31483 2.84400 1.49205 
-0.21291 2.68200 1.40706 
0.01206 2.92600 1.53507 
0.07504 2.71800 1.42595 
0.12524 2.73000 1.43224 
0.18143 2.71800 1.42595 
0.20795 2.69400 1.41336 
0.39240 2.75500 1.44536 
0.76551 2.80500 1.47159 
0.78748 2.80500 1.47159 
0.85096 2.87100 1.50622 
1.01777 2.89800 1.52038 
1.07539 2.75500 1.44536 
1.07970 2.69400 1.41336 
1.17813 2.69400 1.41336 
1.29827 2.75500 1.44536 
1.49422 2.89800 1.52038 
1.54945 2.78000 1.45847 
1.87437 2.99800 1.57284 
2.13014 3.21900 1.68879 
2.61225 3.55500 1.86506 
2.88992 3.79800 1.99255 
3.36281 4.21700 2.21237 
-1.87417 2.45600 1.28208 
-1.83219 2.48600 1.29775 
-1.81019 2.53700 1.32437 
-1.64125 2.70600 1.41259 
-1.35540 2.74200 1.43138 
-1.34109 2.74200 1.43138 
-1.17831 2.78000 1.45122 
-1.13766 2.80500 1.46427 
-1.09950 2.85800 1.49194 
-1.04212 2.88500 1.50603 
-1.02707 2.88500 1.50603 
-0.95465 2.87100 1.49872 
-0.89472 2.87100 1.49872 
-0.52743 2.95400 1.54205 
-0.47270 2.99800 1.56502 
-0.37960 2.88500 1.50603 
-0.34621 2.85800 1.49194 
-0.28655 2.85800 1.49194 
-0.18333 2.65900 1.38805 
0.05473 2.76700 1.44443 
0.11812 2.73000 1.42512 
0.25348 2.73000 1.42512 
0.41397 2.75500 1.43817 
0.45710 2.75500 1.43817 
0.52189 2.71800 1.41885 
0.54077 2.70600 1.41259 
0.61527 2.75500 1.43817 
0.66918 2.83100 1.47784 
0.70111 2.87100 1.49872 
0.78744 2.85800 1.49194 
0.89017 2.92600 1.52743 
0.96523 2.96900 1.54988 
1.05341 2.79200 1.45748 
1.09773 2.63600 1.37605 
1.58534 2.81800 1.47106 
1.64513 2.87100 1.49872 
1.79881 2.92600 1.52743 
1.90670 3.01200 1.57233 
2.30850 3.30600 1.72580 
2.61225 3.55500 1.85579 
2.79849 3.72900 1.94662 
3.31418 4.05000 2.11419 
3.29167 3.99700 2.08652 
3.27941 3.92000 2.04632 
-1.84319 2.46600 1.28087 
-1.80586 2.55900 1.32917 
-1.78701 2.58000 1.34008 
-1.78787 2.59100 1.34580 
-1.77435 2.59100 1.34580 
-1.59882 2.69400 1.39930 
-1.54214 2.71800 1.41176 
-1.47770 2.73000 1.41799 
-1.42234 2.70600 1.40553 
-1.20168 2.76700 1.43721 
-1.06471 2.88500 1.49850 
-1.02413 2.89800 1.50526 
-0.89557 2.89800 1.50526 
-0.84313 2.92600 1.51980 
-0.55563 2.94000 1.52707 
-0.49063 3.01200 1.56447 
-0.40985 2.94000 1.52707 
-0.33130 2.85800 1.48448 
-0.32531 2.87100 1.49123 
-0.12835 2.67000 1.38683 
-0.08398 2.81800 1.46370 
-0.03359 2.91200 1.51253 
-0.01085 2.92600 1.51980 
0.11864 2.74200 1.42423 
0.27737 2.75500 1.43098 
0.43949 2.78000 1.44397 
0.45400 2.78000 1.44397 
0.49027 2.78000 1.44397 
0.75308 2.89800 1.50526 
0.76821 2.89800 1.50526 
0.80232 2.91200 1.51253 
0.93279 2.94000 1.52707 
1.00470 2.92600 1.51980 
1.05586 2.81800 1.46370 
1.08850 2.64700 1.37488 
1.12304 2.64700 1.37488 
1.48355 2.98300 1.54941 
1.50934 2.89800 1.50526 
1.51243 2.79200 1.45020 
1.82276 2.94000 1.52707 
2.07225 3.16900 1.64602 
2.09102 3.18500 1.65433 
2.70320 3.64000 1.89066 
2.96490 3.87000 2.01012 
3.24057 4.10400 2.13167 
3.24872 3.92000 2.03609 
-1.93972 2.46600 1.27443 
-1.92685 2.46600 1.27443 
-1.91263 2.45600 1.26927 
-1.79280 2.56900 1.32766 
-1.78610 2.56900 1.32766 
-1.72913 2.62500 1.35661 
-1.72262 2.63600 1.36229 
-1.68822 2.63600 1.36229 
-1.67569 2.68200 1.38606 
-1.59882 2.69400 1.39227 
-1.54182 2.73000 1.41087 
-1.41528 2.70600 1.39847 
-1.39934 2.73000 1.41087 
-1.36971 2.74200 1.41707 
-1.06708 2.91200 1.50493 
-0.98189 2.88500 1.49097 
-0.94716 2.87100 1.48374 
-0.81648 2.94000 1.51940 
-0.69846 3.02700 1.56436 
-0.59399 2.94000 1.51940 
-0.49552 3.04200 1.57211 
-0.35528 2.87100 1.48374 
-0.14796 2.64700 1.36798 
-0.12301 2.70600 1.39847 
0.03368 2.81800 1.45635 
0.57932 2.75500 1.42379 
0.88140 3.02700 1.56436 
0.92649 2.96900 1.53439 
0.93424 2.96900 1.53439 
1.07267 2.69400 1.39227 
1.08649 2.65900 1.37418 
1.08850 2.64700 1.36798 
1.13507 2.65900 1.37418 
1.14201 2.65900 1.37418 
1.71226 2.85800 1.47702 
2.38128 3.36000 1.73646 
2.42523 3.39700 1.75558 
2.70320 3.64000 1.88116 
-1.93329 2.46600 1.26800 
-1.84739 2.44600 1.25772 
-1.76008 2.58000 1.32662 
-1.57770 2.68200 1.37906 
-1.56371 2.68200 1.37906 
-1.25945 2.76700 1.42277 
-0.99388 2.89800 1.49013 
-0.98632 2.89800 1.49013 
-0.88553 2.94000 1.51173 
-0.79724 2.95400 1.51893 
-0.77805 2.96900 1.52664 
-0.41585 2.98300 1.53384 
-0.28384 2.83100 1.45568 
-0.25927 2.80500 1.44231 
-0.16869 2.64700 1.36107 
-0.14863 2.65900 1.36724 
-0.09915 2.83100 1.45568 
-0.07845 2.88500 1.48345 
0.12868 2.80500 1.44231 
0.13600 2.80500 1.44231 
0.14994 2.79200 1.43563 
0.31457 2.83100 1.45568 
0.49926 2.83100 1.45568 
0.50665 2.83100 1.45568 
0.85850 3.05800 1.57240 
1.02202 2.95400 1.51893 
1.16407 2.69400 1.38524 
1.52877 3.04200 1.56417 
1.53728 3.01200 1.54875 
1.54703 2.91200 1.49733 
1.60004 2.83100 1.45568 
1.62965 2.84400 1.46236 
2.36374 3.36000 1.72769 
2.51172 3.45500 1.77654 
2.85272 3.77500 1.94108 
2.92813 3.82200 1.96524 
2.97663 3.84600 1.97758 
3.27109 4.02300 2.06860 
-1.79695 2.53700 1.29789 
-1.79033 2.53700 1.29789 
-1.79145 2.54800 1.30351 
-1.70077 2.61300 1.33677 
-1.64804 2.69400 1.37820 
-1.54258 2.69400 1.37820 
-1.54239 2.70600 1.38434 
-1.36693 2.78000 1.42220 
-1.33066 2.78000 1.42220 
-1.28713 2.78000 1.42220 
-1.19801 2.84400 1.45494 
-1.16258 2.88500 1.47592 
-1.15505 2.88500 1.47592 
-1.14753 2.88500 1.47592 
-1.11741 2.88500 1.47592 
-0.84823 2.99800 1.53373 
-0.70561 3.05800 1.56442 
-0.64938 2.98300 1.52605 
-0.41794 2.99800 1.53373 
-0.17712 2.67000 1.36593 
-0.14169 2.65900 1.36030 
-0.11288 2.80500 1.43499 
0.29375 2.84400 1.45494 
0.35647 2.87100 1.46875 
0.38644 2.87100 1.46875 
0.61288 2.84400 1.45494 
0.73279 2.96900 1.51889 
0.85914 3.08900 1.58028 
0.89572 3.10400 1.58795 
1.05821 2.96900 1.51889 
1.13789 2.68200 1.37207 
1.42381 2.94000 1.50405 
1.56935 2.95400 1.51122 
1.57705 2.95400 1.51122 
1.60039 2.85800 1.46210 
1.60739 2.84400 1.45494 
1.62220 2.83100 1.44829 
1.89002 2.99800 1.53373 
2.15828 3.23600 1.65548 
2.32492 3.34200 1.70971 
2.35497 3.36000 1.71892 
2.89212 3.77500 1.93123 
-1.79695 2.53700 1.29127 
-1.79145 2.54800 1.29686 
-1.53470 2.73000 1.38950 
-1.51998 2.74200 1.39561 
-1.29997 2.79200 1.42105 
-1.22184 2.78000 1.41495 
-1.13001 2.89800 1.47501 
-0.96363 2.89800 1.47501 
-0.82484 3.02700 1.54066 
-0.72432 3.10400 1.57985 
-0.62765 2.95400 1.50351 
-0.60166 2.94000 1.49638 
-0.43201 3.04200 1.54830 
-0.13653 2.69400 1.37117 
-0.03492 3.02700 1.54066 
0.01195 2.89800 1.47501 
0.01933 2.87100 1.46126 
0.04122 2.83100 1.44090 
0.05574 2.81800 1.43429 
0.09294 2.83100 1.44090 
0.20764 2.88500 1.46839 
0.32810 2.88500 1.46839 
0.33714 2.89800 1.47501 
0.35397 2.91200 1.48213 
0.40338 2.88500 1.46839 
0.47327 2.89800 1.47501 
0.48083 2.89800 1.47501 
0.65971 2.95400 1.50351 
0.72430 2.99800 1.52590 
0.92476 3.12000 1.58800 
1.01278 3.04200 1.54830 
1.01851 3.01200 1.53303 
1.08045 2.84400 1.44752 
1.11982 2.70600 1.37728 
1.30206 2.85800 1.45465 
1.30951 2.85800 1.45465 
1.39312 2.94000 1.49638 
1.65934 2.84400 1.44752 
2.24445 3.28800 1.67350 
2.40750 3.39700 1.72898 
2.54440 3.47500 1.76868 
2.83742 3.72900 1.89796 
2.99795 3.82200 1.94530 
3.20823 3.99700 2.03437 
3.21866 3.99700 2.03437 
-1.84101 2.44600 1.23857 
-1.80699 2.49600 1.26388 
-1.76599 2.56900 1.30085 
-1.72702 2.59100 1.31199 
-1.54239 2.70600 1.37022 
-1.50620 2.73000 1.38237 
-1.50567 2.74200 1.38845 
-1.42784 2.73000 1.38237 
-1.32066 2.80500 1.42035 
-1.20354 2.80500 1.42035 
-0.96069 2.91200 1.47453 
-0.85644 3.02700 1.53276 
-0.78089 3.13600 1.58796 
-0.59399 2.94000 1.48871 
-0.53786 2.96900 1.50339 
-0.50346 3.04200 1.54036 
-0.39065 2.96900 1.50339 
-0.31339 2.83100 1.43352 
-0.16945 2.65900 1.34642 
0.01951 2.89800 1.46744 
0.30985 2.92600 1.48162 
0.34970 2.94000 1.48871 
0.37094 2.92600 1.48162 
0.45276 2.91200 1.47453 
0.66172 2.99800 1.51808 
0.72700 3.04200 1.54036 
0.74711 3.02700 1.53276 
0.77081 3.02700 1.53276 
1.01278 3.04200 1.54036 
1.02866 3.04200 1.54036 
1.09140 2.95400 1.49580 
1.09263 2.81800 1.42693 
1.09966 2.78000 1.40769 
1.22827 2.79200 1.41377 
1.54578 2.99800 1.51808 
2.13014 3.21900 1.62999 
2.21509 3.27000 1.65581 
2.26536 3.30600 1.67404 
2.55346 3.47500 1.75961 
2.84893 3.70600 1.87658 
2.85860 3.70600 1.87658 
3.22800 3.89500 1.97229 
-1.83572 2.45600 1.23722 
-1.75258 2.56900 1.29414 
-1.67969 2.59100 1.30523 
-1.65966 2.60200 1.31077 
-1.49908 2.73000 1.37525 
-1.40118 2.80500 1.41303 
-1.22184 2.78000 1.40044 
-0.90087 2.94000 1.48104 
-0.76430 3.16900 1.59640 
-0.50887 3.02700 1.52486 
-0.37916 2.94000 1.48104 
-0.31339 2.83100 1.42613 
-0.18030 2.71800 1.36920 
0.13423 2.92600 1.47399 
0.22576 3.02700 1.52486 
0.33594 2.95400 1.48809 
0.37094 2.92600 1.47399 
0.42996 2.91200 1.46693 
0.60575 2.95400 1.48809 
0.72284 3.05800 1.54048 
0.83496 3.08900 1.55610 
1.08678 3.02700 1.52486 
1.09694 2.96900 1.49565 
1.24543 2.83100 1.42613 
1.60813 3.02700 1.52486 
1.62393 3.02700 1.52486 
1.63083 2.92600 1.47399 
1.67509 2.87100 1.44628 
2.12725 3.20200 1.61302 
2.76732 3.66200 1.84475 
2.92500 3.72900 1.87850 
-1.81745 2.46600 1.23582 
-1.70673 2.59100 1.29847 
-1.64001 2.64700 1.32653 
-1.54961 2.69400 1.35008 
-1.53505 2.71800 1.36211 
-1.40320 2.78000 1.39318 
-1.31943 2.81800 1.41223 
-1.20354 2.80500 1.40571 
-1.18295 2.89800 1.45232 
-1.07707 2.89800 1.45232 
-1.05432 2.94000 1.47337 
-0.86434 3.02700 1.51696 
-0.76816 3.18500 1.59615 
-0.53514 2.95400 1.48038 
-0.25546 2.84400 1.42526 
-0.02771 3.10400 1.55555 
0.08078 2.92600 1.46635 
0.34365 2.95400 1.48038 
0.40716 2.91200 1.45933 
0.65232 3.02700 1.51696 
0.73823 3.08900 1.54804 
0.91447 3.16900 1.58813 
1.08925 3.01200 1.50945 
1.14615 2.80500 1.40571 
1.16811 2.80500 1.40571 
1.32666 2.91200 1.45933 
1.39911 2.96900 1.48790 
1.52914 3.02700 1.51696 
1.63946 3.01200 1.50945 
1.72181 2.91200 1.45933 
1.72941 2.91200 1.45933 
1.86655 2.99800 1.50243 
2.12725 3.20200 1.60467 
2.18362 3.23600 1.62170 
2.30747 3.34200 1.67483 
2.35066 3.37900 1.69337 
2.47997 3.43600 1.72193 
3.17718 3.89500 1.95196 
3.21803 3.92000 1.96449 
3.24885 3.94500 1.97702 
3.34280 3.97100 1.99005 
-1.91904 2.45600 1.22440 
-1.81102 2.46600 1.22939 
-1.80624 2.48600 1.23936 
-1.72026 2.59100 1.29170 
-1.70673 2.59100 1.29170 
-1.61928 2.64700 1.31962 
-1.55671 2.68200 1.33707 
-1.47121 2.71800 1.35502 
-1.46412 2.71800 1.35502 
-1.28406 2.80500 1.39839 
-1.25625 2.79200 1.39191 
-1.24897 2.79200 1.39191 
-1.12494 2.88500 1.43827 
-1.03082 2.98300 1.48713 
-0.98411 2.98300 1.48713 
-0.92526 2.96900 1.48015 
-0.91751 2.96900 1.48015 
-0.81392 3.16900 1.57986 
-0.76390 3.20200 1.59631 
-0.54040 2.98300 1.48713 
-0.29724 2.81800 1.40487 
-0.20996 2.83100 1.41135 
-0.18442 2.78000 1.38593 
-0.16759 2.74200 1.36698 
-0.09158 3.07300 1.53200 
0.00460 3.04200 1.51654 
0.02018 2.99800 1.49461 
0.09651 2.94000 1.46569 
0.19814 3.08900 1.53997 
0.20720 3.10400 1.54745 
0.25580 3.10400 1.54745 
0.34365 2.95400 1.47267 
0.42439 2.92600 1.45871 
0.49188 3.01200 1.50159 
0.56001 2.99800 1.49461 
0.63336 3.01200 1.50159 
0.98989 3.12000 1.55543 
1.05518 3.07300 1.53200 
1.33941 2.94000 1.46569 
1.36892 2.95400 1.47267 
1.51290 3.04200 1.51654 
1.53703 3.02700 1.50907 
1.56863 3.02700 1.50907 
1.60066 3.05800 1.52452 
1.61653 3.07300 1.53200 
1.64732 3.01200 1.50159 
1.81829 2.98300 1.48713 
1.83385 2.98300 1.48713 
1.97304 3.10400 1.54745 
2.00975 3.13600 1.56341 
2.30747 3.34200 1.66610 
2.40314 3.41600 1.70300 
2.48894 3.43600 1.71297 
2.58566 3.49400 1.74188 
2.91663 3.70600 1.84757 
3.14669 3.87000 1.92933 
-1.83463 2.44600 1.21303 
-1.80458 2.46600 1.22295 
-1.79951 2.56900 1.27403 
-1.67292 2.59100 1.28494 
-1.65264 2.59100 1.28494 
-1.62631 2.63600 1.30726 
-1.44993 2.71800 1.34793 
-1.39386 2.80500 1.39107 
-1.15270 2.89800 1.43719 
-0.88364 3.01200 1.49373 
-0.82219 3.16900 1.57159 
-0.58591 3.05800 1.51654 
-0.57793 3.05800 1.51654 
-0.02813 3.15200 1.56316 
0.02814 3.01200 1.49373 
0.05900 2.98300 1.47935 
0.08156 2.95400 1.46496 
0.09697 2.95400 1.46496 
0.12906 2.98300 1.47935 
0.14536 2.99800 1.48678 
0.15390 3.01200 1.49373 
0.19910 3.10400 1.53935 
0.45830 2.99800 1.48678 
0.49678 3.04200 1.50861 
0.59130 2.99800 1.48678 
0.60979 3.01200 1.49373 
0.64761 3.04200 1.50861 
0.76648 3.07300 1.52398 
0.82658 3.05800 1.51654 
0.92476 3.12000 1.54729 
1.12148 2.91200 1.44414 
1.14543 2.85800 1.41735 
1.29183 2.95400 1.46496 
1.44407 2.99800 1.48678 
1.53671 3.04200 1.50861 
1.60851 3.07300 1.52398 
1.63972 3.02700 1.50117 
1.75552 2.96900 1.47240 
1.77936 2.98300 1.47935 
1.79493 2.98300 1.47935 
1.80272 2.98300 1.47935 
1.99135 3.12000 1.54729 
2.09706 3.16900 1.57159 
2.13258 3.18500 1.57952 
2.47997 3.43600 1.70400 
2.51172 3.45500 1.71342 
2.65863 3.55500 1.76302 
2.77920 3.64000 1.80517 
2.87047 3.68400 1.82699 
2.88970 3.68400 1.82699 
2.98220 3.75200 1.86071 
-1.92685 2.46600 1.21652 
-1.76759 2.59100 1.27818 
-1.59887 2.65900 1.31173 
-1.57805 2.65900 1.31173 
-1.56368 2.67000 1.31715 
-1.46471 2.70600 1.33491 
-1.43411 2.74200 1.35267 
-1.42653 2.75500 1.35909 
-1.37190 2.80500 1.38375 
-1.29870 2.80500 1.38375 
-1.19270 2.88500 1.42322 
-1.16026 2.89800 1.42963 
-1.13001 2.89800 1.42963 
-1.08227 2.91200 1.43654 
-1.07984 2.92600 1.44344 
-0.93543 3.02700 1.49327 
-0.90384 3.02700 1.49327 
-0.83423 3.15200 1.55493 
-0.75116 3.21900 1.58798 
-0.66506 3.16900 1.56332 
-0.64504 3.15200 1.55493 
-0.62859 3.15200 1.55493 
-0.60593 3.12000 1.53915 
-0.40229 2.99800 1.47896 
-0.30146 2.85800 1.40990 
-0.22249 2.89800 1.42963 
-0.20644 2.88500 1.42322 
-0.17223 2.81800 1.39016 
0.24084 3.12000 1.53915 
0.36330 2.92600 1.44344 
0.39385 2.92600 1.44344 
0.51788 3.07300 1.51596 
0.56823 3.04200 1.50067 
0.73371 3.10400 1.53125 
1.03649 3.08900 1.52385 
1.05003 3.05800 1.50856 
1.10682 2.95400 1.45726 
1.11453 2.95400 1.45726 
1.13878 2.89800 1.42963 
1.29673 2.98300 1.47156 
1.46654 3.01200 1.48587 
1.51290 3.04200 1.50067 
1.57643 3.07300 1.51596 
1.63283 3.10400 1.53125 
1.66137 2.92600 1.44344 
1.67699 2.94000 1.45035 
1.70001 2.94000 1.45035 
2.01793 3.13600 1.54704 
2.03646 3.15200 1.55493 
2.73483 3.61900 1.78531 
3.42139 4.07700 2.01125 
-1.85204 2.42700 1.19094 
-1.79375 2.58000 1.26602 
-1.78111 2.59100 1.27142 
-1.57805 2.65900 1.30479 
-1.50040 2.69400 1.32196 
-1.44993 2.71800 1.33374 
-1.41934 2.75500 1.35190 
-1.41830 2.76700 1.35778 
-1.38012 2.79200 1.37005 
-1.36554 2.79200 1.37005 
-1.19645 2.85800 1.40244 
-1.18517 2.88500 1.41569 
-1.03533 3.04200 1.49273 
-0.93703 3.05800 1.50058 
-0.79733 3.20200 1.57124 
-0.66715 3.21900 1.57958 
-0.54315 3.04200 1.49273 
-0.41408 3.02700 1.48537 
-0.40229 2.99800 1.47114 
-0.32837 2.89800 1.42207 
-0.23339 2.94000 1.44268 
-0.04505 3.18500 1.56290 
0.02886 3.08900 1.51579 
0.10624 2.99800 1.47114 
0.12189 2.99800 1.47114 
0.45484 3.02700 1.48537 
0.54476 3.08900 1.51579 
0.54996 3.07300 1.50794 
1.15188 2.91200 1.42894 
1.17269 2.92600 1.43581 
1.32267 2.95400 1.44955 
1.44224 3.02700 1.48537 
1.61693 3.13600 1.53885 
1.65414 2.95400 1.44955 
1.70903 2.96900 1.45691 
2.05885 3.13600 1.53885 
2.31619 3.34200 1.63994 
3.20780 3.92000 1.92357 
-1.91263 2.45600 1.19877 
-1.81441 2.43600 1.18900 
-1.78701 2.58000 1.25929 
-1.76759 2.59100 1.26466 
-1.73378 2.59100 1.26466 
-1.72702 2.59100 1.26466 
-1.61255 2.63600 1.28662 
-1.50072 2.68200 1.30908 
-1.48634 2.69400 1.31493 
-1.44208 2.73000 1.33250 
-1.14753 2.88500 1.40816 
-1.13247 2.88500 1.40816 
-1.10732 2.89800 1.41450 
-0.95459 3.08900 1.50773 
-0.89351 3.07300 1.49992 
-0.87398 3.08900 1.50773 
-0.83465 3.18500 1.55459 
-0.78476 3.21900 1.57118 
-0.74668 3.23600 1.57948 
-0.27809 2.92600 1.42817 
-0.21345 2.98300 1.45599 
-0.10061 3.10400 1.51505 
-0.06167 3.18500 1.55459 
0.03710 3.10400 1.51505 
0.20827 3.12000 1.52286 
0.30811 2.98300 1.45599 
0.44694 3.02700 1.47747 
0.62072 3.02700 1.47747 
0.62862 3.02700 1.47747 
0.78256 3.04200 1.48479 
0.98989 3.12000 1.52286 
1.08369 2.95400 1.44184 
1.10157 2.94000 1.43500 
1.23284 2.99800 1.46331 
1.42645 3.02700 1.47747 
1.66956 2.95400 1.44184 
1.84631 3.04200 1.48479 
1.98114 3.10400 1.51505 
1.99950 3.12000 1.52286 
2.02392 3.12000 1.52286 
2.04021 3.12000 1.52286 
2.64634 3.57600 1.74543 
2.99312 3.72900 1.82011 
3.41192 4.10400 2.00315 
-1.87162 2.43600 1.18265 
-1.80367 2.45600 1.19236 
-1.80249 2.51700 1.22197 
-1.79592 2.51700 1.22197 
-1.70622 2.58000 1.25256 
-1.47228 2.69400 1.30790 
-1.32183 2.79200 1.35548 
-1.27083 2.79200 1.35548 
-1.12245 2.89800 1.40694 
-1.10507 2.91200 1.41374 
-0.96912 3.13600 1.52249 
-0.95603 3.12000 1.51472 
-0.46512 3.10400 1.50695 
-0.40229 2.99800 1.45549 
-0.33154 2.92600 1.42054 
-0.00355 3.23600 1.57104 
0.27731 3.07300 1.49190 
0.29685 3.02700 1.46957 
0.41709 2.98300 1.44821 
0.50138 3.12000 1.51472 
0.50952 3.12000 1.51472 
0.59702 3.02700 1.46957 
0.68180 3.08900 1.49967 
0.76192 3.12000 1.51472 
0.94291 3.07300 1.49190 
0.99497 3.13600 1.52249 
1.00618 3.12000 1.51472 
1.05289 2.99800 1.45549 
1.27475 3.04200 1.47685 
1.28268 3.04200 1.47685 
1.57612 3.12000 1.51472 
1.67029 2.96900 1.44141 
1.67804 2.96900 1.44141 
1.70152 2.98300 1.44821 
1.75736 3.01200 1.46229 
2.08906 3.12000 1.51472 
2.24923 3.27000 1.58754 
-1.89207 2.44600 1.18112 
-1.86527 2.43600 1.17629 
-1.82077 2.43600 1.17629 
-1.79592 2.51700 1.21540 
-1.33888 2.76700 1.33612 
-0.86713 3.15200 1.52203 
-0.85582 3.20200 1.54617 
-0.73746 3.27000 1.57901 
-0.72893 3.27000 1.57901 
-0.69862 3.28800 1.58770 
-0.64534 3.23600 1.56259 
-0.59063 3.16900 1.53024 
-0.34847 2.94000 1.41966 
-0.26269 3.01200 1.45443 
-0.25483 3.01200 1.45443 
-0.22561 3.04200 1.46891 
0.11574 3.04200 1.46891 
0.33117 2.91200 1.40614 
0.42114 3.01200 1.45443 
0.50652 3.15200 1.52203 
0.52032 3.13600 1.51430 
0.56600 3.07300 1.48388 
0.76151 3.15200 1.52203 
0.79050 3.04200 1.46891 
0.80629 3.01200 1.45443 
1.00316 3.13600 1.51430 
1.05286 2.95400 1.42642 
1.10925 2.94000 1.41966 
1.14343 2.96900 1.43366 
1.21317 3.02700 1.46167 
1.24155 3.05800 1.47664 
1.29856 3.04200 1.46891 
1.30796 3.02700 1.46167 
1.32938 2.96900 1.43366 
1.46594 3.02700 1.46167 
1.50489 3.05800 1.47664 
1.67544 3.18500 1.53796 
1.65662 3.07300 1.48388 
1.66313 2.99800 1.44767 
1.96351 3.08900 1.49161 
2.67127 3.59700 1.73691 
3.01034 3.77500 1.82286 
-1.94113 2.47600 1.18914 
-1.89981 2.45600 1.17954 
-1.82824 2.44600 1.17474 
-1.79145 2.54800 1.22372 
-1.45558 2.74200 1.31689 
-1.39777 2.75500 1.32314 
-1.17942 2.87100 1.37885 
-1.17193 2.87100 1.37885 
-0.96278 3.16900 1.52197 
-0.88358 3.15200 1.51380 
-0.87181 3.16900 1.52197 
-0.86417 3.20200 1.53782 
-0.66571 3.25300 1.56231 
-0.65722 3.25300 1.56231 
-0.55993 3.13600 1.50612 
-0.55175 3.13600 1.50612 
-0.34416 2.96900 1.42592 
-0.12907 3.01200 1.44657 
-0.11391 3.02700 1.45377 
-0.06891 3.13600 1.50612 
-0.02888 3.23600 1.55415 
0.01363 3.30600 1.58777 
0.18202 3.08900 1.48355 
0.51752 3.16900 1.52197 
0.54487 3.13600 1.50612 
0.58410 3.04200 1.46097 
0.66568 3.08900 1.48355 
1.03589 3.13600 1.50612 
1.32163 2.96900 1.42592 
1.91986 3.05800 1.46866 
1.98541 3.07300 1.47586 
2.01749 3.07300 1.47586 
2.64634 3.57600 1.71744 
2.72220 3.64000 1.74818 
2.84893 3.70600 1.77987 
2.85860 3.70600 1.77987 
2.89581 3.72900 1.79092 
-1.93466 2.47600 1.18268 
-1.45558 2.74200 1.30974 
-1.20189 2.87100 1.37136 
-1.13001 2.89800 1.38425 
-1.07762 3.02700 1.44587 
-1.05673 3.05800 1.46068 
-1.04326 3.08900 1.47549 
-1.01751 3.18500 1.52134 
-0.86036 3.21900 1.53758 
-0.83113 3.23600 1.54570 
-0.68626 3.27000 1.56194 
-0.60514 3.20200 1.52946 
-0.50794 3.16900 1.51370 
-0.48876 3.15200 1.50558 
-0.34129 3.01200 1.43871 
-0.28912 3.04200 1.45304 
-0.21187 3.07300 1.46784 
-0.16051 3.01200 1.43871 
-0.04458 3.15200 1.50558 
-0.03674 3.18500 1.52134 
0.21315 3.07300 1.46784 
0.22117 3.07300 1.46784 
0.26797 3.05800 1.46068 
0.60492 3.02700 1.44587 
0.78668 3.05800 1.46068 
0.81819 2.99800 1.43202 
1.03025 3.16900 1.51370 
1.30650 3.04200 1.45304 
1.38931 2.99800 1.43202 
1.52015 3.08900 1.47549 
1.63425 3.20200 1.52946 
1.69184 3.16900 1.51370 
1.67876 3.01200 1.43871 
1.84804 3.05800 1.46068 
2.06214 3.10400 1.48265 
2.27877 3.28800 1.57054 
2.33364 3.34200 1.59633 
2.82959 3.70600 1.77020 
3.42591 4.16000 1.98706 
-1.54277 2.67000 1.26838 
-1.52884 2.67000 1.26838 
-1.51446 2.69400 1.27978 
-1.36902 2.75500 1.30876 
-1.36776 2.76700 1.31446 
-1.26210 2.80500 1.33251 
-1.25325 2.81800 1.33869 
-1.24425 2.83100 1.34486 
-1.21883 2.85800 1.35769 
-1.20023 2.88500 1.37052 
-1.04326 3.08900 1.46743 
-1.04023 3.10400 1.47455 
-1.03745 3.12000 1.48215 
-0.94270 3.18500 1.51303 
-0.75060 3.25300 1.54533 
-0.65379 3.23600 1.53726 
-0.50487 3.20200 1.52111 
-0.30165 3.08900 1.46743 
-0.02044 3.23600 1.53726 
0.15625 3.05800 1.45270 
0.21211 3.05800 1.45270 
0.32357 2.91200 1.38334 
0.34637 2.91200 1.38334 
0.50889 3.21900 1.52918 
0.56088 3.08900 1.46743 
0.76837 3.32400 1.57906 
0.91436 3.05800 1.45270 
1.06595 2.96900 1.41042 
1.09140 2.95400 1.40329 
1.09911 2.95400 1.40329 
1.21972 3.10400 1.47455 
1.69424 3.25300 1.54533 
1.71121 3.25300 1.54533 
1.79666 3.01200 1.43085 
2.05404 3.10400 1.47455 
2.16583 3.18500 1.51303 
2.23753 3.25300 1.54533 
2.32107 3.32400 1.57906 
2.48467 3.45500 1.64129 
2.61225 3.55500 1.68880 
2.71594 3.61900 1.71920 
2.83926 3.70600 1.76053 
2.95283 3.75200 1.78238 
3.61071 4.27600 2.03131 
-1.96332 2.49600 1.17921 
-1.88699 2.45600 1.16031 
-1.85067 2.47600 1.16976 
-1.75243 2.55900 1.20897 
-1.65909 2.58000 1.21889 
-1.62571 2.60200 1.22929 
-1.57111 2.65900 1.25622 
-1.53571 2.68200 1.26708 
-1.50708 2.70600 1.27842 
-1.50667 2.71800 1.28409 
-1.33791 2.78000 1.31338 
-1.29268 2.79200 1.31905 
-1.23512 2.84400 1.34362 
-1.16026 2.89800 1.36913 
-1.09268 2.94000 1.38897 
-0.98951 3.20200 1.51275 
-0.90595 3.20200 1.51275 
-0.88924 3.20200 1.51275 
-0.88556 3.21900 1.52078 
-0.40841 3.10400 1.46645 
-0.30467 3.12000 1.47401 
-0.28839 3.12000 1.47401 
-0.21989 3.07300 1.45181 
-0.16837 3.01200 1.42299 
0.39373 2.98300 1.40929 
0.50620 3.20200 1.51275 
0.61411 3.07300 1.45181 
0.69736 3.23600 1.52881 
1.05781 3.01200 1.42299 
1.31444 3.04200 1.43716 
1.32238 3.04200 1.43716 
1.33454 2.99800 1.41637 
1.43351 3.04200 1.43716 
1.44903 3.05800 1.44472 
1.65160 3.23600 1.52881 
1.70234 3.01200 1.42299 
1.74164 3.01200 1.42299 
1.74137 2.99800 1.41637 
1.76484 2.99800 1.41637 
1.90522 3.07300 1.45181 
1.92928 3.07300 1.45181 
2.10226 3.15200 1.48913 
2.43880 3.41600 1.61385 
2.54007 3.49400 1.65070 
2.73483 3.61900 1.70976 
3.50864 4.24700 2.00645 
-1.70565 2.56900 1.20699 
-1.63236 2.59100 1.21733 
-1.55712 2.64700 1.24364 
-1.54277 2.67000 1.25444 
-1.39777 2.75500 1.29438 
-1.34517 2.78000 1.30613 
-1.31454 2.79200 1.31176 
-1.22628 2.85800 1.34277 
-1.17538 2.89800 1.36157 
-1.15270 2.89800 1.36157 
-1.12245 2.89800 1.36157 
-1.09077 2.99800 1.40855 
-1.06471 3.05800 1.43674 
-1.01239 3.16900 1.48889 
-0.97280 3.20200 1.50439 
-0.88179 3.23600 1.52037 
-0.76306 3.27000 1.53634 
-0.70332 3.27000 1.53634 
-0.56090 3.23600 1.52037 
-0.42296 3.15200 1.48090 
-0.36981 3.12000 1.46587 
-0.26261 3.10400 1.45835 
-0.21989 3.07300 1.44379 
-0.12722 2.96900 1.39492 
-0.08976 3.01200 1.41513 
0.22807 3.05800 1.43674 
0.24403 3.05800 1.43674 
0.40542 3.01200 1.41513 
0.42757 3.05800 1.43674 
0.58791 3.10400 1.45835 
0.82141 3.47500 1.63266 
0.84429 3.18500 1.49641 
0.91314 3.13600 1.47339 
1.40275 3.02700 1.42217 
1.45614 3.07300 1.44379 
1.49597 3.08900 1.45130 
1.55965 3.13600 1.47339 
1.60895 3.18500 1.49641 
1.72963 3.28800 1.54480 
1.87484 3.08900 1.45130 
1.88116 3.07300 1.44379 
2.79599 3.66200 1.72052 
2.89581 3.72900 1.75199 
2.93325 3.75200 1.76280 
3.52144 4.27600 2.00899 
-1.90754 2.46600 1.15216 
-1.86655 2.50600 1.17085 
-1.79646 2.52700 1.18066 
-1.72576 2.56900 1.20029 
-1.63861 2.56900 1.20029 
-1.62559 2.59100 1.21057 
-1.61207 2.59100 1.21057 
-1.58527 2.62500 1.22645 
-1.57816 2.63600 1.23159 
-1.44810 2.75500 1.28719 
-1.32183 2.79200 1.30448 
-1.21688 2.87100 1.34139 
-1.20563 2.89800 1.35400 
-1.10275 2.92600 1.36709 
-0.98951 3.20200 1.49604 
-0.88179 3.23600 1.51192 
-0.78456 3.25300 1.51987 
-0.71578 3.28800 1.53622 
-0.54972 3.27000 1.52781 
-0.38389 3.16900 1.48062 
-0.27490 3.15200 1.47268 
-0.17623 3.01200 1.40727 
0.16503 3.07300 1.43577 
0.22919 3.07300 1.43577 
0.34970 2.94000 1.37363 
0.38414 2.96900 1.38718 
0.61034 3.13600 1.46520 
0.67689 3.21900 1.50398 
1.08925 3.01200 1.40727 
1.26659 3.20200 1.49604 
1.32933 3.05800 1.42876 
1.53541 3.12000 1.45773 
1.74164 3.01200 1.40727 
1.89204 3.10400 1.45025 
2.51719 3.47500 1.62359 
3.52144 4.27600 1.99783 
3.58839 4.27600 1.99783 
-1.90236 2.47600 1.15038 
-1.75155 2.54800 1.18383 
-1.55752 2.63600 1.22471 
-1.55064 2.63600 1.22471 
-1.47770 2.73000 1.26839 
-1.44810 2.75500 1.28000 
-1.29138 2.80500 1.30323 
-1.25478 2.80500 1.30323 
-1.18106 2.91200 1.35295 
-0.95276 3.21900 1.49558 
-0.92756 3.21900 1.49558 
-0.89868 3.23600 1.50348 
-0.83132 3.27000 1.51928 
-0.67068 3.23600 1.50348 
-0.37953 3.20200 1.48768 
-0.22326 3.12000 1.44958 
-0.13561 2.98300 1.38593 
-0.11225 2.98300 1.38593 
-0.00357 3.25300 1.51138 
0.01370 3.32400 1.54436 
0.10456 3.18500 1.47978 
0.31282 2.95400 1.37246 
0.59195 3.16900 1.47235 
0.78031 3.49400 1.62335 
0.81249 3.55500 1.65169 
0.86176 3.45500 1.60523 
0.88017 3.28800 1.52764 
0.90949 3.27000 1.51928 
0.93022 3.25300 1.51138 
1.00756 3.20200 1.48768 
1.05763 3.15200 1.46445 
1.16546 3.08900 1.43518 
1.24324 3.18500 1.47978 
1.32636 3.18500 1.47978 
1.51912 3.12000 1.44958 
1.73081 3.12000 1.44958 
1.80561 3.02700 1.40638 
1.85711 3.07300 1.42775 
1.96883 3.13600 1.45702 
2.10494 3.21900 1.49558 
2.16389 3.27000 1.51928 
2.39864 3.39700 1.57828 
2.56743 3.49400 1.62335 
-1.78371 2.53700 1.17210 
-1.69275 2.58000 1.19196 
-1.63216 2.58000 1.19196 
-1.44810 2.75500 1.27281 
-1.38340 2.75500 1.27281 
-1.23854 2.81800 1.30192 
-1.12027 2.91200 1.34535 
-1.08531 2.98300 1.37815 
-1.07512 2.99800 1.38508 
-1.01908 3.08900 1.42712 
-0.83549 3.25300 1.50289 
-0.75868 3.28800 1.51906 
-0.30756 3.23600 1.49503 
-0.22554 3.15200 1.45623 
-0.20697 3.12000 1.44144 
-0.07441 3.02700 1.39848 
-0.04282 3.02700 1.39848 
0.01363 3.30600 1.52737 
0.11871 3.12000 1.44144 
0.13231 3.05800 1.41280 
0.22117 3.07300 1.41973 
0.39373 2.98300 1.37815 
0.41328 3.01200 1.39155 
0.48509 3.12000 1.44144 
0.78500 3.51500 1.62393 
0.80321 3.55500 1.64241 
0.84600 3.61900 1.67198 
0.86041 3.64000 1.68168 
0.86489 3.61900 1.67198 
0.93509 3.27000 1.51074 
1.04940 3.15200 1.45623 
1.09527 3.07300 1.41973 
1.32636 3.18500 1.47147 
1.33475 3.08900 1.42712 
1.34281 3.08900 1.42712 
1.50323 3.10400 1.43405 
1.54355 3.12000 1.44144 
1.75025 3.18500 1.47147 
1.86513 3.07300 1.41973 
2.00791 3.18500 1.47147 
2.03284 3.18500 1.47147 
2.38977 3.39700 1.56942 
2.75372 3.61900 1.67198 
3.19760 4.02300 1.85863 
-1.96332 2.49600 1.14664 
-1.88302 2.53700 1.16548 
-1.80249 2.51700 1.15629 
-1.77668 2.52700 1.16088 
-1.74490 2.54800 1.17053 
-1.72572 2.55900 1.17558 
-1.69224 2.56900 1.18018 
-1.54417 2.62500 1.20590 
-1.53505 2.71800 1.24862 
-1.38220 2.76700 1.27114 
-1.08021 2.96900 1.36393 
-1.05121 3.04200 1.39747 
-1.00488 3.12000 1.43330 
-0.99874 3.15200 1.44800 
-0.76726 3.28800 1.51048 
-0.63856 3.20200 1.47097 
-0.40688 3.28800 1.51048 
-0.27378 3.23600 1.48659 
-0.13168 3.07300 1.41171 
-0.01961 3.10400 1.42595 
0.07362 3.28800 1.51048 
0.13956 3.04200 1.39747 
0.21315 3.07300 1.41171 
0.33765 2.96900 1.36393 
0.34365 2.95400 1.35704 
0.61676 3.16900 1.45581 
0.89094 3.53500 1.62395 
1.01883 3.18500 1.46316 
1.28171 3.21900 1.47878 
1.42509 3.05800 1.40482 
1.64293 3.21900 1.47878 
1.74242 3.02700 1.39058 
1.92444 3.10400 1.42595 
2.25366 3.37900 1.55228 
2.54919 3.49400 1.60511 
2.56743 3.49400 1.60511 
2.60120 3.51500 1.61476 
-1.95029 2.49600 1.14013 
-1.91121 2.49600 1.14013 
-1.82876 2.51700 1.14972 
-1.71295 2.58000 1.17850 
-1.67929 2.58000 1.17850 
-1.54974 2.67000 1.21961 
-1.52086 2.71800 1.24153 
-1.47770 2.73000 1.24701 
-1.43275 2.76700 1.26391 
-1.42552 2.76700 1.26391 
-1.33791 2.78000 1.26985 
-1.23282 2.80500 1.28127 
-1.04870 3.01200 1.37583 
-1.02481 3.05800 1.39684 
-0.97595 3.18500 1.45485 
-0.84356 3.21900 1.47038 
-0.82268 3.23600 1.47814 
-0.80573 3.27000 1.49368 
-0.74558 3.30600 1.51012 
-0.51822 3.34200 1.52656 
-0.34194 3.32400 1.51834 
-0.21354 3.21900 1.47038 
-0.01991 3.15200 1.43978 
0.03088 3.30600 1.51012 
0.07321 3.27000 1.49368 
0.28010 3.10400 1.41785 
0.29989 3.05800 1.39684 
0.30626 3.04200 1.38953 
0.31748 2.99800 1.36943 
0.33765 2.96900 1.35618 
0.40930 2.98300 1.36258 
0.92876 3.43600 1.56950 
0.95568 3.34200 1.52656 
0.98313 3.28800 1.50190 
1.02472 3.15200 1.43978 
1.11442 3.10400 1.41785 
1.58406 3.15200 1.43978 
1.68575 3.25300 1.48591 
1.74194 3.18500 1.45485 
2.36748 3.41600 1.56037 
2.69300 3.57600 1.63345 
3.42883 4.21700 1.92625 
3.44405 4.10400 1.87463 
-1.85581 2.52700 1.14769 
-1.78094 2.49600 1.13361 
-1.77668 2.52700 1.14769 
-1.73908 2.55900 1.16223 
-1.67929 2.58000 1.17176 
-1.63861 2.56900 1.16677 
-1.55780 2.60200 1.18176 
-1.55064 2.63600 1.19720 
-1.51377 2.71800 1.23444 
-1.49958 2.71800 1.23444 
-1.47770 2.73000 1.23989 
-1.39595 2.78000 1.26260 
-1.35968 2.78000 1.26260 
-1.24168 2.79200 1.26805 
-1.23440 2.79200 1.26805 
-1.23118 2.81800 1.27986 
-1.21688 2.87100 1.30393 
-1.19270 2.88500 1.31029 
-1.03533 3.04200 1.38159 
-0.97105 3.16900 1.43927 
-0.95932 3.18500 1.44654 
-0.91777 3.18500 1.44654 
-0.90114 3.18500 1.44654 
-0.85196 3.21900 1.46198 
-0.75420 3.30600 1.50149 
-0.41579 3.36000 1.52602 
-0.34565 3.36000 1.52602 
-0.30891 3.34200 1.51784 
-0.24386 3.28800 1.49332 
-0.17994 3.21900 1.46198 
0.03951 3.30600 1.50149 
0.15390 3.01200 1.36797 
0.36090 2.96900 1.34844 
1.31673 3.20200 1.45426 
1.38588 3.04200 1.38159 
1.70574 3.10400 1.40975 
2.17430 3.37900 1.53465 
2.39927 3.43600 1.56053 
2.53095 3.49400 1.58688 
2.69300 3.57600 1.62412 
2.86827 3.70600 1.68316 
3.31659 4.13200 1.87664 
3.40607 4.18900 1.90253 
3.42442 4.13200 1.87664 
3.41987 4.05000 1.83940 
-1.80048 2.49600 1.12710 
-1.65909 2.58000 1.16503 
-1.55724 2.65900 1.20070 
-1.55030 2.65900 1.20070 
-1.54974 2.67000 1.20567 
-1.48540 2.71800 1.22735 
-1.29555 2.76700 1.24947 
-1.25811 2.78000 1.25534 
-1.25085 2.78000 1.25534 
-1.20939 2.87100 1.29644 
-1.09268 2.94000 1.32759 
-1.06195 2.98300 1.34701 
-1.00578 3.07300 1.38765 
-0.93439 3.18500 1.43823 
