ply
format ascii 1.0
comment pointcloud saved from Realsense Viewer
element vertex 1843
property float32 x
property float32 y
property float32 z
end_header
-0.659307 -1.06125 -2.159 
-0.650292 -1.06125 -2.159 
-0.645139 -1.06764 -2.172 
-0.63607 -1.06764 -2.172 
-0.630465 -1.07354 -2.184 
-0.625045 -1.07993 -2.197 
-0.615872 -1.07993 -2.197 
-0.610012 -1.08583 -2.209 
-0.604324 -1.09222 -2.222 
-0.598528 -1.09861 -2.235 
-0.596314 -1.11188 -2.262 
-0.590242 -1.11827 -2.275 
-0.584317 -1.12515 -2.289 
-0.578024 -1.13154 -2.302 
-0.571869 -1.13842 -2.316 
-0.56584 -1.1458 -2.331 
-0.562787 -1.15956 -2.359 
-0.552938 -1.15956 -2.359 
-0.546541 -1.16693 -2.374 
-0.536629 -1.16693 -2.374 
-0.530045 -1.1743 -2.389 
-0.52007 -1.1743 -2.389 
-0.513298 -1.18168 -2.404 
-0.50326 -1.18168 -2.404 
-0.4963 -1.18905 -2.419 
-0.4862 -1.18905 -2.419 
-0.4761 -1.18905 -2.419 
-0.468889 -1.19642 -2.434 
-0.458726 -1.19642 -2.434 
-0.451512 -1.20429 -2.45 
-0.441283 -1.20429 -2.45 
-0.433868 -1.21215 -2.466 
-0.42632 -1.22002 -2.482 
-0.418638 -1.22788 -2.498 
-0.410986 -1.23624 -2.515 
-0.400485 -1.23624 -2.515 
-0.392465 -1.2441 -2.531 
-0.384462 -1.25246 -2.548 
-0.373823 -1.25246 -2.548 
-0.365608 -1.26082 -2.565 
-0.354898 -1.26082 -2.565 
-0.346469 -1.26917 -2.582 
-0.338029 -1.27802 -2.6 
-0.327173 -1.27802 -2.6 
-0.316317 -1.27802 -2.6 
-0.305461 -1.27802 -2.6 
-0.294605 -1.27802 -2.6 
-0.285713 -1.28687 -2.618 
-0.274782 -1.28687 -2.618 
-0.265665 -1.29572 -2.636 
-0.254659 -1.29572 -2.636 
-0.243653 -1.29572 -2.636 
-0.232647 -1.29572 -2.636 
-0.223154 -1.30456 -2.654 
-0.212072 -1.30456 -2.654 
-0.20243 -1.3139 -2.673 
-0.192629 -1.32324 -2.692 
-0.181389 -1.32324 -2.692 
-0.17135 -1.33258 -2.711 
-0.16003 -1.33258 -2.711 
-0.149753 -1.34192 -2.73 
-0.138354 -1.34192 -2.73 
-0.127886 -1.35175 -2.75 
-0.116403 -1.35175 -2.75 
-0.104921 -1.35175 -2.75 
-0.0934389 -1.35175 -2.75 
-0.0819567 -1.35175 -2.75 
-0.0704745 -1.35175 -2.75 
-0.0589922 -1.35175 -2.75 
-0.04751 -1.35175 -2.75 
-0.0357657 -1.34192 -2.73 
-0.024367 -1.34192 -2.73 
-0.0129683 -1.34192 -2.73 
-0.00155863 -1.33258 -2.711 
0.00969236 -1.32324 -2.692 
0.0207847 -1.3139 -2.673 
0.0317183 -1.30456 -2.654 
0.0425095 -1.29572 -2.636 
0.0527848 -1.27802 -2.6 
0.0627841 -1.26082 -2.565 
0.0720612 -1.23624 -2.515 
0.0809537 -1.21215 -2.466 
0.0889559 -1.18168 -2.404 
0.0965639 -1.15268 -2.345 
0.104405 -1.13154 -2.302 
0.111342 -1.105 -2.248 
0.118634 -1.08583 -2.209 
0.124963 -1.06125 -2.159 
0.131744 -1.04355 -2.123 
0.138356 -1.02684 -2.089 
0.145459 -1.01554 -2.066 
0.152445 -1.00472 -2.044 
0.159246 -0.993907 -2.022 
0.165118 -0.978669 -1.991 
0.171602 -0.968347 -1.97 
0.177089 -0.9536 -1.94 
0.183375 -0.944261 -1.921 
0.189503 -0.934922 -1.902 
0.195472 -0.925582 -1.883 
0.201283 -0.916243 -1.864 
0.207047 -0.907395 -1.846 
0.21173 -0.894615 -1.82 
0.21728 -0.886259 -1.803 
0.222689 -0.877902 -1.786 
0.229115 -0.87397 -1.778 
0.235342 -0.869546 -1.769 
0.24163 -0.865614 -1.761 
0.246721 -0.857749 -1.745 
0.252842 -0.853817 -1.737 
0.258897 -0.849884 -1.729 
0.265039 -0.846443 -1.722 
0.270964 -0.842511 -1.714 
0.276822 -0.838579 -1.706 
0.282781 -0.835138 -1.699 
0.287315 -0.827765 -1.684 
0.292948 -0.823832 -1.676 
0.297441 -0.816951 -1.662 
0.303098 -0.81351 -1.655 
0.30851 -0.809577 -1.647 
0.314046 -0.806136 -1.64 
0.320894 -0.806136 -1.64 
0.326342 -0.802696 -1.633 
0.333161 -0.802696 -1.633 
0.338522 -0.799255 -1.626 
0.345311 -0.799255 -1.626 
0.3521 -0.799255 -1.626 
0.357565 -0.796306 -1.62 
0.364329 -0.796306 -1.62 
0.371093 -0.796306 -1.62 
0.377857 -0.796306 -1.62 
0.386046 -0.799255 -1.626 
0.396217 -0.806136 -1.64 
0.406751 -0.81351 -1.655 
0.42091 -0.827765 -1.684 
0.435565 -0.842511 -1.714 
0.452795 -0.861681 -1.753 
0.470876 -0.881835 -1.794 
0.492232 -0.907395 -1.846 
0.512398 -0.930006 -1.892 
0.533497 -0.9536 -1.94 
0.552765 -0.973262 -1.98 
0.572932 -0.993907 -2.022 
0.597189 -1.02094 -2.077 
0.62278 -1.04945 -2.135 
0.650038 -1.07993 -2.197 
0.670614 -1.09861 -2.235 
0.696374 -1.12515 -2.289 
0.727519 -1.15956 -2.359 
0.765813 -1.20429 -2.45 
0.807085 -1.25246 -2.548 
0.828635 -1.26917 -2.582 
0.85112 -1.28687 -2.618 
0.867978 -1.29572 -2.636 
0.884986 -1.30456 -2.654 
0.902483 -1.3139 -2.673 
0.913643 -1.3139 -2.673 
0.924804 -1.3139 -2.673 
0.942618 -1.32324 -2.692 
0.953858 -1.32324 -2.692 
0.965098 -1.32324 -2.692 
0.976338 -1.32324 -2.692 
0.987578 -1.32324 -2.692 
0.998818 -1.32324 -2.692 
1.01006 -1.32324 -2.692 
1.0213 -1.32324 -2.692 
1.03254 -1.32324 -2.692 
1.04378 -1.32324 -2.692 
1.05502 -1.32324 -2.692 
1.06626 -1.32324 -2.692 
1.0775 -1.32324 -2.692 
1.08874 -1.32324 -2.692 
1.10774 -1.33258 -2.711 
1.11122 -1.32324 -2.692 
1.12246 -1.32324 -2.692 
1.1337 -1.32324 -2.692 
1.14494 -1.32324 -2.692 
1.14802 -1.3139 -2.673 
1.15094 -1.30456 -2.654 
1.16202 -1.30456 -2.654 
1.16515 -1.29572 -2.636 
1.16812 -1.28687 -2.618 
1.17905 -1.28687 -2.618 
1.1818 -1.27802 -2.6 
1.1844 -1.26917 -2.582 
1.18731 -1.26082 -2.565 
1.19008 -1.25246 -2.548 
1.20072 -1.25246 -2.548 
1.20328 -1.2441 -2.531 
1.20617 -1.23624 -2.515 
1.20845 -1.22788 -2.498 
1.21107 -1.22002 -2.482 
1.22144 -1.22002 -2.482 
1.22386 -1.21215 -2.466 
1.23415 -1.21215 -2.466 
1.24445 -1.21215 -2.466 
1.25475 -1.21215 -2.466 
1.27325 -1.22002 -2.482 
1.28361 -1.22002 -2.482 
1.30232 -1.22788 -2.498 
1.31275 -1.22788 -2.498 
1.32318 -1.22788 -2.498 
1.34269 -1.23624 -2.515 
1.35319 -1.23624 -2.515 
1.37236 -1.2441 -2.531 
1.39222 -1.25246 -2.548 
1.40286 -1.25246 -2.548 
1.4135 -1.25246 -2.548 
1.42414 -1.25246 -2.548 
1.43477 -1.25246 -2.548 
1.44541 -1.25246 -2.548 
1.44634 -1.2441 -2.531 
1.46669 -1.25246 -2.548 
1.46747 -1.2441 -2.531 
1.47804 -1.2441 -2.531 
1.49861 -1.25246 -2.548 
1.50925 -1.25246 -2.548 
1.51989 -1.25246 -2.548 
1.52031 -1.2441 -2.531 
1.54116 -1.25246 -2.548 
1.56216 -1.26082 -2.565 
1.59433 -1.27802 -2.6 
1.62741 -1.29572 -2.636 
1.66141 -1.3139 -2.673 
1.69635 -1.33258 -2.711 
1.71964 -1.34192 -2.73 
1.7564 -1.36158 -2.77 
1.8069 -1.39157 -2.831 
1.83221 -1.40189 -2.852 
1.85834 -1.4127 -2.874 
1.87034 -1.4127 -2.874 
1.88234 -1.4127 -2.874 
1.89434 -1.4127 -2.874 
1.90634 -1.4127 -2.874 
1.91834 -1.4127 -2.874 
1.91557 -1.40189 -2.852 
1.92748 -1.40189 -2.852 
1.93938 -1.40189 -2.852 
1.95129 -1.40189 -2.852 
1.9632 -1.40189 -2.852 
1.97511 -1.40189 -2.852 
2.00234 -1.4127 -2.874 
2.01434 -1.4127 -2.874 
2.02634 -1.4127 -2.874 
2.03834 -1.4127 -2.874 
2.06533 -1.42303 -2.895 
2.07741 -1.42303 -2.895 
2.0895 -1.42303 -2.895 
2.10159 -1.42303 -2.895 
2.11368 -1.42303 -2.895 
2.12576 -1.42303 -2.895 
2.13785 -1.42303 -2.895 
2.14994 -1.42303 -2.895 
2.16203 -1.42303 -2.895 
2.17411 -1.42303 -2.895 
2.1862 -1.42303 -2.895 
2.21575 -1.43433 -2.918 
2.22794 -1.43433 -2.918 
2.24012 -1.43433 -2.918 
2.25231 -1.43433 -2.918 
2.26449 -1.43433 -2.918 
2.27667 -1.43433 -2.918 
2.28886 -1.43433 -2.918 
2.30104 -1.43433 -2.918 
2.31322 -1.43433 -2.918 
2.32541 -1.43433 -2.918 
2.33759 -1.43433 -2.918 
2.36749 -1.44515 -2.94 
2.37977 -1.44515 -2.94 
2.37414 -1.43433 -2.918 
2.38633 -1.43433 -2.918 
2.39851 -1.43433 -2.918 
2.41069 -1.43433 -2.918 
2.42288 -1.43433 -2.918 
2.43506 -1.43433 -2.918 
2.44725 -1.43433 -2.918 
2.47797 -1.44515 -2.94 
2.49025 -1.44515 -2.94 
2.50252 -1.44515 -2.94 
2.5148 -1.44515 -2.94 
2.52707 -1.44515 -2.94 
2.55921 -1.45645 -2.963 
2.57159 -1.45645 -2.963 
2.58396 -1.45645 -2.963 
2.59633 -1.45645 -2.963 
2.6087 -1.45645 -2.963 
2.64142 -1.46776 -2.986 
2.65389 -1.46776 -2.986 
2.66635 -1.46776 -2.986 
2.67882 -1.46776 -2.986 
2.69129 -1.46776 -2.986 
2.70376 -1.46776 -2.986 
2.71622 -1.46776 -2.986 
2.70767 -1.45645 -2.963 
2.72005 -1.45645 -2.963 
2.73242 -1.45645 -2.963 
2.74479 -1.45645 -2.963 
2.75716 -1.45645 -2.963 
2.76953 -1.45645 -2.963 
2.7819 -1.45645 -2.963 
2.79427 -1.45645 -2.963 
2.80665 -1.45645 -2.963 
2.81902 -1.45645 -2.963 
2.85337 -1.46776 -2.986 
2.86584 -1.46776 -2.986 
2.8783 -1.46776 -2.986 
2.89077 -1.46776 -2.986 
2.90324 -1.46776 -2.986 
2.91571 -1.46776 -2.986 
2.92817 -1.46776 -2.986 
2.94064 -1.46776 -2.986 
2.95311 -1.46776 -2.986 
2.98842 -1.47906 -3.009 
3.00098 -1.47906 -3.009 
3.01355 -1.47906 -3.009 
3.02611 -1.47906 -3.009 
3.03867 -1.47906 -3.009 
-1.24378 -0.664763 -1.341 
-1.23818 -0.664763 -1.341 
-1.23259 -0.664763 -1.341 
-1.23156 -0.667242 -1.346 
-1.22594 -0.667242 -1.346 
-1.22485 -0.66972 -1.351 
-1.21921 -0.66972 -1.351 
-1.21717 -0.671703 -1.355 
-1.21598 -0.674182 -1.36 
-1.2103 -0.674182 -1.36 
-1.20905 -0.67666 -1.365 
-1.20776 -0.679139 -1.37 
-1.20643 -0.681618 -1.375 
-1.20505 -0.684096 -1.38 
-1.19929 -0.684096 -1.38 
-1.19785 -0.686575 -1.385 
-1.19637 -0.689054 -1.39 
-1.19485 -0.691532 -1.395 
-1.18903 -0.691532 -1.395 
-1.18744 -0.694011 -1.4 
-1.18582 -0.696489 -1.405 
-1.17995 -0.696489 -1.405 
-1.17826 -0.698968 -1.41 
-1.17237 -0.698968 -1.41 
-1.17145 -0.701942 -1.416 
-1.16965 -0.704421 -1.421 
-1.16782 -0.7069 -1.426 
-1.16594 -0.709378 -1.431 
-1.16482 -0.712352 -1.437 
-1.15882 -0.712352 -1.437 
-1.15684 -0.714831 -1.442 
-1.15959 -0.720284 -1.453 
-1.15353 -0.720284 -1.453 
-1.1522 -0.723258 -1.459 
-1.15003 -0.725737 -1.464 
-1.14392 -0.725737 -1.464 
-1.14247 -0.728711 -1.47 
-1.14097 -0.731686 -1.476 
-1.13481 -0.731686 -1.476 
-1.13247 -0.734164 -1.481 
-1.13085 -0.737139 -1.487 
-1.12464 -0.737139 -1.487 
-1.12294 -0.740113 -1.493 
-1.11671 -0.740113 -1.493 
-1.11048 -0.740113 -1.493 
-1.10868 -0.743087 -1.499 
-1.10683 -0.746062 -1.505 
-1.10055 -0.746062 -1.505 
-1.09427 -0.746062 -1.505 
-1.09232 -0.749036 -1.511 
-1.09032 -0.75201 -1.517 
-1.08828 -0.754985 -1.523 
-1.08618 -0.757959 -1.529 
-1.08403 -0.760933 -1.535 
-1.08184 -0.763908 -1.541 
-1.07959 -0.766882 -1.547 
-1.07799 -0.770352 -1.554 
-1.07563 -0.773326 -1.56 
-1.07323 -0.776301 -1.566 
-1.07146 -0.779771 -1.573 
-1.06489 -0.779771 -1.573 
-1.06236 -0.782745 -1.579 
-1.06045 -0.786215 -1.586 
-1.05848 -0.789685 -1.593 
-1.05183 -0.789685 -1.593 
-1.04911 -0.792659 -1.599 
-1.047 -0.79613 -1.606 
-1.0403 -0.79613 -1.606 
-1.03809 -0.7996 -1.613 
-1.03584 -0.80307 -1.62 
-1.03288 -0.806044 -1.626 
-1.03051 -0.809514 -1.633 
-1.02808 -0.812984 -1.64 
-1.02123 -0.812984 -1.64 
-1.01872 -0.816454 -1.647 
-1.01675 -0.82042 -1.655 
-1.01411 -0.82389 -1.662 
-1.01142 -0.82736 -1.669 
-1.00866 -0.83083 -1.676 
-1.00166 -0.83083 -1.676 
-0.999413 -0.834796 -1.684 
-0.992382 -0.834796 -1.684 
-0.989446 -0.838266 -1.691 
-0.982386 -0.838266 -1.691 
-0.97994 -0.842232 -1.699 
-0.976854 -0.845702 -1.706 
-0.969731 -0.845702 -1.706 
-0.967121 -0.849667 -1.714 
-0.964445 -0.853633 -1.722 
-0.961147 -0.857103 -1.729 
-0.953928 -0.857103 -1.729 
-0.955469 -0.865035 -1.745 
-0.948183 -0.865035 -1.745 
-0.945211 -0.869001 -1.753 
-0.942172 -0.872966 -1.761 
-0.934819 -0.872966 -1.761 
-0.931679 -0.876932 -1.769 
-0.928995 -0.881394 -1.778 
-0.925718 -0.88536 -1.786 
-0.922374 -0.889325 -1.794 
-0.919473 -0.893787 -1.803 
-0.915992 -0.897753 -1.811 
-0.912944 -0.902214 -1.82 
-0.905345 -0.902214 -1.82 
-0.902186 -0.906676 -1.829 
-0.898951 -0.911137 -1.838 
-0.895156 -0.915103 -1.846 
-0.891775 -0.919564 -1.855 
-0.888318 -0.924026 -1.864 
-0.88526 -0.928983 -1.874 
-0.877435 -0.928983 -1.874 
-0.873787 -0.933444 -1.883 
-0.874662 -0.942863 -1.902 
-0.870822 -0.947325 -1.911 
-0.867358 -0.952282 -1.921 
-0.863363 -0.956743 -1.93 
-0.859736 -0.961701 -1.94 
-0.856026 -0.966658 -1.95 
-0.852232 -0.971615 -1.96 
-0.848354 -0.976572 -1.97 
-0.844394 -0.98153 -1.98 
-0.840771 -0.986982 -1.991 
-0.832458 -0.986982 -1.991 
-0.828285 -0.99194 -2.001 
-0.824437 -0.997393 -2.012 
-0.816036 -0.997393 -2.012 
-0.807635 -0.997393 -2.012 
-0.803207 -1.00235 -2.022 
-0.794764 -1.00235 -2.022 
-0.786322 -1.00235 -2.022 
-0.782111 -1.0078 -2.033 
-0.773623 -1.0078 -2.033 
-0.769274 -1.01326 -2.044 
-0.76074 -1.01326 -2.044 
-0.756253 -1.01871 -2.055 
-0.747673 -1.01871 -2.055 
-0.743049 -1.02416 -2.066 
-0.734422 -1.02416 -2.066 
-0.729661 -1.02961 -2.077 
-0.725154 -1.03556 -2.089 
-0.720204 -1.04102 -2.1 
-0.711436 -1.04102 -2.1 
-0.706683 -1.04696 -2.112 
-0.697864 -1.04696 -2.112 
-0.692635 -1.05242 -2.123 
-0.68377 -1.05242 -2.123 
-0.678721 -1.05837 -2.135 
-0.673571 -1.06432 -2.147 
-0.664607 -1.06432 -2.147 
-0.659307 -1.07026 -2.159 
-0.650292 -1.07026 -2.159 
-0.645139 -1.07671 -2.172 
-0.63607 -1.07671 -2.172 
-0.630465 -1.08266 -2.184 
-0.625045 -1.0891 -2.197 
-0.615872 -1.0891 -2.197 
-0.610012 -1.09505 -2.209 
-0.604324 -1.10149 -2.222 
-0.598528 -1.10794 -2.235 
-0.596314 -1.12132 -2.262 
-0.590242 -1.12777 -2.275 
-0.584317 -1.13471 -2.289 
-0.578024 -1.14115 -2.302 
-0.571869 -1.14809 -2.316 
-0.56584 -1.15553 -2.331 
-0.559447 -1.16247 -2.345 
-0.552938 -1.16941 -2.359 
-0.546541 -1.17684 -2.374 
-0.536629 -1.17684 -2.374 
-0.530045 -1.18428 -2.389 
-0.52007 -1.18428 -2.389 
-0.513298 -1.19172 -2.404 
-0.50326 -1.19172 -2.404 
-0.493223 -1.19172 -2.404 
-0.4862 -1.19915 -2.419 
-0.4761 -1.19915 -2.419 
-0.468889 -1.20659 -2.434 
-0.458726 -1.20659 -2.434 
-0.451512 -1.21452 -2.45 
-0.441283 -1.21452 -2.45 
-0.433868 -1.22245 -2.466 
-0.42632 -1.23038 -2.482 
-0.418638 -1.23831 -2.498 
-0.410986 -1.24674 -2.515 
-0.400485 -1.24674 -2.515 
-0.392465 -1.25467 -2.531 
-0.384462 -1.2631 -2.548 
-0.373823 -1.2631 -2.548 
-0.363185 -1.2631 -2.548 
-0.354898 -1.27153 -2.565 
-0.344188 -1.27153 -2.565 
-0.333478 -1.27153 -2.565 
-0.324908 -1.27995 -2.582 
-0.314127 -1.27995 -2.582 
-0.303346 -1.27995 -2.582 
-0.292565 -1.27995 -2.582 
-0.281785 -1.27995 -2.582 
-0.272893 -1.28888 -2.6 
-0.262037 -1.28888 -2.6 
-0.25292 -1.2978 -2.618 
-0.241989 -1.2978 -2.618 
-0.231058 -1.2978 -2.618 
-0.220127 -1.2978 -2.618 
-0.210634 -1.30672 -2.636 
-0.199628 -1.30672 -2.636 
-0.18991 -1.31565 -2.654 
-0.178828 -1.31565 -2.654 
-0.168948 -1.32506 -2.673 
-0.158909 -1.33448 -2.692 
-0.147669 -1.33448 -2.692 
-0.137391 -1.3439 -2.711 
-0.126072 -1.3439 -2.711 
-0.114753 -1.3439 -2.711 
-0.103433 -1.3439 -2.711 
-0.0921138 -1.3439 -2.711 
-0.0807944 -1.3439 -2.711 
-0.0699619 -1.35332 -2.73 
-0.0585632 -1.35332 -2.73 
-0.0468362 -1.3439 -2.711 
-0.0355168 -1.3439 -2.711 
-0.0240278 -1.33448 -2.692 
-0.0127878 -1.33448 -2.692 
-0.00153678 -1.32506 -2.673 
0.00962395 -1.32506 -2.673 
0.0206369 -1.31565 -2.654 
0.0315032 -1.30672 -2.636 
0.0422192 -1.2978 -2.618 
0.0527848 -1.28888 -2.6 
0.0632002 -1.27995 -2.582 
0.0730068 -1.2631 -2.548 
0.0825623 -1.24674 -2.515 
0.0918422 -1.23038 -2.482 
0.100888 -1.21452 -2.45 
0.108351 -1.18428 -2.389 
0.11684 -1.16941 -2.359 
0.123628 -1.14115 -2.302 
0.130925 -1.12132 -2.262 
0.137887 -1.10149 -2.222 
0.145509 -1.0891 -2.197 
0.152922 -1.07671 -2.172 
0.160127 -1.06432 -2.147 
0.166335 -1.04696 -2.112 
0.173245 -1.03556 -2.089 
0.179964 -1.02416 -2.066 
0.185578 -1.0078 -2.033 
0.191012 -0.99194 -2.001 
0.197275 -0.98153 -1.98 
0.203466 -0.971615 -1.96 
0.20841 -0.956743 -1.93 
0.214337 -0.947325 -1.911 
0.221269 -0.942863 -1.902 
0.225837 -0.928983 -1.874 
0.231292 -0.919564 -1.855 
0.236847 -0.911137 -1.838 
0.243324 -0.906676 -1.829 
0.248491 -0.897753 -1.811 
0.253649 -0.889325 -1.794 
0.25881 -0.881394 -1.778 
0.263689 -0.872966 -1.761 
0.268579 -0.865035 -1.745 
0.2746 -0.861069 -1.737 
0.280555 -0.857103 -1.729 
0.285277 -0.849667 -1.714 
0.289874 -0.842232 -1.699 
0.294347 -0.834796 -1.684 
0.298693 -0.82736 -1.669 
0.30438 -0.82389 -1.662 
0.310008 -0.82042 -1.655 
0.315387 -0.816454 -1.647 
0.320894 -0.812984 -1.64 
0.326342 -0.809514 -1.633 
0.333161 -0.809514 -1.633 
0.338522 -0.806044 -1.626 
0.344037 -0.80307 -1.62 
0.350801 -0.80307 -1.62 
0.357565 -0.80307 -1.62 
0.364329 -0.80307 -1.62 
0.371093 -0.80307 -1.62 
0.379257 -0.806044 -1.626 
0.386046 -0.806044 -1.626 
0.397908 -0.816454 -1.647 
0.410192 -0.82736 -1.669 
0.426409 -0.845702 -1.706 
0.445476 -0.869001 -1.753 
0.463385 -0.889325 -1.794 
0.486887 -0.919564 -1.855 
0.509564 -0.947325 -1.911 
0.530814 -0.971615 -1.96 
0.553297 -0.997393 -2.012 
0.570632 -1.01326 -2.044 
0.595034 -1.04102 -2.1 
0.617316 -1.06432 -2.147 
0.640865 -1.0891 -2.197 
0.66927 -1.12132 -2.262 
0.690717 -1.14115 -2.302 
0.71341 -1.16247 -2.345 
0.741397 -1.19172 -2.404 
0.770815 -1.22245 -2.466 
0.807085 -1.2631 -2.548 
0.828635 -1.27995 -2.582 
0.845268 -1.28888 -2.6 
0.862051 -1.2978 -2.618 
0.878984 -1.30672 -2.636 
0.88999 -1.30672 -2.636 
0.907149 -1.31565 -2.654 
0.91823 -1.31565 -2.654 
0.929312 -1.31565 -2.654 
0.940393 -1.31565 -2.654 
0.951474 -1.31565 -2.654 
0.962556 -1.31565 -2.654 
0.973637 -1.31565 -2.654 
0.984719 -1.31565 -2.654 
0.9958 -1.31565 -2.654 
1.00688 -1.31565 -2.654 
1.01796 -1.31565 -2.654 
1.02904 -1.31565 -2.654 
1.04757 -1.32506 -2.673 
1.05873 -1.32506 -2.673 
1.06989 -1.32506 -2.673 
1.08105 -1.32506 -2.673 
1.09998 -1.33448 -2.692 
1.10338 -1.32506 -2.673 
1.11454 -1.32506 -2.673 
1.1337 -1.33448 -2.692 
1.13686 -1.32506 -2.673 
1.14802 -1.32506 -2.673 
1.15094 -1.31565 -2.654 
1.16202 -1.31565 -2.654 
1.16515 -1.30672 -2.636 
1.16812 -1.2978 -2.618 
1.17905 -1.2978 -2.618 
1.1818 -1.28888 -2.6 
1.1844 -1.27995 -2.582 
1.18731 -1.27153 -2.565 
1.19008 -1.2631 -2.548 
1.19271 -1.25467 -2.531 
1.20328 -1.25467 -2.531 
1.20617 -1.24674 -2.515 
1.20845 -1.23831 -2.498 
1.21107 -1.23038 -2.482 
1.22144 -1.23038 -2.482 
1.22386 -1.22245 -2.466 
1.23415 -1.22245 -2.466 
1.25252 -1.23038 -2.482 
1.26289 -1.23038 -2.482 
1.27325 -1.23038 -2.482 
1.28361 -1.23038 -2.482 
1.30232 -1.23831 -2.498 
1.31275 -1.23831 -2.498 
1.32318 -1.23831 -2.498 
1.34269 -1.24674 -2.515 
1.35319 -1.24674 -2.515 
1.37236 -1.25467 -2.531 
1.38293 -1.25467 -2.531 
1.3935 -1.25467 -2.531 
1.4135 -1.2631 -2.548 
1.41463 -1.25467 -2.531 
1.4252 -1.25467 -2.531 
1.43577 -1.25467 -2.531 
1.44634 -1.25467 -2.531 
1.46669 -1.2631 -2.548 
1.46747 -1.25467 -2.531 
1.4687 -1.24674 -2.515 
1.48861 -1.25467 -2.531 
1.49918 -1.25467 -2.531 
1.50974 -1.25467 -2.531 
1.52031 -1.25467 -2.531 
1.53088 -1.25467 -2.531 
1.56216 -1.27153 -2.565 
1.59433 -1.28888 -2.6 
1.6163 -1.2978 -2.618 
1.6496 -1.31565 -2.654 
1.68446 -1.33448 -2.692 
1.71964 -1.35332 -2.73 
1.7564 -1.37315 -2.77 
1.7935 -1.39298 -2.81 
1.83221 -1.4138 -2.852 
1.84412 -1.4138 -2.852 
1.87034 -1.4247 -2.874 
1.86794 -1.4138 -2.852 
1.87984 -1.4138 -2.852 
1.89175 -1.4138 -2.852 
1.90366 -1.4138 -2.852 
1.91557 -1.4138 -2.852 
1.92748 -1.4138 -2.852 
1.93938 -1.4138 -2.852 
1.95129 -1.4138 -2.852 
1.9632 -1.4138 -2.852 
1.97511 -1.4138 -2.852 
1.98702 -1.4138 -2.852 
1.99892 -1.4138 -2.852 
2.01083 -1.4138 -2.852 
2.02274 -1.4138 -2.852 
2.05034 -1.4247 -2.874 
2.06234 -1.4247 -2.874 
2.07434 -1.4247 -2.874 
2.10159 -1.43512 -2.895 
2.11368 -1.43512 -2.895 
2.12576 -1.43512 -2.895 
2.13785 -1.43512 -2.895 
2.14994 -1.43512 -2.895 
2.16203 -1.43512 -2.895 
2.17411 -1.43512 -2.895 
2.1862 -1.43512 -2.895 
2.19829 -1.43512 -2.895 
2.21038 -1.43512 -2.895 
2.22247 -1.43512 -2.895 
2.23455 -1.43512 -2.895 
2.24664 -1.43512 -2.895 
2.27667 -1.44652 -2.918 
2.28886 -1.44652 -2.918 
2.30104 -1.44652 -2.918 
2.31322 -1.44652 -2.918 
2.32541 -1.44652 -2.918 
2.33759 -1.44652 -2.918 
2.34978 -1.44652 -2.918 
2.36196 -1.44652 -2.918 
2.37414 -1.44652 -2.918 
2.38633 -1.44652 -2.918 
2.39851 -1.44652 -2.918 
2.41069 -1.44652 -2.918 
2.42288 -1.44652 -2.918 
2.43506 -1.44652 -2.918 
2.44725 -1.44652 -2.918 
2.45943 -1.44652 -2.918 
2.47161 -1.44652 -2.918 
2.4838 -1.44652 -2.918 
2.49598 -1.44652 -2.918 
2.50816 -1.44652 -2.918 
2.53935 -1.45742 -2.94 
2.55162 -1.45742 -2.94 
2.5639 -1.45742 -2.94 
2.57618 -1.45742 -2.94 
2.58845 -1.45742 -2.94 
2.62107 -1.46882 -2.963 
2.63344 -1.46882 -2.963 
2.64582 -1.46882 -2.963 
2.65819 -1.46882 -2.963 
2.67056 -1.46882 -2.963 
2.6621 -1.45742 -2.94 
2.67438 -1.45742 -2.94 
2.68666 -1.45742 -2.94 
2.69893 -1.45742 -2.94 
2.71121 -1.45742 -2.94 
2.72348 -1.45742 -2.94 
2.73576 -1.45742 -2.94 
2.74803 -1.45742 -2.94 
2.76031 -1.45742 -2.94 
2.77258 -1.45742 -2.94 
2.78486 -1.45742 -2.94 
2.79714 -1.45742 -2.94 
2.80941 -1.45742 -2.94 
2.84376 -1.46882 -2.963 
2.85613 -1.46882 -2.963 
2.8685 -1.46882 -2.963 
2.88088 -1.46882 -2.963 
2.89325 -1.46882 -2.963 
2.90562 -1.46882 -2.963 
2.94064 -1.48023 -2.986 
2.95311 -1.48023 -2.986 
2.96558 -1.48023 -2.986 
2.97804 -1.48023 -2.986 
2.99051 -1.48023 -2.986 
3.00298 -1.48023 -2.986 
3.03867 -1.49163 -3.009 
-1.24378 -0.670362 -1.341 
-1.23818 -0.670362 -1.341 
-1.23259 -0.670362 -1.341 
-1.23156 -0.672862 -1.346 
-1.22594 -0.672862 -1.346 
-1.22485 -0.675361 -1.351 
-1.21921 -0.675361 -1.351 
-1.21717 -0.677361 -1.355 
-1.21151 -0.677361 -1.355 
-1.2103 -0.67986 -1.36 
-1.20905 -0.68236 -1.365 
-1.20776 -0.684859 -1.37 
-1.20643 -0.687359 -1.375 
-1.20505 -0.689858 -1.38 
-1.19929 -0.689858 -1.38 
-1.19785 -0.692358 -1.385 
-1.19637 -0.694857 -1.39 
-1.19057 -0.694857 -1.39 
-1.18903 -0.697357 -1.395 
-1.18744 -0.699856 -1.4 
-1.18582 -0.702356 -1.405 
-1.17995 -0.702356 -1.405 
-1.17826 -0.704855 -1.41 
-1.17237 -0.704855 -1.41 
-1.17145 -0.707855 -1.416 
-1.16965 -0.710354 -1.421 
-1.16782 -0.712854 -1.426 
-1.16594 -0.715353 -1.431 
-1.16482 -0.718352 -1.437 
-1.16286 -0.720852 -1.442 
-1.15684 -0.720852 -1.442 
-1.1556 -0.723851 -1.448 
-1.15353 -0.726351 -1.453 
-1.1522 -0.72935 -1.459 
-1.15003 -0.73185 -1.464 
-1.14392 -0.73185 -1.464 
-1.14247 -0.734849 -1.47 
-1.14097 -0.737849 -1.476 
-1.13481 -0.737849 -1.476 
-1.13247 -0.740348 -1.481 
-1.13085 -0.743347 -1.487 
-1.12464 -0.743347 -1.487 
-1.12294 -0.746347 -1.493 
-1.11671 -0.746347 -1.493 
-1.11048 -0.746347 -1.493 
-1.10868 -0.749346 -1.499 
-1.10683 -0.752346 -1.505 
-1.10055 -0.752346 -1.505 
-1.09427 -0.752346 -1.505 
-1.09232 -0.755345 -1.511 
-1.09032 -0.758344 -1.517 
-1.08828 -0.761344 -1.523 
-1.08618 -0.764343 -1.529 
-1.08403 -0.767342 -1.535 
-1.08605 -0.773341 -1.547 
-1.08447 -0.77684 -1.554 
-1.08215 -0.77984 -1.56 
-1.07977 -0.782839 -1.566 
-1.07323 -0.782839 -1.566 
-1.07146 -0.786339 -1.573 
-1.06896 -0.789338 -1.579 
-1.06236 -0.789338 -1.579 
-1.06045 -0.792837 -1.586 
-1.05848 -0.796336 -1.593 
-1.05183 -0.796336 -1.593 
-1.04911 -0.799336 -1.599 
-1.047 -0.802835 -1.606 
-1.0403 -0.802835 -1.606 
-1.03809 -0.806334 -1.613 
-1.03584 -0.809834 -1.62 
-1.03288 -0.812833 -1.626 
-1.03051 -0.816332 -1.633 
-1.02369 -0.816332 -1.633 
-1.02123 -0.819832 -1.64 
-1.01872 -0.823331 -1.647 
-1.01675 -0.82733 -1.655 
-1.01411 -0.830829 -1.662 
-1.01142 -0.834329 -1.669 
-1.00866 -0.837828 -1.676 
-1.00644 -0.841827 -1.684 
-0.999413 -0.841827 -1.684 
-0.992382 -0.841827 -1.684 
-0.989446 -0.845326 -1.691 
-0.982386 -0.845326 -1.691 
-0.97994 -0.849326 -1.699 
-0.976854 -0.852825 -1.706 
-0.969731 -0.852825 -1.706 
-0.967121 -0.856824 -1.714 
-0.964445 -0.860823 -1.722 
-0.961147 -0.864323 -1.729 
-0.958341 -0.868322 -1.737 
-0.955469 -0.872321 -1.745 
-0.948183 -0.872321 -1.745 
-0.945211 -0.87632 -1.753 
-0.942172 -0.880319 -1.761 
-0.939065 -0.884318 -1.769 
-0.931679 -0.884318 -1.769 
-0.928995 -0.888817 -1.778 
-0.925718 -0.892817 -1.786 
-0.922374 -0.896816 -1.794 
-0.919473 -0.901315 -1.803 
-0.915992 -0.905314 -1.811 
-0.912944 -0.909813 -1.82 
-0.909822 -0.914312 -1.829 
-0.902186 -0.914312 -1.829 
-0.898951 -0.918811 -1.838 
-0.895156 -0.92281 -1.846 
-0.891775 -0.92731 -1.855 
-0.888318 -0.931809 -1.864 
-0.880536 -0.931809 -1.864 
-0.877435 -0.936808 -1.874 
-0.873787 -0.941307 -1.883 
-0.874662 -0.950805 -1.902 
-0.870822 -0.955304 -1.911 
-0.867358 -0.960303 -1.921 
-0.863363 -0.964802 -1.93 
-0.859736 -0.969801 -1.94 
-0.856026 -0.9748 -1.95 
-0.852232 -0.979799 -1.96 
-0.848354 -0.984798 -1.97 
-0.844394 -0.989797 -1.98 
-0.840771 -0.995296 -1.991 
-0.83664 -1.00029 -2.001 
-0.828285 -1.00029 -2.001 
-0.824437 -1.00579 -2.012 
-0.816036 -1.00579 -2.012 
-0.807635 -1.00579 -2.012 
-0.803207 -1.01079 -2.022 
-0.794764 -1.01079 -2.022 
-0.786322 -1.01079 -2.022 
-0.782111 -1.01629 -2.033 
-0.773623 -1.01629 -2.033 
-0.769274 -1.02179 -2.044 
-0.76074 -1.02179 -2.044 
-0.752205 -1.02179 -2.044 
-0.747673 -1.02729 -2.055 
-0.739092 -1.02729 -2.055 
-0.734422 -1.03279 -2.066 
-0.729661 -1.03829 -2.077 
-0.725154 -1.04429 -2.089 
-0.716431 -1.04429 -2.089 
-0.711436 -1.04978 -2.1 
-0.706683 -1.05578 -2.112 
-0.697864 -1.05578 -2.112 
-0.692635 -1.06128 -2.123 
-0.68377 -1.06128 -2.123 
-0.678721 -1.06728 -2.135 
-0.673571 -1.07328 -2.147 
-0.664607 -1.07328 -2.147 
-0.655642 -1.07328 -2.147 
-0.650292 -1.07928 -2.159 
-0.645139 -1.08578 -2.172 
-0.63607 -1.08578 -2.172 
-0.630465 -1.09178 -2.184 
-0.625045 -1.09827 -2.197 
-0.615872 -1.09827 -2.197 
-0.610012 -1.10427 -2.209 
-0.604324 -1.11077 -2.222 
-0.598528 -1.11727 -2.235 
-0.596314 -1.13077 -2.262 
-0.590242 -1.13727 -2.275 
-0.584317 -1.14427 -2.289 
-0.578024 -1.15076 -2.302 
-0.571869 -1.15776 -2.316 
-0.56584 -1.16526 -2.331 
-0.559447 -1.17226 -2.345 
-0.549656 -1.17226 -2.345 
-0.543088 -1.17926 -2.359 
-0.536629 -1.18676 -2.374 
-0.526717 -1.18676 -2.374 
-0.52007 -1.19425 -2.389 
-0.510095 -1.19425 -2.389 
-0.50326 -1.20175 -2.404 
-0.493223 -1.20175 -2.404 
-0.4862 -1.20925 -2.419 
-0.4761 -1.20925 -2.419 
-0.466 -1.20925 -2.419 
-0.458726 -1.21675 -2.434 
-0.451512 -1.22475 -2.45 
-0.441283 -1.22475 -2.45 
-0.433868 -1.23275 -2.466 
-0.42632 -1.24075 -2.482 
-0.418638 -1.24874 -2.498 
-0.408208 -1.24874 -2.498 
-0.400485 -1.25724 -2.515 
-0.392465 -1.26524 -2.531 
-0.381897 -1.26524 -2.531 
-0.373823 -1.27374 -2.548 
-0.363185 -1.27374 -2.548 
-0.352546 -1.27374 -2.548 
-0.341907 -1.27374 -2.548 
-0.331268 -1.27374 -2.548 
-0.320629 -1.27374 -2.548 
-0.312059 -1.28224 -2.565 
-0.301349 -1.28224 -2.565 
-0.290639 -1.28224 -2.565 
-0.279929 -1.28224 -2.565 
-0.26922 -1.28224 -2.565 
-0.260223 -1.29073 -2.582 
-0.249442 -1.29073 -2.582 
-0.238661 -1.29073 -2.582 
-0.229469 -1.29973 -2.6 
-0.218613 -1.29973 -2.6 
-0.209196 -1.30873 -2.618 
-0.198265 -1.30873 -2.618 
-0.188622 -1.31773 -2.636 
-0.177615 -1.31773 -2.636 
-0.166609 -1.31773 -2.636 
-0.156665 -1.32673 -2.654 
-0.145584 -1.32673 -2.654 
-0.135466 -1.33623 -2.673 
-0.124305 -1.33623 -2.673 
-0.113144 -1.33623 -2.673 
-0.102708 -1.34572 -2.692 
-0.0914682 -1.34572 -2.692 
-0.0802281 -1.34572 -2.692 
-0.0689881 -1.34572 -2.692 
-0.057748 -1.34572 -2.692 
-0.046508 -1.34572 -2.692 
-0.035019 -1.33623 -2.673 
-0.0236887 -1.32673 -2.654 
-0.0126073 -1.32673 -2.654 
-0.00151551 -1.31773 -2.636 
0.00949073 -1.31773 -2.636 
0.020357 -1.30873 -2.618 
0.0312881 -1.30873 -2.618 
0.0419289 -1.29973 -2.6 
0.0524194 -1.29073 -2.582 
0.0627841 -1.28224 -2.565 
0.0730068 -1.27374 -2.548 
0.0830875 -1.26524 -2.531 
0.0930633 -1.25724 -2.515 
0.102864 -1.24874 -2.498 
0.111843 -1.23275 -2.466 
0.120554 -1.21675 -2.434 
0.129106 -1.20175 -2.404 
0.136539 -1.17926 -2.359 
0.144651 -1.16526 -2.331 
0.152463 -1.15076 -2.302 
0.160174 -1.13727 -2.275 
0.167659 -1.12377 -2.248 
0.174998 -1.11077 -2.222 
0.181124 -1.09178 -2.184 
0.188065 -1.07928 -2.159 
0.194889 -1.06728 -2.135 
0.200462 -1.04978 -2.1 
0.205843 -1.03279 -2.066 
0.212186 -1.02179 -2.044 
0.218344 -1.01079 -2.022 
0.224432 -1.00029 -2.001 
0.22918 -0.984798 -1.97 
0.234995 -0.9748 -1.95 
0.239521 -0.960303 -1.921 
0.243805 -0.945806 -1.892 
0.250508 -0.941307 -1.883 
0.255763 -0.931809 -1.864 
0.25987 -0.918811 -1.838 
0.264924 -0.909813 -1.82 
0.271175 -0.905314 -1.811 
0.27612 -0.896816 -1.794 
0.282346 -0.892817 -1.786 
0.287045 -0.884318 -1.769 
0.2931 -0.880319 -1.761 
0.299088 -0.87632 -1.753 
0.30361 -0.868322 -1.737 
0.309431 -0.864323 -1.729 
0.313903 -0.856824 -1.714 
0.31825 -0.849326 -1.699 
0.322472 -0.841827 -1.684 
0.327938 -0.837828 -1.676 
0.332138 -0.830829 -1.662 
0.336017 -0.823331 -1.647 
0.341436 -0.819832 -1.64 
0.345311 -0.812833 -1.626 
0.350801 -0.809834 -1.62 
0.357565 -0.809834 -1.62 
0.365678 -0.812833 -1.626 
0.374071 -0.816332 -1.633 
0.384155 -0.823331 -1.647 
0.394593 -0.830829 -1.662 
0.408539 -0.845326 -1.691 
0.423218 -0.860823 -1.722 
0.444405 -0.888817 -1.778 
0.464789 -0.914312 -1.829 
0.488698 -0.945806 -1.892 
0.509197 -0.969801 -1.94 
0.533563 -1.00029 -2.001 
0.553563 -1.02179 -2.044 
0.574472 -1.04429 -2.089 
0.596037 -1.06728 -2.135 
0.615435 -1.08578 -2.172 
0.63888 -1.11077 -2.222 
0.663618 -1.13727 -2.275 
0.685248 -1.15776 -2.316 
0.70782 -1.17926 -2.359 
0.726796 -1.19425 -2.389 
0.750649 -1.21675 -2.434 
0.780817 -1.24874 -2.498 
0.8017 -1.26524 -2.531 
0.823179 -1.28224 -2.565 
0.839416 -1.29073 -2.582 
0.856124 -1.29973 -2.6 
0.872982 -1.30873 -2.618 
0.883913 -1.30873 -2.618 
0.900996 -1.31773 -2.636 
0.912003 -1.31773 -2.636 
0.923009 -1.31773 -2.636 
0.934015 -1.31773 -2.636 
0.945021 -1.31773 -2.636 
0.956028 -1.31773 -2.636 
0.967034 -1.31773 -2.636 
0.97804 -1.31773 -2.636 
0.989046 -1.31773 -2.636 
1.00005 -1.31773 -2.636 
1.01106 -1.31773 -2.636 
1.02207 -1.31773 -2.636 
1.04013 -1.32673 -2.654 
1.05121 -1.32673 -2.654 
1.06229 -1.32673 -2.654 
1.07337 -1.32673 -2.654 
1.08445 -1.32673 -2.654 
1.09553 -1.32673 -2.654 
1.10661 -1.32673 -2.654 
1.1257 -1.33623 -2.673 
1.13686 -1.33623 -2.673 
1.13986 -1.32673 -2.654 
1.15094 -1.32673 -2.654 
1.15414 -1.31773 -2.636 
1.16515 -1.31773 -2.636 
1.16812 -1.30873 -2.618 
1.17905 -1.30873 -2.618 
1.1818 -1.29973 -2.6 
1.1844 -1.29073 -2.582 
1.18731 -1.28224 -2.565 
1.19008 -1.27374 -2.548 
1.20072 -1.27374 -2.548 
1.20328 -1.26524 -2.531 
1.20617 -1.25724 -2.515 
1.20845 -1.24874 -2.498 
1.21888 -1.24874 -2.498 
1.22144 -1.24075 -2.482 
1.2318 -1.24075 -2.482 
1.24216 -1.24075 -2.482 
1.25252 -1.24075 -2.482 
1.26289 -1.24075 -2.482 
1.27325 -1.24075 -2.482 
1.28361 -1.24075 -2.482 
1.30232 -1.24874 -2.498 
1.31275 -1.24874 -2.498 
1.33218 -1.25724 -2.515 
1.34269 -1.25724 -2.515 
1.35319 -1.25724 -2.515 
1.37236 -1.26524 -2.531 
1.38293 -1.26524 -2.531 
1.3935 -1.26524 -2.531 
1.40407 -1.26524 -2.531 
1.41463 -1.26524 -2.531 
1.4252 -1.26524 -2.531 
1.42669 -1.25724 -2.515 
1.44634 -1.26524 -2.531 
1.45691 -1.26524 -2.531 
1.46747 -1.26524 -2.531 
1.4687 -1.25724 -2.515 
1.4792 -1.25724 -2.515 
1.49918 -1.26524 -2.531 
1.50974 -1.26524 -2.531 
1.5107 -1.25724 -2.515 
1.5212 -1.25724 -2.515 
1.56216 -1.28224 -2.565 
1.58329 -1.29073 -2.582 
1.6163 -1.30873 -2.618 
1.6496 -1.32673 -2.654 
1.68446 -1.34572 -2.692 
1.70767 -1.35522 -2.711 
1.74372 -1.37472 -2.75 
1.7935 -1.40471 -2.81 
1.81872 -1.41521 -2.831 
1.84412 -1.42571 -2.852 
1.85603 -1.42571 -2.852 
1.85418 -1.41521 -2.831 
1.866 -1.41521 -2.831 
1.87782 -1.41521 -2.831 
1.88964 -1.41521 -2.831 
1.90146 -1.41521 -2.831 
1.91328 -1.41521 -2.831 
1.9251 -1.41521 -2.831 
1.93692 -1.41521 -2.831 
1.94874 -1.41521 -2.831 
1.96057 -1.41521 -2.831 
1.97239 -1.41521 -2.831 
1.98421 -1.41521 -2.831 
2.01083 -1.42571 -2.852 
2.02274 -1.42571 -2.852 
2.03465 -1.42571 -2.852 
2.04656 -1.42571 -2.852 
2.05847 -1.42571 -2.852 
2.07037 -1.42571 -2.852 
2.09834 -1.4367 -2.874 
2.11034 -1.4367 -2.874 
2.12234 -1.4367 -2.874 
2.13434 -1.4367 -2.874 
2.14634 -1.4367 -2.874 
2.15834 -1.4367 -2.874 
2.17034 -1.4367 -2.874 
2.18234 -1.4367 -2.874 
2.21038 -1.4472 -2.895 
2.22247 -1.4472 -2.895 
2.23455 -1.4472 -2.895 
2.24664 -1.4472 -2.895 
2.25873 -1.4472 -2.895 
2.27082 -1.4472 -2.895 
2.2829 -1.4472 -2.895 
2.29499 -1.4472 -2.895 
2.30708 -1.4472 -2.895 
2.31917 -1.4472 -2.895 
2.33125 -1.4472 -2.895 
2.34334 -1.4472 -2.895 
2.35543 -1.4472 -2.895 
2.36752 -1.4472 -2.895 
2.3796 -1.4472 -2.895 
2.39169 -1.4472 -2.895 
2.40378 -1.4472 -2.895 
2.41587 -1.4472 -2.895 
2.42796 -1.4472 -2.895 
2.44004 -1.4472 -2.895 
2.47161 -1.4587 -2.918 
2.4838 -1.4587 -2.918 
2.49598 -1.4587 -2.918 
2.50816 -1.4587 -2.918 
2.52035 -1.4587 -2.918 
2.53253 -1.4587 -2.918 
2.54471 -1.4587 -2.918 
2.5569 -1.4587 -2.918 
2.56908 -1.4587 -2.918 
2.58127 -1.4587 -2.918 
2.613 -1.4697 -2.94 
2.62528 -1.4697 -2.94 
2.63755 -1.4697 -2.94 
2.64983 -1.4697 -2.94 
2.6621 -1.4697 -2.94 
2.67438 -1.4697 -2.94 
2.68666 -1.4697 -2.94 
2.69893 -1.4697 -2.94 
2.71121 -1.4697 -2.94 
2.72348 -1.4697 -2.94 
2.71529 -1.4587 -2.918 
2.72747 -1.4587 -2.918 
2.76031 -1.4697 -2.94 
2.77258 -1.4697 -2.94 
2.78486 -1.4697 -2.94 
2.79714 -1.4697 -2.94 
2.80941 -1.4697 -2.94 
2.82169 -1.4697 -2.94 
2.83396 -1.4697 -2.94 
2.84624 -1.4697 -2.94 
2.85851 -1.4697 -2.94 
2.87079 -1.4697 -2.94 
2.88306 -1.4697 -2.94 
2.89534 -1.4697 -2.94 
2.90762 -1.4697 -2.94 
2.94273 -1.4812 -2.963 
2.95511 -1.4812 -2.963 
2.96748 -1.4812 -2.963 
2.97985 -1.4812 -2.963 
2.99222 -1.4812 -2.963 
-1.24378 -0.675961 -1.341 
-1.23818 -0.675961 -1.341 
-1.23259 -0.675961 -1.341 
-1.23156 -0.678482 -1.346 
-1.22594 -0.678482 -1.346 
-1.22032 -0.678482 -1.346 
-1.21921 -0.681002 -1.351 
-1.21357 -0.681002 -1.351 
-1.21151 -0.683018 -1.355 
-1.2103 -0.685539 -1.36 
-1.20905 -0.688059 -1.365 
-1.20776 -0.69058 -1.37 
-1.20643 -0.6931 -1.375 
-1.20505 -0.69562 -1.38 
-1.19929 -0.69562 -1.38 
-1.19785 -0.698141 -1.385 
-1.19637 -0.700661 -1.39 
-1.19057 -0.700661 -1.39 
-1.18903 -0.703181 -1.395 
-1.18744 -0.705702 -1.4 
-1.1816 -0.705702 -1.4 
-1.17995 -0.708222 -1.405 
-1.17826 -0.710742 -1.41 
-1.17237 -0.710742 -1.41 
-1.17145 -0.713767 -1.416 
-1.16965 -0.716287 -1.421 
-1.16782 -0.718808 -1.426 
-1.16594 -0.721328 -1.431 
-1.16482 -0.724352 -1.437 
-1.16286 -0.726873 -1.442 
-1.15684 -0.726873 -1.442 
-1.15959 -0.732418 -1.453 
-1.15353 -0.732418 -1.453 
-1.1522 -0.735442 -1.459 
-1.15003 -0.737962 -1.464 
-1.14392 -0.737962 -1.464 
-1.14247 -0.740987 -1.47 
-1.14097 -0.744011 -1.476 
-1.13481 -0.744011 -1.476 
-1.13247 -0.746532 -1.481 
-1.12629 -0.746532 -1.481 
-1.12464 -0.749556 -1.487 
-1.11843 -0.749556 -1.487 
-1.11671 -0.752581 -1.493 
-1.11048 -0.752581 -1.493 
-1.10868 -0.755605 -1.499 
-1.10683 -0.758629 -1.505 
-1.10055 -0.758629 -1.505 
-1.09427 -0.758629 -1.505 
-1.09232 -0.761654 -1.511 
-1.09032 -0.764678 -1.517 
-1.08828 -0.767703 -1.523 
-1.08618 -0.770727 -1.529 
-1.08827 -0.776776 -1.541 
-1.08605 -0.7798 -1.547 
-1.08447 -0.783329 -1.554 
-1.08215 -0.786353 -1.56 
-1.07977 -0.789378 -1.566 
-1.07803 -0.792906 -1.573 
-1.07146 -0.792906 -1.573 
-1.06896 -0.795931 -1.579 
-1.06707 -0.799459 -1.586 
-1.06045 -0.799459 -1.586 
-1.05848 -0.802988 -1.593 
-1.05579 -0.806012 -1.599 
-1.04911 -0.806012 -1.599 
-1.047 -0.809541 -1.606 
-1.0403 -0.809541 -1.606 
-1.03809 -0.813069 -1.613 
-1.03584 -0.816598 -1.62 
-1.03288 -0.819622 -1.626 
-1.02609 -0.819622 -1.626 
-1.02369 -0.823151 -1.633 
-1.02123 -0.826679 -1.64 
-1.01872 -0.830208 -1.647 
-1.01675 -0.83424 -1.655 
-1.01411 -0.837769 -1.662 
-1.01142 -0.841297 -1.669 
-1.00866 -0.844826 -1.676 
-1.00166 -0.844826 -1.676 
-0.999413 -0.848858 -1.684 
-0.992382 -0.848858 -1.684 
-0.989446 -0.852387 -1.691 
-0.987034 -0.85642 -1.699 
-0.97994 -0.85642 -1.699 
-0.976854 -0.859948 -1.706 
-0.974278 -0.863981 -1.714 
-0.971635 -0.868013 -1.722 
-0.964445 -0.868013 -1.722 
-0.961147 -0.871542 -1.729 
-0.958341 -0.875574 -1.737 
-0.955469 -0.879607 -1.745 
-0.948183 -0.879607 -1.745 
-0.945211 -0.883639 -1.753 
-0.942172 -0.887672 -1.761 
-0.939065 -0.891705 -1.769 
-0.931679 -0.891705 -1.769 
-0.928995 -0.896241 -1.778 
-0.925718 -0.900274 -1.786 
-0.922374 -0.904306 -1.794 
-0.919473 -0.908843 -1.803 
-0.915992 -0.912876 -1.811 
-0.912944 -0.917412 -1.82 
-0.909822 -0.921949 -1.829 
-0.902186 -0.921949 -1.829 
-0.898951 -0.926486 -1.838 
-0.895156 -0.930518 -1.846 
-0.887448 -0.930518 -1.846 
-0.884029 -0.935055 -1.855 
-0.880536 -0.939591 -1.864 
-0.877435 -0.944632 -1.874 
-0.873787 -0.949169 -1.883 
-0.870063 -0.953706 -1.892 
-0.86672 -0.958746 -1.902 
-0.862842 -0.963283 -1.911 
-0.859337 -0.968324 -1.921 
-0.859736 -0.977901 -1.94 
-0.856026 -0.982942 -1.95 
-0.852232 -0.987982 -1.96 
-0.848354 -0.993023 -1.97 
-0.844394 -0.998064 -1.98 
-0.840771 -1.00361 -1.991 
-0.83664 -1.00865 -2.001 
-0.828285 -1.00865 -2.001 
-0.824437 -1.01419 -2.012 
-0.816036 -1.01419 -2.012 
-0.807635 -1.01419 -2.012 
-0.803207 -1.01924 -2.022 
-0.794764 -1.01924 -2.022 
-0.786322 -1.01924 -2.022 
-0.782111 -1.02478 -2.033 
-0.773623 -1.02478 -2.033 
-0.765134 -1.02478 -2.033 
-0.76074 -1.03032 -2.044 
-0.752205 -1.03032 -2.044 
-0.747673 -1.03587 -2.055 
-0.739092 -1.03587 -2.055 
-0.734422 -1.04141 -2.066 
-0.729661 -1.04696 -2.077 
-0.720988 -1.04696 -2.077 
-0.716431 -1.05301 -2.089 
-0.711436 -1.05855 -2.1 
-0.706683 -1.0646 -2.112 
-0.701499 -1.07015 -2.123 
-0.692635 -1.07015 -2.123 
-0.687635 -1.0762 -2.135 
-0.678721 -1.0762 -2.135 
-0.673571 -1.08224 -2.147 
-0.668321 -1.08829 -2.159 
-0.659307 -1.08829 -2.159 
-0.650292 -1.08829 -2.159 
-0.645139 -1.09485 -2.172 
-0.63607 -1.09485 -2.172 
-0.630465 -1.10089 -2.184 
-0.625045 -1.10745 -2.197 
-0.615872 -1.10745 -2.197 
-0.610012 -1.1135 -2.209 
-0.604324 -1.12005 -2.222 
-0.598528 -1.1266 -2.235 
-0.596314 -1.14021 -2.262 
-0.590242 -1.14677 -2.275 
-0.584317 -1.15382 -2.289 
-0.578024 -1.16038 -2.302 
-0.571869 -1.16743 -2.316 
-0.56584 -1.17499 -2.331 
-0.556107 -1.17499 -2.331 
-0.549656 -1.18205 -2.345 
-0.543088 -1.18911 -2.359 
-0.536629 -1.19667 -2.374 
-0.526717 -1.19667 -2.374 
-0.516804 -1.19667 -2.374 
-0.510095 -1.20423 -2.389 
-0.50326 -1.21179 -2.404 
-0.493223 -1.21179 -2.404 
-0.4862 -1.21935 -2.419 
-0.4761 -1.21935 -2.419 
-0.466 -1.21935 -2.419 
-0.458726 -1.22691 -2.434 
-0.448563 -1.22691 -2.434 
-0.441283 -1.23498 -2.45 
-0.433868 -1.24304 -2.466 
-0.42632 -1.25111 -2.482 
-0.415956 -1.25111 -2.482 
-0.408208 -1.25917 -2.498 
-0.400485 -1.26774 -2.515 
-0.389984 -1.26774 -2.515 
-0.379483 -1.26774 -2.515 
-0.371329 -1.27581 -2.531 
-0.360761 -1.27581 -2.531 
-0.350194 -1.27581 -2.531 
-0.339626 -1.27581 -2.531 
-0.329058 -1.27581 -2.531 
-0.31849 -1.27581 -2.531 
-0.307922 -1.27581 -2.531 
-0.297354 -1.27581 -2.531 
-0.288713 -1.28438 -2.548 
-0.278074 -1.28438 -2.548 
-0.267435 -1.28438 -2.548 
-0.256796 -1.28438 -2.548 
-0.246158 -1.28438 -2.548 
-0.23709 -1.29295 -2.565 
-0.22638 -1.29295 -2.565 
-0.2171 -1.30152 -2.582 
-0.206319 -1.30152 -2.582 
-0.196902 -1.31059 -2.6 
-0.186046 -1.31059 -2.6 
-0.176403 -1.31966 -2.618 
-0.165471 -1.31966 -2.618 
-0.155603 -1.32874 -2.636 
-0.144597 -1.32874 -2.636 
-0.13359 -1.32874 -2.636 
-0.123421 -1.33781 -2.654 
-0.11234 -1.33781 -2.654 
-0.101258 -1.33781 -2.654 
-0.0901771 -1.33781 -2.654 
-0.0790957 -1.33781 -2.654 
-0.0680142 -1.33781 -2.654 
-0.0569329 -1.33781 -2.654 
-0.0458515 -1.33781 -2.654 
-0.0345342 -1.32874 -2.636 
-0.023528 -1.32874 -2.636 
-0.0124362 -1.31966 -2.618 
-0.00149481 -1.31059 -2.6 
0.00936112 -1.31059 -2.6 
0.020217 -1.31059 -2.6 
0.0308579 -1.30152 -2.582 
0.0416386 -1.30152 -2.582 
0.0520743 -1.29295 -2.565 
0.062368 -1.28438 -2.548 
0.0730068 -1.28438 -2.548 
0.0830875 -1.27581 -2.531 
0.0936553 -1.27581 -2.531 
0.102864 -1.25917 -2.498 
0.112569 -1.25111 -2.482 
0.122932 -1.25111 -2.482 
0.132436 -1.24304 -2.466 
0.141806 -1.23498 -2.45 
0.150112 -1.21935 -2.419 
0.159219 -1.21179 -2.404 
0.167144 -1.19667 -2.374 
0.174894 -1.18205 -2.345 
0.182401 -1.16743 -2.316 
0.189832 -1.15382 -2.289 
0.197037 -1.14021 -2.262 
0.204017 -1.1266 -2.235 
0.209722 -1.10745 -2.197 
0.216404 -1.09485 -2.172 
0.221632 -1.0762 -2.135 
0.228063 -1.0646 -2.112 
0.234302 -1.05301 -2.089 
0.239069 -1.03587 -2.055 
0.243672 -1.01924 -2.022 
0.248249 -1.00361 -1.991 
0.252568 -0.987982 -1.96 
0.258091 -0.977901 -1.94 
0.263584 -0.968324 -1.921 
0.267505 -0.953706 -1.892 
0.272784 -0.944632 -1.874 
0.277764 -0.935055 -1.855 
0.284124 -0.930518 -1.846 
0.289144 -0.921949 -1.829 
0.295321 -0.917412 -1.82 
0.301422 -0.912876 -1.811 
0.308983 -0.912876 -1.811 
0.313573 -0.904306 -1.794 
0.319632 -0.900274 -1.786 
0.325624 -0.896241 -1.778 
0.329864 -0.887672 -1.761 
0.335685 -0.883639 -1.753 
0.339873 -0.875574 -1.737 
0.344128 -0.868013 -1.722 
0.349686 -0.863981 -1.714 
0.35372 -0.85642 -1.699 
0.357628 -0.848858 -1.684 
0.36466 -0.848858 -1.684 
0.371691 -0.848858 -1.684 
0.380296 -0.852387 -1.691 
0.390793 -0.859948 -1.706 
0.401648 -0.868013 -1.722 
0.412399 -0.875574 -1.737 
0.429557 -0.896241 -1.778 
0.443125 -0.908843 -1.803 
0.4659 -0.939591 -1.864 
0.488168 -0.968324 -1.921 
0.511429 -0.998064 -1.98 
0.533607 -1.02478 -2.033 
0.557028 -1.05301 -2.089 
0.578208 -1.0762 -2.135 
0.597297 -1.09485 -2.172 
0.616695 -1.1135 -2.209 
0.640936 -1.14021 -2.262 
0.661882 -1.16038 -2.302 
0.679953 -1.17499 -2.331 
0.702408 -1.19667 -2.374 
0.721322 -1.21179 -2.404 
0.735923 -1.21935 -2.419 
0.755584 -1.23498 -2.45 
0.775816 -1.25111 -2.482 
0.8017 -1.27581 -2.531 
0.817724 -1.28438 -2.548 
0.833889 -1.29295 -2.565 
0.850197 -1.30152 -2.582 
0.86698 -1.31059 -2.6 
0.877836 -1.31059 -2.6 
0.888691 -1.31059 -2.6 
0.905775 -1.31966 -2.618 
0.916706 -1.31966 -2.618 
0.927637 -1.31966 -2.618 
0.938568 -1.31966 -2.618 
0.949499 -1.31966 -2.618 
0.96043 -1.31966 -2.618 
0.971362 -1.31966 -2.618 
0.982293 -1.31966 -2.618 
0.993224 -1.31966 -2.618 
1.00415 -1.31966 -2.618 
1.01509 -1.31966 -2.618 
1.02602 -1.31966 -2.618 
1.04408 -1.32874 -2.636 
1.05508 -1.32874 -2.636 
1.06609 -1.32874 -2.636 
1.0771 -1.32874 -2.636 
1.0881 -1.32874 -2.636 
1.09911 -1.32874 -2.636 
1.1177 -1.33781 -2.654 
1.12878 -1.33781 -2.654 
1.13213 -1.32874 -2.636 
1.14313 -1.32874 -2.636 
1.14626 -1.31966 -2.618 
1.15719 -1.31966 -2.618 
1.16009 -1.31059 -2.6 
1.17095 -1.31059 -2.6 
1.17362 -1.30152 -2.582 
1.1844 -1.30152 -2.582 
1.18731 -1.29295 -2.565 
1.19008 -1.28438 -2.548 
1.20072 -1.28438 -2.548 
1.21136 -1.28438 -2.548 
1.21385 -1.27581 -2.531 
1.21667 -1.26774 -2.515 
1.22717 -1.26774 -2.515 
1.22931 -1.25917 -2.498 
1.23974 -1.25917 -2.498 
1.25017 -1.25917 -2.498 
1.25252 -1.25111 -2.482 
1.26289 -1.25111 -2.482 
1.27325 -1.25111 -2.482 
1.29189 -1.25917 -2.498 
1.30232 -1.25917 -2.498 
1.32168 -1.26774 -2.515 
1.33218 -1.26774 -2.515 
1.34269 -1.26774 -2.515 
1.36179 -1.27581 -2.531 
1.37236 -1.27581 -2.531 
1.38293 -1.27581 -2.531 
1.3935 -1.27581 -2.531 
1.40407 -1.27581 -2.531 
1.41463 -1.27581 -2.531 
1.4252 -1.27581 -2.531 
1.43577 -1.27581 -2.531 
1.44634 -1.27581 -2.531 
1.45691 -1.27581 -2.531 
1.4582 -1.26774 -2.515 
1.4687 -1.26774 -2.515 
1.4792 -1.26774 -2.515 
1.4897 -1.26774 -2.515 
1.50974 -1.27581 -2.531 
1.5107 -1.26774 -2.515 
1.53088 -1.27581 -2.531 
1.56216 -1.29295 -2.565 
1.58329 -1.30152 -2.582 
1.6163 -1.31966 -2.618 
1.63841 -1.32874 -2.636 
1.67257 -1.34739 -2.673 
1.70767 -1.36654 -2.711 
1.74372 -1.3862 -2.75 
1.78073 -1.40636 -2.79 
1.80523 -1.41644 -2.81 
1.83054 -1.42703 -2.831 
1.82869 -1.41644 -2.81 
1.85418 -1.42703 -2.831 
1.866 -1.42703 -2.831 
1.86389 -1.41644 -2.81 
1.87563 -1.41644 -2.81 
1.88736 -1.41644 -2.81 
1.89909 -1.41644 -2.81 
1.91082 -1.41644 -2.81 
1.92256 -1.41644 -2.81 
1.93429 -1.41644 -2.81 
1.94602 -1.41644 -2.81 
1.95775 -1.41644 -2.81 
1.96949 -1.41644 -2.81 
1.99603 -1.42703 -2.831 
2.00785 -1.42703 -2.831 
2.01967 -1.42703 -2.831 
2.03149 -1.42703 -2.831 
2.04331 -1.42703 -2.831 
2.05513 -1.42703 -2.831 
2.08228 -1.43762 -2.852 
2.09419 -1.43762 -2.852 
2.1061 -1.43762 -2.852 
2.11801 -1.43762 -2.852 
2.12991 -1.43762 -2.852 
2.14182 -1.43762 -2.852 
2.15373 -1.43762 -2.852 
2.16564 -1.43762 -2.852 
2.17755 -1.43762 -2.852 
2.18945 -1.43762 -2.852 
2.21834 -1.4487 -2.874 
2.23034 -1.4487 -2.874 
2.24234 -1.4487 -2.874 
2.25434 -1.4487 -2.874 
2.26634 -1.4487 -2.874 
2.27834 -1.4487 -2.874 
2.29034 -1.4487 -2.874 
2.30234 -1.4487 -2.874 
2.31434 -1.4487 -2.874 
2.32634 -1.4487 -2.874 
2.33834 -1.4487 -2.874 
2.35034 -1.4487 -2.874 
2.3796 -1.45929 -2.895 
2.39169 -1.45929 -2.895 
2.40378 -1.45929 -2.895 
2.41587 -1.45929 -2.895 
2.42796 -1.45929 -2.895 
2.44004 -1.45929 -2.895 
2.45213 -1.45929 -2.895 
2.46422 -1.45929 -2.895 
2.47631 -1.45929 -2.895 
2.48839 -1.45929 -2.895 
2.50048 -1.45929 -2.895 
2.53253 -1.47088 -2.918 
2.54471 -1.47088 -2.918 
2.5569 -1.47088 -2.918 
2.56908 -1.47088 -2.918 
2.58127 -1.47088 -2.918 
2.59345 -1.47088 -2.918 
2.60563 -1.47088 -2.918 
2.61782 -1.47088 -2.918 
2.63 -1.47088 -2.918 
2.64218 -1.47088 -2.918 
2.65437 -1.47088 -2.918 
2.66655 -1.47088 -2.918 
2.67874 -1.47088 -2.918 
2.66971 -1.45929 -2.895 
2.6818 -1.45929 -2.895 
2.69388 -1.45929 -2.895 
2.70597 -1.45929 -2.895 
2.71806 -1.45929 -2.895 
2.75184 -1.47088 -2.918 
2.76402 -1.47088 -2.918 
2.7762 -1.47088 -2.918 
2.78839 -1.47088 -2.918 
2.80057 -1.47088 -2.918 
2.81276 -1.47088 -2.918 
2.82494 -1.47088 -2.918 
2.83712 -1.47088 -2.918 
2.84931 -1.47088 -2.918 
2.86149 -1.47088 -2.918 
2.87367 -1.47088 -2.918 
2.88586 -1.47088 -2.918 
2.91989 -1.48197 -2.94 
2.95511 -1.49357 -2.963 
2.96748 -1.49357 -2.963 
2.95672 -1.48197 -2.94 
2.99222 -1.49357 -2.963 
-1.24378 -0.681561 -1.341 
-1.23818 -0.681561 -1.341 
-1.23259 -0.681561 -1.341 
-1.22699 -0.681561 -1.341 
-1.22594 -0.684102 -1.346 
-1.22032 -0.684102 -1.346 
-1.21921 -0.686643 -1.351 
-1.21357 -0.686643 -1.351 
-1.21151 -0.688676 -1.355 
-1.2103 -0.691217 -1.36 
-1.20905 -0.693759 -1.365 
-1.20776 -0.6963 -1.37 
-1.20643 -0.698841 -1.375 
-1.20505 -0.701382 -1.38 
-1.19929 -0.701382 -1.38 
-1.19785 -0.703924 -1.385 
-1.19637 -0.706465 -1.39 
-1.19057 -0.706465 -1.39 
-1.18903 -0.709006 -1.395 
-1.18744 -0.711547 -1.4 
-1.1816 -0.711547 -1.4 
-1.17995 -0.714089 -1.405 
-1.17826 -0.71663 -1.41 
-1.17237 -0.71663 -1.41 
-1.17145 -0.719679 -1.416 
-1.16965 -0.722221 -1.421 
-1.16782 -0.724762 -1.426 
-1.16594 -0.727303 -1.431 
-1.16482 -0.730352 -1.437 
-1.16286 -0.732894 -1.442 
-1.16165 -0.735943 -1.448 
-1.15959 -0.738484 -1.453 
-1.15353 -0.738484 -1.453 
-1.1522 -0.741534 -1.459 
-1.15003 -0.744075 -1.464 
-1.14861 -0.747125 -1.47 
-1.14247 -0.747125 -1.47 
-1.14097 -0.750174 -1.476 
-1.13481 -0.750174 -1.476 
-1.13247 -0.752715 -1.481 
-1.12629 -0.752715 -1.481 
-1.12464 -0.755765 -1.487 
-1.11843 -0.755765 -1.487 
-1.11671 -0.758814 -1.493 
-1.11048 -0.758814 -1.493 
-1.10868 -0.761864 -1.499 
-1.10683 -0.764913 -1.505 
-1.10055 -0.764913 -1.505 
-1.09427 -0.764913 -1.505 
-1.09232 -0.767963 -1.511 
-1.09032 -0.771012 -1.517 
-1.08828 -0.774062 -1.523 
-1.08618 -0.777111 -1.529 
-1.08827 -0.78321 -1.541 
-1.08605 -0.78626 -1.547 
-1.08447 -0.789817 -1.554 
-1.08215 -0.792867 -1.56 
-1.07977 -0.795916 -1.566 
-1.07803 -0.799474 -1.573 
-1.07146 -0.799474 -1.573 
-1.06896 -0.802524 -1.579 
-1.06707 -0.806081 -1.586 
-1.06045 -0.806081 -1.586 
-1.05848 -0.809639 -1.593 
-1.05183 -0.809639 -1.593 
-1.04911 -0.812689 -1.599 
-1.04244 -0.812689 -1.599 
-1.0403 -0.816246 -1.606 
-1.03809 -0.819804 -1.613 
-1.03584 -0.823362 -1.62 
-1.03288 -0.826411 -1.626 
-1.02609 -0.826411 -1.626 
-1.02369 -0.829969 -1.633 
-1.02123 -0.833527 -1.64 
-1.01872 -0.837085 -1.647 
-1.01675 -0.841151 -1.655 
-1.01411 -0.844708 -1.662 
-1.01142 -0.848266 -1.669 
-1.00866 -0.851824 -1.676 
-1.00644 -0.85589 -1.684 
-0.999413 -0.85589 -1.684 
-0.996507 -0.859447 -1.691 
-0.989446 -0.859447 -1.691 
-0.987034 -0.863513 -1.699 
-0.983977 -0.867071 -1.706 
-0.976854 -0.867071 -1.706 
-0.974278 -0.871137 -1.714 
-0.971635 -0.875203 -1.722 
-0.964445 -0.875203 -1.722 
-0.961147 -0.878761 -1.729 
-0.958341 -0.882827 -1.737 
-0.955469 -0.886893 -1.745 
-0.948183 -0.886893 -1.745 
-0.945211 -0.890959 -1.753 
-0.942172 -0.895025 -1.761 
-0.939065 -0.899091 -1.769 
-0.931679 -0.899091 -1.769 
-0.928995 -0.903665 -1.778 
-0.925718 -0.907731 -1.786 
-0.922374 -0.911797 -1.794 
-0.919473 -0.916371 -1.803 
-0.915992 -0.920437 -1.811 
-0.912944 -0.925011 -1.82 
-0.909822 -0.929586 -1.829 
-0.902186 -0.929586 -1.829 
-0.898951 -0.93416 -1.838 
-0.891276 -0.93416 -1.838 
-0.887448 -0.938226 -1.846 
-0.884029 -0.9428 -1.855 
-0.876284 -0.9428 -1.855 
-0.872753 -0.947374 -1.864 
-0.86961 -0.952457 -1.874 
-0.870063 -0.961605 -1.892 
-0.86672 -0.966688 -1.902 
-0.862842 -0.971262 -1.911 
-0.859337 -0.976345 -1.921 
-0.855304 -0.980919 -1.93 
-0.851636 -0.986001 -1.94 
-0.847884 -0.991084 -1.95 
-0.848354 -1.00125 -1.97 
-0.844394 -1.00633 -1.98 
-0.840771 -1.01192 -1.991 
-0.832458 -1.01192 -1.991 
-0.828285 -1.017 -2.001 
-0.824437 -1.0226 -2.012 
-0.816036 -1.0226 -2.012 
-0.807635 -1.0226 -2.012 
-0.803207 -1.02768 -2.022 
-0.794764 -1.02768 -2.022 
-0.786322 -1.02768 -2.022 
-0.777879 -1.02768 -2.022 
-0.773623 -1.03327 -2.033 
