ply
format ascii 1.0
comment pointcloud saved from Realsense Viewer
element vertex 1923
property float32 x
property float32 y
property float32 z
end_header
3.76793 2.00397 -4.2 
3.78547 2.00397 -4.2 
3.76135 1.98202 -4.154 
3.73867 1.96103 -4.11 
3.71563 1.94004 -4.066 
3.69313 1.91952 -4.023 
3.70993 1.91952 -4.023 
3.72672 1.91952 -4.023 
3.70444 1.89948 -3.981 
3.72106 1.89948 -3.981 
3.73768 1.89948 -3.981 
3.75431 1.89948 -3.981 
3.73209 1.87992 -3.94 
3.71049 1.86083 -3.9 
3.72677 1.86083 -3.9 
3.70562 1.84222 -3.861 
3.72174 1.84222 -3.861 
3.73787 1.84222 -3.861 
3.71607 1.82362 -3.822 
3.69492 1.80548 -3.784 
3.71072 1.80548 -3.784 
3.72652 1.80548 -3.784 
3.70573 1.78783 -3.747 
3.68562 1.77065 -3.711 
3.70111 1.77065 -3.711 
3.68055 1.75348 -3.675 
3.6959 1.75348 -3.675 
3.6759 1.73678 -3.64 
-1.31335 0.669713 -1.416 
-1.30189 0.666875 -1.41 
-1.29601 0.666875 -1.41 
-1.28554 0.66451 -1.405 
-1.27968 0.66451 -1.405 
-1.27381 0.66451 -1.405 
-1.26795 0.66451 -1.405 
-1.26208 0.66451 -1.405 
-1.26068 0.666875 -1.41 
-1.2548 0.666875 -1.41 
-1.24891 0.666875 -1.41 
-1.24302 0.666875 -1.41 
-1.2424 0.669713 -1.416 
-1.24085 0.672078 -1.421 
-1.23926 0.674442 -1.426 
-1.23331 0.674442 -1.426 
-1.23166 0.676807 -1.431 
-1.23082 0.679645 -1.437 
-1.22909 0.68201 -1.442 
-1.22306 0.68201 -1.442 
-1.22211 0.684848 -1.448 
-1.21606 0.684848 -1.448 
-1.21419 0.687212 -1.453 
-1.20813 0.687212 -1.453 
-1.20702 0.69005 -1.459 
-1.20093 0.69005 -1.459 
-1.19894 0.692415 -1.464 
-1.19282 0.692415 -1.464 
-1.18671 0.692415 -1.464 
-1.18544 0.695253 -1.47 
-1.1793 0.695253 -1.47 
-1.17316 0.695253 -1.47 
-1.16702 0.695253 -1.47 
-1.16088 0.695253 -1.47 
-1.15946 0.69809 -1.476 
-1.1572 0.700455 -1.481 
-1.15102 0.700455 -1.481 
-1.14947 0.703293 -1.487 
-1.14327 0.703293 -1.487 
-1.14165 0.706131 -1.493 
-1.13997 0.708969 -1.499 
-1.13372 0.708969 -1.499 
-1.13197 0.711806 -1.505 
-1.12569 0.711806 -1.505 
-1.1194 0.711806 -1.505 
-1.11756 0.714644 -1.511 
-1.11566 0.717482 -1.517 
-1.10933 0.717482 -1.517 
-1.10735 0.72032 -1.523 
-1.10099 0.72032 -1.523 
-1.09895 0.723157 -1.529 
-1.09685 0.725995 -1.535 
-1.0947 0.728833 -1.541 
-1.08827 0.728833 -1.541 
-1.08605 0.731671 -1.547 
-1.08447 0.734981 -1.554 
-1.08215 0.737819 -1.56 
-1.07977 0.740657 -1.566 
-1.07803 0.743968 -1.573 
-1.07555 0.746805 -1.579 
-1.07369 0.750116 -1.586 
-1.06707 0.750116 -1.586 
-1.06513 0.753427 -1.593 
-1.06247 0.756265 -1.599 
-1.06041 0.759575 -1.606 
-1.0583 0.762886 -1.613 
-1.05613 0.766197 -1.62 
-1.05325 0.769035 -1.626 
-1.05097 0.772345 -1.633 
-1.04862 0.775656 -1.64 
-1.04622 0.778967 -1.647 
-1.04439 0.78275 -1.655 
-1.03748 0.78275 -1.655 
-1.03493 0.786061 -1.662 
-1.03232 0.789372 -1.669 
-1.02965 0.792683 -1.676 
-1.02266 0.792683 -1.676 
-1.02051 0.796466 -1.684 
-1.01348 0.796466 -1.684 
-1.00644 0.796466 -1.684 
-1.00357 0.799777 -1.691 
-0.996507 0.799777 -1.691 
-0.994127 0.803561 -1.699 
-0.987034 0.803561 -1.699 
-0.983977 0.806872 -1.706 
-0.976854 0.806872 -1.706 
-0.969731 0.806872 -1.706 
-0.967121 0.810655 -1.714 
-0.964445 0.814439 -1.722 
-0.957256 0.814439 -1.722 
-0.950066 0.814439 -1.722 
-0.946709 0.81775 -1.729 
-0.939489 0.81775 -1.729 
-0.936584 0.821533 -1.737 
-0.933611 0.825317 -1.745 
-0.930572 0.829101 -1.753 
-0.923253 0.829101 -1.753 
-0.920113 0.832884 -1.761 
-0.921572 0.840925 -1.778 
-0.918261 0.844708 -1.786 
-0.914884 0.848492 -1.794 
-0.911945 0.852749 -1.803 
-0.90843 0.856532 -1.811 
-0.905345 0.860789 -1.82 
-0.897746 0.860789 -1.82 
-0.894549 0.865046 -1.829 
-0.886912 0.865046 -1.829 
-0.883602 0.869302 -1.838 
-0.87974 0.873086 -1.846 
-0.876284 0.877343 -1.855 
-0.872753 0.881599 -1.864 
-0.86961 0.886329 -1.874 
-0.870063 0.894842 -1.892 
-0.86672 0.899572 -1.902 
-0.862842 0.903829 -1.911 
-0.854863 0.903829 -1.911 
-0.851316 0.908558 -1.921 
-0.847246 0.912815 -1.93 
-0.843536 0.917544 -1.94 
-0.839742 0.922274 -1.95 
-0.8316 0.922274 -1.95 
-0.827681 0.927004 -1.96 
-0.823678 0.931733 -1.97 
-0.815453 0.931733 -1.97 
-0.811325 0.936463 -1.98 
-0.803058 0.936463 -1.98 
-0.799206 0.941665 -1.991 
-0.794865 0.946395 -2.001 
-0.790834 0.951598 -2.012 
-0.782433 0.951598 -2.012 
-0.777879 0.956327 -2.022 
-0.769437 0.956327 -2.022 
-0.765134 0.96153 -2.033 
-0.76074 0.966732 -2.044 
-0.752205 0.966732 -2.044 
-0.747673 0.971935 -2.055 
-0.739092 0.971935 -2.055 
-0.734422 0.977137 -2.066 
-0.729661 0.98234 -2.077 
-0.725154 0.988016 -2.089 
-0.720204 0.993218 -2.1 
-0.715501 0.998894 -2.112 
-0.710363 1.0041 -2.123 
-0.709429 1.01545 -2.147 
-0.70438 1.02112 -2.159 
-0.695365 1.02112 -2.159 
-0.690483 1.02727 -2.172 
-0.685179 1.03295 -2.184 
-0.680084 1.0391 -2.197 
-0.674576 1.04477 -2.209 
-0.665352 1.04477 -2.209 
-0.65999 1.05092 -2.222 
-0.65452 1.05707 -2.235 
-0.648941 1.06322 -2.248 
-0.643537 1.06984 -2.262 
-0.634093 1.06984 -2.262 
-0.628238 1.07599 -2.275 
-0.622547 1.08261 -2.289 
-0.616471 1.08876 -2.302 
-0.61055 1.09538 -2.316 
-0.60088 1.09538 -2.316 
-0.595038 1.10247 -2.331 
-0.588821 1.10909 -2.345 
-0.57903 1.10909 -2.345 
-0.572637 1.11572 -2.359 
-0.566366 1.12281 -2.374 
-0.556454 1.12281 -2.374 
-0.549995 1.1299 -2.389 
-0.54002 1.1299 -2.389 
-0.533373 1.137 -2.404 
-0.526601 1.14409 -2.419 
-0.5165 1.14409 -2.419 
-0.50954 1.15119 -2.434 
-0.50266 1.15875 -2.45 
-0.492431 1.15875 -2.45 
-0.48535 1.16632 -2.466 
-0.475054 1.16632 -2.466 
-0.467773 1.17389 -2.482 
-0.460358 1.18146 -2.498 
-0.45299 1.1895 -2.515 
-0.445304 1.19706 -2.531 
-0.437656 1.2051 -2.548 
-0.427017 1.2051 -2.548 
-0.419157 1.21315 -2.565 
-0.41402 1.2297 -2.6 
-0.403164 1.2297 -2.6 
-0.39774 1.24673 -2.636 
-0.386734 1.24673 -2.636 
-0.378293 1.25524 -2.654 
-0.369841 1.26422 -2.673 
-0.36123 1.27321 -2.692 
-0.35246 1.2822 -2.711 
-0.343531 1.29118 -2.73 
-0.334566 1.30064 -2.75 
-0.325433 1.3101 -2.77 
-0.313868 1.3101 -2.77 
-0.304485 1.31956 -2.79 
-0.294934 1.32902 -2.81 
-0.283202 1.32902 -2.81 
-0.273498 1.33895 -2.831 
-0.263618 1.34888 -2.852 
-0.25171 1.34888 -2.852 
-0.241652 1.35929 -2.874 
-0.229652 1.35929 -2.874 
-0.219242 1.36922 -2.895 
-0.207155 1.36922 -2.895 
-0.196617 1.3801 -2.918 
-0.184433 1.3801 -2.918 
-0.173548 1.39051 -2.94 
-0.162534 1.40138 -2.963 
-0.150163 1.40138 -2.963 
-0.138861 1.41226 -2.986 
-0.127366 1.42314 -3.009 
-0.114803 1.42314 -3.009 
-0.102239 1.42314 -3.009 
-0.0903908 1.43449 -3.033 
-0.0777269 1.43449 -3.033 
-0.0650631 1.43449 -3.033 
-0.0523992 1.43449 -3.033 
-0.0397353 1.43449 -3.033 
-0.0270715 1.43449 -3.033 
-0.0144076 1.43449 -3.033 
-0.00172996 1.42314 -3.009 
0.0108337 1.42314 -3.009 
0.0233973 1.42314 -3.009 
0.035961 1.42314 -3.009 
0.0485247 1.42314 -3.009 
0.0606214 1.41226 -2.986 
0.073089 1.41226 -2.986 
0.0848976 1.40138 -2.963 
0.0972692 1.40138 -2.963 
0.109641 1.40138 -2.963 
0.121065 1.39051 -2.94 
0.133341 1.39051 -2.94 
0.145616 1.39051 -2.94 
0.157892 1.39051 -2.94 
0.170167 1.39051 -2.94 
0.182443 1.39051 -2.94 
0.194719 1.39051 -2.94 
0.208613 1.40138 -2.963 
0.220985 1.40138 -2.963 
0.233357 1.40138 -2.963 
0.245728 1.40138 -2.963 
0.2581 1.40138 -2.963 
0.270471 1.40138 -2.963 
0.282843 1.40138 -2.963 
0.295215 1.40138 -2.963 
0.305199 1.39051 -2.94 
0.317474 1.39051 -2.94 
0.327282 1.3801 -2.918 
0.339466 1.3801 -2.918 
0.348878 1.36922 -2.895 
0.355604 1.34888 -2.852 
0.367512 1.34888 -2.852 
0.373833 1.32902 -2.81 
0.385565 1.32902 -2.81 
0.39447 1.31956 -2.79 
0.403208 1.3101 -2.77 
0.414774 1.3101 -2.77 
0.42634 1.3101 -2.77 
0.437906 1.3101 -2.77 
0.449471 1.3101 -2.77 
0.464366 1.31956 -2.79 
0.479427 1.32902 -2.81 
0.49116 1.32902 -2.81 
0.502893 1.32902 -2.81 
0.522318 1.34888 -2.852 
0.534226 1.34888 -2.852 
0.554368 1.36922 -2.895 
0.566456 1.36922 -2.895 
0.58314 1.3801 -2.918 
0.599812 1.39051 -2.94 
0.612087 1.39051 -2.94 
0.629247 1.40138 -2.963 
0.641619 1.40138 -2.963 
0.659067 1.41226 -2.986 
0.671535 1.41226 -2.986 
0.684002 1.41226 -2.986 
0.69647 1.41226 -2.986 
0.703477 1.40138 -2.963 
0.715848 1.40138 -2.963 
0.722567 1.39051 -2.94 
0.729344 1.3801 -2.918 
0.741528 1.3801 -2.918 
0.747771 1.36922 -2.895 
0.759858 1.36922 -2.895 
0.766346 1.35929 -2.874 
0.772388 1.34888 -2.852 
0.784296 1.34888 -2.852 
0.796204 1.34888 -2.852 
0.802162 1.33895 -2.831 
0.813983 1.33895 -2.831 
0.825803 1.33895 -2.831 
0.843837 1.34888 -2.852 
0.855745 1.34888 -2.852 
0.867653 1.34888 -2.852 
0.886346 1.35929 -2.874 
0.90491 1.36922 -2.895 
0.924283 1.3801 -2.918 
0.943527 1.39051 -2.94 
0.96328 1.40138 -2.963 
0.975652 1.40138 -2.963 
0.988023 1.40138 -2.963 
1.00816 1.41226 -2.986 
1.02063 1.41226 -2.986 
1.0331 1.41226 -2.986 
1.04556 1.41226 -2.986 
1.04988 1.40138 -2.963 
1.06225 1.40138 -2.963 
1.06628 1.39051 -2.94 
1.07049 1.3801 -2.918 
1.07414 1.36922 -2.895 
1.07835 1.35929 -2.874 
1.09035 1.35929 -2.874 
1.09391 1.34888 -2.852 
1.09767 1.33895 -2.831 
1.10949 1.33895 -2.831 
1.113 1.32902 -2.81 
1.11672 1.31956 -2.79 
1.12837 1.31956 -2.79 
1.14002 1.31956 -2.79 
1.14342 1.3101 -2.77 
1.14664 1.30064 -2.75 
1.1497 1.29118 -2.73 
1.15302 1.2822 -2.711 
1.15618 1.27321 -2.692 
1.15918 1.26422 -2.673 
1.16202 1.25524 -2.654 
1.16515 1.24673 -2.636 
1.16812 1.23821 -2.618 
1.17905 1.23821 -2.618 
1.1818 1.2297 -2.6 
1.1844 1.22119 -2.582 
1.18731 1.21315 -2.565 
1.19802 1.21315 -2.565 
1.20072 1.2051 -2.548 
1.21136 1.2051 -2.548 
1.222 1.2051 -2.548 
1.23264 1.2051 -2.548 
1.24328 1.2051 -2.548 
1.25391 1.2051 -2.548 
1.25612 1.19706 -2.531 
1.27519 1.2051 -2.548 
1.28583 1.2051 -2.548 
1.29647 1.2051 -2.548 
1.30711 1.2051 -2.548 
1.31775 1.2051 -2.548 
1.32839 1.2051 -2.548 
1.33903 1.2051 -2.548 
1.34966 1.2051 -2.548 
1.3603 1.2051 -2.548 
1.37094 1.2051 -2.548 
1.38158 1.2051 -2.548 
1.39222 1.2051 -2.548 
1.41222 1.21315 -2.565 
1.42293 1.21315 -2.565 
1.43364 1.21315 -2.565 
1.45392 1.22119 -2.582 
1.4647 1.22119 -2.582 
1.48577 1.2297 -2.6 
1.53864 1.26422 -2.673 
1.60605 1.3101 -2.77 
1.67834 1.35929 -2.874 
1.76974 1.42314 -3.009 
1.88656 1.50638 -3.185 
2.01737 1.59955 -3.382 
2.16604 1.7055 -3.606 
2.33533 1.8261 -3.861 
2.4763 1.92306 -4.066 
2.60427 2.00867 -4.247 
2.68127 2.05407 -4.343 
2.73048 2.07772 -4.393 
2.78074 2.10184 -4.444 
2.79929 2.10184 -4.444 
2.85146 2.12691 -4.497 
2.87023 2.12691 -4.497 
2.88901 2.12691 -4.497 
2.94206 2.15197 -4.55 
2.96105 2.15197 -4.55 
2.98005 2.15197 -4.55 
2.99905 2.15197 -4.55 
3.01805 2.15197 -4.55 
3.07376 2.17799 -4.605 
3.09298 2.17799 -4.605 
3.11221 2.17799 -4.605 
3.09404 2.15197 -4.55 
3.11304 2.15197 -4.55 
3.13203 2.15197 -4.55 
3.15103 2.15197 -4.55 
3.20835 2.17799 -4.605 
3.22758 2.17799 -4.605 
3.2468 2.17799 -4.605 
3.26603 2.17799 -4.605 
3.28526 2.17799 -4.605 
3.30449 2.17799 -4.605 
3.32371 2.17799 -4.605 
3.34294 2.17799 -4.605 
3.36217 2.17799 -4.605 
3.3814 2.17799 -4.605 
3.40062 2.17799 -4.605 
3.41985 2.17799 -4.605 
3.43908 2.17799 -4.605 
3.45831 2.17799 -4.605 
3.47753 2.17799 -4.605 
3.49676 2.17799 -4.605 
3.51599 2.17799 -4.605 
3.53522 2.17799 -4.605 
3.55444 2.17799 -4.605 
3.57367 2.17799 -4.605 
3.5929 2.17799 -4.605 
3.61213 2.17799 -4.605 
3.63135 2.17799 -4.605 
3.65058 2.17799 -4.605 
3.66981 2.17799 -4.605 
3.64498 2.15197 -4.55 
3.66397 2.15197 -4.55 
3.68297 2.15197 -4.55 
3.70197 2.15197 -4.55 
3.72097 2.15197 -4.55 
3.6964 2.12691 -4.497 
3.71518 2.12691 -4.497 
3.68995 2.10184 -4.444 
3.7085 2.10184 -4.444 
3.72706 2.10184 -4.444 
3.74561 2.10184 -4.444 
3.72097 2.07772 -4.393 
3.73931 2.07772 -4.393 
3.75766 2.07772 -4.393 
3.776 2.07772 -4.393 
3.75115 2.05407 -4.343 
3.76929 2.05407 -4.343 
3.78742 2.05407 -4.343 
3.80555 2.05407 -4.343 
3.78055 2.03089 -4.294 
3.79848 2.03089 -4.294 
3.81641 2.03089 -4.294 
3.79237 2.00867 -4.247 
3.8101 2.00867 -4.247 
3.78547 1.98644 -4.2 
3.76135 1.96468 -4.154 
3.73867 1.94387 -4.11 
3.71563 1.92306 -4.066 
3.7326 1.92306 -4.066 
3.70993 1.90272 -4.023 
3.68782 1.88286 -3.981 
3.70444 1.88286 -3.981 
3.72106 1.88286 -3.981 
3.69919 1.86347 -3.94 
3.71564 1.86347 -3.94 
3.6942 1.84455 -3.9 
3.67338 1.8261 -3.861 
3.6895 1.8261 -3.861 
3.66819 1.80766 -3.822 
3.68415 1.80766 -3.822 
3.66332 1.78968 -3.784 
3.67912 1.78968 -3.784 
3.65879 1.77218 -3.747 
3.67444 1.77218 -3.747 
3.65463 1.75516 -3.711 
3.67012 1.75516 -3.711 
3.64986 1.73813 -3.675 
3.66521 1.73813 -3.675 
3.68055 1.73813 -3.675 
3.6607 1.72158 -3.64 
3.6759 1.72158 -3.64 
-1.31798 0.666144 -1.421 
-1.31205 0.666144 -1.421 
-1.30152 0.6638 -1.416 
-1.29012 0.660988 -1.41 
-1.27968 0.658644 -1.405 
-1.27381 0.658644 -1.405 
-1.26795 0.658644 -1.405 
-1.26657 0.660988 -1.41 
-1.26068 0.660988 -1.41 
-1.2548 0.660988 -1.41 
-1.24891 0.660988 -1.41 
-1.24831 0.6638 -1.416 
-1.24679 0.666144 -1.421 
-1.24085 0.666144 -1.421 
-1.23926 0.668488 -1.426 
-1.23763 0.670832 -1.431 
-1.23682 0.673645 -1.437 
-1.23082 0.673645 -1.437 
-1.22909 0.675989 -1.442 
-1.22306 0.675989 -1.442 
-1.22211 0.678802 -1.448 
-1.21606 0.678802 -1.448 
-1.21419 0.681146 -1.453 
-1.20813 0.681146 -1.453 
-1.20702 0.683958 -1.459 
-1.20093 0.683958 -1.459 
-1.19484 0.683958 -1.459 
-1.19282 0.686302 -1.464 
-1.18671 0.686302 -1.464 
-1.1806 0.686302 -1.464 
-1.1793 0.689115 -1.47 
-1.17316 0.689115 -1.47 
-1.16702 0.689115 -1.47 
-1.16088 0.689115 -1.47 
-1.15946 0.691928 -1.476 
-1.1572 0.694272 -1.481 
-1.15102 0.694272 -1.481 
-1.14947 0.697084 -1.487 
-1.14327 0.697084 -1.487 
-1.14165 0.699897 -1.493 
-1.13997 0.70271 -1.499 
-1.13825 0.705522 -1.505 
-1.13197 0.705522 -1.505 
-1.12569 0.705522 -1.505 
-1.12386 0.708335 -1.511 
-1.11756 0.708335 -1.511 
-1.11566 0.711148 -1.517 
-1.10933 0.711148 -1.517 
-1.10735 0.713961 -1.523 
-1.10099 0.713961 -1.523 
-1.09895 0.716773 -1.529 
-1.09685 0.719586 -1.535 
-1.0947 0.722399 -1.541 
-1.08827 0.722399 -1.541 
-1.08605 0.725211 -1.547 
-1.08447 0.728493 -1.554 
-1.08215 0.731306 -1.56 
-1.07977 0.734118 -1.566 
-1.07803 0.7374 -1.573 
-1.07555 0.740213 -1.579 
-1.07369 0.743494 -1.586 
-1.07178 0.746776 -1.593 
-1.06513 0.746776 -1.593 
-1.06247 0.749588 -1.599 
-1.06041 0.75287 -1.606 
-1.0583 0.756151 -1.613 
-1.05613 0.759433 -1.62 
-1.05325 0.762245 -1.626 
-1.05097 0.765527 -1.633 
-1.04862 0.768808 -1.64 
-1.04622 0.77209 -1.647 
-1.04439 0.77584 -1.655 
-1.03748 0.77584 -1.655 
-1.03493 0.779122 -1.662 
-1.03232 0.782403 -1.669 
-1.02965 0.785685 -1.676 
-1.02266 0.785685 -1.676 
-1.02051 0.789435 -1.684 
-1.01348 0.789435 -1.684 
-1.00644 0.789435 -1.684 
-1.00357 0.792717 -1.691 
-0.996507 0.792717 -1.691 
-0.989446 0.792717 -1.691 
-0.987034 0.796467 -1.699 
-0.97994 0.796467 -1.699 
-0.976854 0.799748 -1.706 
-0.969731 0.799748 -1.706 
-0.967121 0.803499 -1.714 
-0.964445 0.807249 -1.722 
-0.957256 0.807249 -1.722 
-0.950066 0.807249 -1.722 
-0.946709 0.81053 -1.729 
-0.939489 0.81053 -1.729 
-0.936584 0.814281 -1.737 
-0.933611 0.818031 -1.745 
-0.930572 0.821781 -1.753 
-0.923253 0.821781 -1.753 
-0.920113 0.825532 -1.761 
-0.916907 0.829282 -1.769 
-0.914148 0.833501 -1.778 
-0.910804 0.837251 -1.786 
-0.907393 0.841001 -1.794 
-0.904417 0.845221 -1.803 
-0.900868 0.848971 -1.811 
-0.897746 0.85319 -1.82 
-0.894549 0.857409 -1.829 
-0.886912 0.857409 -1.829 
-0.883602 0.861628 -1.838 
-0.87974 0.865378 -1.846 
-0.876284 0.869597 -1.855 
-0.872753 0.873816 -1.864 
-0.86961 0.878504 -1.874 
-0.865924 0.882723 -1.883 
-0.862163 0.886942 -1.892 
-0.858779 0.89163 -1.902 
-0.854863 0.895849 -1.911 
-0.851316 0.900537 -1.921 
-0.847246 0.904756 -1.93 
-0.843536 0.909444 -1.94 
-0.839742 0.914132 -1.95 
-0.8316 0.914132 -1.95 
-0.827681 0.91882 -1.96 
-0.823678 0.923508 -1.97 
-0.815453 0.923508 -1.97 
-0.811325 0.928196 -1.98 
-0.803058 0.928196 -1.98 
-0.799206 0.933352 -1.991 
-0.794865 0.93804 -2.001 
-0.790834 0.943197 -2.012 
-0.782433 0.943197 -2.012 
-0.777879 0.947885 -2.022 
-0.773623 0.953041 -2.033 
-0.765134 0.953041 -2.033 
-0.76074 0.958198 -2.044 
-0.752205 0.958198 -2.044 
-0.747673 0.963355 -2.055 
-0.743049 0.968511 -2.066 
-0.734422 0.968511 -2.066 
-0.729661 0.973668 -2.077 
-0.725154 0.979293 -2.089 
-0.720204 0.98445 -2.1 
-0.715501 0.990075 -2.112 
-0.710363 0.995232 -2.123 
-0.705464 1.00086 -2.135 
-0.700465 1.00648 -2.147 
-0.695365 1.01211 -2.159 
-0.690483 1.0182 -2.172 
-0.685179 1.02383 -2.184 
-0.680084 1.02992 -2.197 
-0.670911 1.02992 -2.197 
-0.665352 1.03555 -2.209 
-0.65999 1.04164 -2.222 
-0.65452 1.04774 -2.235 
-0.648941 1.05383 -2.248 
-0.643537 1.06039 -2.262 
-0.634093 1.06039 -2.262 
-0.628238 1.06649 -2.275 
-0.622547 1.07305 -2.289 
-0.616471 1.07914 -2.302 
-0.61055 1.08571 -2.316 
-0.604771 1.09274 -2.331 
-0.595038 1.09274 -2.331 
-0.588821 1.0993 -2.345 
-0.57903 1.0993 -2.345 
-0.572637 1.10587 -2.359 
-0.566366 1.1129 -2.374 
-0.55997 1.11993 -2.389 
-0.549995 1.11993 -2.389 
-0.54341 1.12696 -2.404 
-0.533373 1.12696 -2.404 
-0.526601 1.13399 -2.419 
-0.5165 1.13399 -2.419 
-0.50954 1.14102 -2.434 
-0.50266 1.14852 -2.45 
-0.492431 1.14852 -2.45 
-0.48535 1.15603 -2.466 
-0.475054 1.15603 -2.466 
-0.467773 1.16353 -2.482 
-0.460358 1.17103 -2.498 
-0.45299 1.179 -2.515 
-0.445304 1.1865 -2.531 
-0.434736 1.1865 -2.531 
-0.427017 1.19447 -2.548 
-0.419157 1.20244 -2.565 
-0.411154 1.2104 -2.582 
-0.403164 1.21884 -2.6 
-0.395024 1.22728 -2.618 
-0.386734 1.23572 -2.636 
-0.378293 1.24416 -2.654 
-0.369841 1.25306 -2.673 
-0.36123 1.26197 -2.692 
-0.35246 1.27088 -2.711 
-0.343531 1.27978 -2.73 
-0.334566 1.28916 -2.75 
-0.325433 1.29854 -2.77 
-0.313868 1.29854 -2.77 
-0.304485 1.30791 -2.79 
-0.294934 1.31729 -2.81 
-0.285318 1.32713 -2.831 
-0.273498 1.32713 -2.831 
-0.263618 1.33698 -2.852 
-0.25171 1.33698 -2.852 
-0.241652 1.34729 -2.874 
-0.23133 1.35713 -2.895 
-0.219242 1.35713 -2.895 
-0.2088 1.36792 -2.918 
-0.196617 1.36792 -2.918 
-0.184433 1.36792 -2.918 
-0.174906 1.38901 -2.963 
-0.162534 1.38901 -2.963 
-0.151328 1.39979 -2.986 
-0.13993 1.41058 -3.009 
-0.127366 1.41058 -3.009 
-0.115718 1.42183 -3.033 
-0.103055 1.42183 -3.033 
-0.0911358 1.43355 -3.058 
-0.0783676 1.43355 -3.058 
-0.0655993 1.43355 -3.058 
-0.0523992 1.42183 -3.033 
-0.0397353 1.42183 -3.033 
-0.0270715 1.42183 -3.033 
-0.0144076 1.42183 -3.033 
-0.00174375 1.42183 -3.033 
0.0109201 1.42183 -3.033 
0.023584 1.42183 -3.033 
0.035961 1.41058 -3.009 
0.0485247 1.41058 -3.009 
0.0610883 1.41058 -3.009 
0.073652 1.41058 -3.009 
0.0855566 1.39979 -2.986 
0.0980242 1.39979 -2.986 
0.110492 1.39979 -2.986 
0.122959 1.39979 -2.986 
0.135427 1.39979 -2.986 
0.147895 1.39979 -2.986 
0.159127 1.38901 -2.963 
0.171499 1.38901 -2.963 
0.18387 1.38901 -2.963 
0.197765 1.39979 -2.986 
0.210233 1.39979 -2.986 
0.2227 1.39979 -2.986 
0.235168 1.39979 -2.986 
0.247636 1.39979 -2.986 
0.260103 1.39979 -2.986 
0.27467 1.41058 -3.009 
0.287234 1.41058 -3.009 
0.299798 1.41058 -3.009 
0.312361 1.41058 -3.009 
0.322441 1.39979 -2.986 
0.334909 1.39979 -2.986 
0.344701 1.38901 -2.963 
0.357072 1.38901 -2.963 
0.363833 1.36792 -2.918 
0.376017 1.36792 -2.918 
0.382347 1.34729 -2.874 
0.394347 1.34729 -2.874 
0.403236 1.33698 -2.852 
0.415145 1.33698 -2.852 
0.423908 1.32713 -2.831 
0.435729 1.32713 -2.831 
0.447549 1.32713 -2.831 
0.462777 1.33698 -2.852 
0.474685 1.33698 -2.852 
0.486593 1.33698 -2.852 
0.502347 1.34729 -2.874 
0.514347 1.34729 -2.874 
0.530193 1.35713 -2.895 
0.546589 1.36792 -2.918 
0.558772 1.36792 -2.918 
0.575261 1.37823 -2.94 
0.592133 1.38901 -2.963 
0.604504 1.38901 -2.963 
0.616876 1.38901 -2.963 
0.629247 1.38901 -2.963 
0.646599 1.39979 -2.986 
0.659067 1.39979 -2.986 
0.676707 1.41058 -3.009 
0.684002 1.39979 -2.986 
0.69647 1.39979 -2.986 
0.708937 1.39979 -2.986 
0.715848 1.38901 -2.963 
0.72822 1.38901 -2.963 
0.734843 1.37823 -2.94 
0.747118 1.37823 -2.94 
0.753711 1.36792 -2.918 
0.765895 1.36792 -2.918 
0.771946 1.35713 -2.895 
0.778346 1.34729 -2.874 
0.790346 1.34729 -2.874 
0.802346 1.34729 -2.874 
0.808113 1.33698 -2.852 
0.820021 1.33698 -2.852 
0.831929 1.33698 -2.852 
0.850346 1.34729 -2.874 
0.862346 1.34729 -2.874 
0.880735 1.35713 -2.895 
0.892823 1.35713 -2.895 
0.912099 1.36792 -2.918 
0.931252 1.37823 -2.94 
0.950909 1.38901 -2.963 
0.970757 1.39979 -2.986 
0.983225 1.39979 -2.986 
0.995693 1.39979 -2.986 
1.00816 1.39979 -2.986 
1.02063 1.39979 -2.986 
1.0331 1.39979 -2.986 
1.04556 1.39979 -2.986 
1.04988 1.38901 -2.963 
1.06225 1.38901 -2.963 
1.06628 1.37823 -2.94 
1.07049 1.36792 -2.918 
1.07414 1.35713 -2.895 
1.07835 1.34729 -2.874 
1.09035 1.34729 -2.874 
1.09391 1.33698 -2.852 
1.09767 1.32713 -2.831 
1.10949 1.32713 -2.831 
1.113 1.31729 -2.81 
1.11672 1.30791 -2.79 
1.12837 1.30791 -2.79 
1.13185 1.29854 -2.77 
1.13516 1.28916 -2.75 
1.14664 1.28916 -2.75 
1.1497 1.27978 -2.73 
1.15302 1.27088 -2.711 
1.15618 1.26197 -2.692 
1.15918 1.25306 -2.673 
1.16202 1.24416 -2.654 
1.16515 1.23572 -2.636 
1.16812 1.22728 -2.618 
1.17905 1.22728 -2.618 
1.1818 1.21884 -2.6 
1.1844 1.2104 -2.582 
1.18731 1.20244 -2.565 
1.19802 1.20244 -2.565 
1.20873 1.20244 -2.565 
1.21136 1.19447 -2.548 
1.222 1.19447 -2.548 
1.23264 1.19447 -2.548 
1.24328 1.19447 -2.548 
1.24555 1.1865 -2.531 
1.25612 1.1865 -2.531 
1.26668 1.1865 -2.531 
1.27725 1.1865 -2.531 
1.28782 1.1865 -2.531 
1.29839 1.1865 -2.531 
1.30896 1.1865 -2.531 
1.31952 1.1865 -2.531 
1.33009 1.1865 -2.531 
1.34066 1.1865 -2.531 
1.35123 1.1865 -2.531 
1.36179 1.1865 -2.531 
1.37236 1.1865 -2.531 
1.38293 1.1865 -2.531 
1.40286 1.19447 -2.548 
1.4135 1.19447 -2.548 
1.43364 1.20244 -2.565 
1.44435 1.20244 -2.565 
1.45506 1.20244 -2.565 
1.48577 1.21884 -2.6 
1.52771 1.24416 -2.654 
1.59445 1.28916 -2.75 
1.67834 1.34729 -2.874 
1.76974 1.41058 -3.009 
1.87116 1.48089 -3.159 
2.00007 1.57184 -3.353 
2.16604 1.69044 -3.606 
2.31174 1.7917 -3.822 
2.4763 1.90608 -4.066 
2.57545 1.9689 -4.2 
2.65102 2.01297 -4.294 
2.73048 2.05938 -4.393 
2.78074 2.08328 -4.444 
2.79929 2.08328 -4.444 
2.85146 2.10813 -4.497 
2.87023 2.10813 -4.497 
2.88901 2.10813 -4.497 
2.94206 2.13297 -4.55 
2.96105 2.13297 -4.55 
2.98005 2.13297 -4.55 
2.99905 2.13297 -4.55 
3.05453 2.15876 -4.605 
3.07376 2.15876 -4.605 
3.09298 2.15876 -4.605 
3.07504 2.13297 -4.55 
3.09404 2.13297 -4.55 
3.11304 2.13297 -4.55 
3.13203 2.13297 -4.55 
3.15103 2.13297 -4.55 
3.17003 2.13297 -4.55 
3.18903 2.13297 -4.55 
3.20803 2.13297 -4.55 
3.26603 2.15876 -4.605 
3.28526 2.15876 -4.605 
3.30449 2.15876 -4.605 
3.32371 2.15876 -4.605 
3.34294 2.15876 -4.605 
3.36217 2.15876 -4.605 
3.3814 2.15876 -4.605 
3.40062 2.15876 -4.605 
3.41985 2.15876 -4.605 
3.43908 2.15876 -4.605 
3.45831 2.15876 -4.605 
3.47753 2.15876 -4.605 
3.49676 2.15876 -4.605 
3.51599 2.15876 -4.605 
3.53522 2.15876 -4.605 
3.55444 2.15876 -4.605 
3.57367 2.15876 -4.605 
3.5929 2.15876 -4.605 
3.61213 2.15876 -4.605 
3.63135 2.15876 -4.605 
3.65058 2.15876 -4.605 
3.66981 2.15876 -4.605 
3.68904 2.15876 -4.605 
3.66397 2.13297 -4.55 
3.68297 2.13297 -4.55 
3.70197 2.13297 -4.55 
3.72097 2.13297 -4.55 
3.73997 2.13297 -4.55 
3.71518 2.10813 -4.497 
3.73395 2.10813 -4.497 
3.75273 2.10813 -4.497 
3.72706 2.08328 -4.444 
3.74561 2.08328 -4.444 
3.76417 2.08328 -4.444 
3.78272 2.08328 -4.444 
3.75766 2.05938 -4.393 
3.776 2.05938 -4.393 
3.79434 2.05938 -4.393 
3.76929 2.03594 -4.343 
3.78742 2.03594 -4.343 
3.80555 2.03594 -4.343 
3.82369 2.03594 -4.343 
3.79848 2.01297 -4.294 
3.81641 2.01297 -4.294 
3.79237 1.99093 -4.247 
3.8101 1.99093 -4.247 
3.78547 1.9689 -4.2 
3.76135 1.94734 -4.154 
3.7787 1.94734 -4.154 
3.75583 1.92671 -4.11 
3.7326 1.90608 -4.066 
3.74958 1.90608 -4.066 
3.72672 1.88592 -4.023 
3.74352 1.88592 -4.023 
3.72106 1.86624 -3.981 
3.73768 1.86624 -3.981 
3.71564 1.84702 -3.94 
3.6942 1.82826 -3.9 
3.71049 1.82826 -3.9 
3.65223 1.7917 -3.822 
3.66819 1.7917 -3.822 
3.64752 1.77388 -3.784 
3.6275 1.75654 -3.747 
3.64315 1.75654 -3.747 
3.62364 1.73966 -3.711 
3.60383 1.72279 -3.675 
3.61917 1.72279 -3.675 
3.5999 1.70638 -3.64 
3.58134 1.69044 -3.606 
3.6303 1.70638 -3.64 
3.61145 1.69044 -3.606 
3.59231 1.6745 -3.572 
3.60723 1.6745 -3.572 
-1.32858 0.662534 -1.426 
-1.32262 0.662534 -1.426 
-1.31667 0.662534 -1.426 
-1.30612 0.660211 -1.421 
-1.29012 0.655101 -1.41 
-1.28423 0.655101 -1.41 
-1.27834 0.655101 -1.41 
-1.26795 0.652777 -1.405 
-1.26657 0.655101 -1.41 
-1.26068 0.655101 -1.41 
-1.2548 0.655101 -1.41 
-1.24891 0.655101 -1.41 
-1.24831 0.657888 -1.416 
-1.24679 0.660211 -1.421 
-1.24522 0.662534 -1.426 
-1.24361 0.664857 -1.431 
-1.23763 0.664857 -1.431 
-1.23682 0.667645 -1.437 
-1.23082 0.667645 -1.437 
-1.22909 0.669968 -1.442 
-1.22306 0.669968 -1.442 
-1.22211 0.672756 -1.448 
-1.21606 0.672756 -1.448 
-1.21419 0.675079 -1.453 
-1.20813 0.675079 -1.453 
-1.20702 0.677866 -1.459 
-1.20093 0.677866 -1.459 
-1.19484 0.677866 -1.459 
-1.19282 0.680189 -1.464 
-1.18671 0.680189 -1.464 
-1.1806 0.680189 -1.464 
-1.1793 0.682977 -1.47 
-1.17316 0.682977 -1.47 
-1.16702 0.682977 -1.47 
-1.16088 0.682977 -1.47 
-1.15946 0.685765 -1.476 
-1.1572 0.688088 -1.481 
-1.15568 0.690876 -1.487 
-1.14947 0.690876 -1.487 
-1.14327 0.690876 -1.487 
-1.14623 0.696451 -1.499 
-1.13997 0.696451 -1.499 
-1.13825 0.699239 -1.505 
-1.13197 0.699239 -1.505 
-1.12569 0.699239 -1.505 
-1.12386 0.702026 -1.511 
-1.11756 0.702026 -1.511 
-1.11566 0.704814 -1.517 
-1.10933 0.704814 -1.517 
-1.10735 0.707601 -1.523 
-1.10099 0.707601 -1.523 
-1.09895 0.710389 -1.529 
-1.09685 0.713177 -1.535 
-1.0947 0.715964 -1.541 
-1.08827 0.715964 -1.541 
-1.08605 0.718752 -1.547 
-1.08447 0.722004 -1.554 
-1.08215 0.724792 -1.56 
-1.07977 0.72758 -1.566 
-1.07803 0.730832 -1.573 
-1.07555 0.73362 -1.579 
-1.07369 0.736872 -1.586 
-1.07178 0.740124 -1.593 
-1.06914 0.742912 -1.599 
-1.06712 0.746164 -1.606 
-1.06041 0.746164 -1.606 
-1.0583 0.749416 -1.613 
-1.05613 0.752669 -1.62 
-1.05325 0.755456 -1.626 
-1.05547 0.761961 -1.64 
-1.04862 0.761961 -1.64 
-1.04622 0.765213 -1.647 
-1.04439 0.76893 -1.655 
-1.04187 0.772182 -1.662 
-1.03929 0.775435 -1.669 
-1.03232 0.775435 -1.669 
-1.02965 0.778687 -1.676 
-1.02266 0.778687 -1.676 
-1.02051 0.782404 -1.684 
-1.01348 0.782404 -1.684 
-1.00644 0.782404 -1.684 
-1.00357 0.785656 -1.691 
-0.996507 0.785656 -1.691 
-0.989446 0.785656 -1.691 
-0.987034 0.789373 -1.699 
-0.97994 0.789373 -1.699 
-0.976854 0.792625 -1.706 
-0.969731 0.792625 -1.706 
-0.967121 0.796342 -1.714 
-0.964445 0.800059 -1.722 
-0.957256 0.800059 -1.722 
-0.950066 0.800059 -1.722 
-0.946709 0.803311 -1.729 
-0.939489 0.803311 -1.729 
-0.936584 0.807028 -1.737 
-0.929331 0.807028 -1.737 
-0.926325 0.810745 -1.745 
-0.923253 0.814462 -1.753 
-0.920113 0.818179 -1.761 
-0.916907 0.821896 -1.769 
-0.914148 0.826077 -1.778 
-0.910804 0.829794 -1.786 
-0.907393 0.833511 -1.794 
-0.904417 0.837692 -1.803 
-0.900868 0.841409 -1.811 
-0.897746 0.845591 -1.82 
-0.894549 0.849772 -1.829 
-0.886912 0.849772 -1.829 
-0.883602 0.853954 -1.838 
-0.87974 0.857671 -1.846 
-0.872033 0.857671 -1.846 
-0.872753 0.866034 -1.864 
-0.86961 0.87068 -1.874 
-0.865924 0.874861 -1.883 
-0.862163 0.879043 -1.892 
-0.858779 0.883689 -1.902 
-0.854863 0.88787 -1.911 
-0.851316 0.892516 -1.921 
-0.847246 0.896698 -1.93 
-0.843536 0.901344 -1.94 
-0.835435 0.901344 -1.94 
-0.8316 0.90599 -1.95 
-0.827681 0.910636 -1.96 
-0.819497 0.910636 -1.96 
-0.815453 0.915282 -1.97 
-0.811325 0.919928 -1.98 
-0.803058 0.919928 -1.98 
-0.799206 0.925039 -1.991 
-0.794865 0.929685 -2.001 
-0.790834 0.934796 -2.012 
-0.782433 0.934796 -2.012 
-0.777879 0.939442 -2.022 
-0.769437 0.939442 -2.022 
-0.765134 0.944553 -2.033 
-0.76074 0.949663 -2.044 
-0.752205 0.949663 -2.044 
-0.747673 0.954774 -2.055 
-0.743049 0.959885 -2.066 
-0.734422 0.959885 -2.066 
-0.729661 0.964996 -2.077 
-0.725154 0.970571 -2.089 
-0.720204 0.975682 -2.1 
-0.715501 0.981257 -2.112 
-0.710363 0.986368 -2.123 
-0.705464 0.991943 -2.135 
-0.700465 0.997518 -2.147 
-0.695365 1.00309 -2.159 
-0.690483 1.00913 -2.172 
-0.685179 1.01471 -2.184 
-0.67606 1.01471 -2.184 
-0.670911 1.02075 -2.197 
-0.665352 1.02632 -2.209 
-0.65999 1.03236 -2.222 
-0.65452 1.0384 -2.235 
-0.648941 1.04444 -2.248 
-0.639554 1.04444 -2.248 
-0.634093 1.05095 -2.262 
-0.628238 1.05699 -2.275 
-0.622547 1.06349 -2.289 
-0.616471 1.06953 -2.302 
-0.61055 1.07604 -2.316 
-0.604771 1.08301 -2.331 
-0.595038 1.08301 -2.331 
-0.588821 1.08951 -2.345 
-0.57903 1.08951 -2.345 
-0.572637 1.09602 -2.359 
-0.566366 1.10298 -2.374 
-0.556454 1.10298 -2.374 
-0.549995 1.10995 -2.389 
-0.54341 1.11692 -2.404 
-0.533373 1.11692 -2.404 
-0.526601 1.12389 -2.419 
-0.5165 1.12389 -2.419 
-0.50954 1.13086 -2.434 
-0.50266 1.1383 -2.45 
-0.492431 1.1383 -2.45 
-0.48535 1.14573 -2.466 
-0.475054 1.14573 -2.466 
-0.467773 1.15316 -2.482 
-0.460358 1.1606 -2.498 
-0.45299 1.16849 -2.515 
-0.442489 1.16849 -2.515 
-0.434736 1.17593 -2.531 
-0.427017 1.18383 -2.548 
-0.419157 1.19173 -2.565 
-0.411154 1.19962 -2.582 
-0.403164 1.20799 -2.6 
-0.395024 1.21635 -2.618 
-0.386734 1.22471 -2.636 
-0.378293 1.23308 -2.654 
-0.369841 1.2419 -2.673 
-0.36123 1.25073 -2.692 
-0.35246 1.25956 -2.711 
-0.343531 1.26839 -2.73 
-0.334566 1.27768 -2.75 
-0.325433 1.28697 -2.77 
-0.313868 1.28697 -2.77 
-0.304485 1.29626 -2.79 
-0.294934 1.30555 -2.81 
-0.285318 1.31531 -2.831 
-0.273498 1.31531 -2.831 
-0.263618 1.32507 -2.852 
-0.25171 1.32507 -2.852 
-0.241652 1.33529 -2.874 
-0.23133 1.34505 -2.895 
-0.219242 1.34505 -2.895 
-0.2088 1.35573 -2.918 
-0.196617 1.35573 -2.918 
-0.185824 1.36595 -2.94 
-0.174906 1.37664 -2.963 
-0.163796 1.38733 -2.986 
-0.152494 1.39801 -3.009 
-0.13993 1.39801 -3.009 
-0.128382 1.40916 -3.033 
-0.115718 1.40916 -3.033 
-0.103055 1.40916 -3.033 
-0.0911358 1.42078 -3.058 
-0.0783676 1.42078 -3.058 
-0.0655993 1.42078 -3.058 
-0.0528311 1.42078 -3.058 
-0.0400629 1.42078 -3.058 
-0.0272946 1.42078 -3.058 
-0.0145264 1.42078 -3.058 
-0.00174375 1.40916 -3.033 
0.0109201 1.40916 -3.033 
0.023584 1.40916 -3.033 
0.0362478 1.40916 -3.033 
0.0489117 1.40916 -3.033 
0.0615756 1.40916 -3.033 
0.0742394 1.40916 -3.033 
0.0862156 1.39801 -3.009 
0.0987793 1.39801 -3.009 
0.111343 1.39801 -3.009 
0.123907 1.39801 -3.009 
0.13647 1.39801 -3.009 
0.149034 1.39801 -3.009 
0.161598 1.39801 -3.009 
0.174161 1.39801 -3.009 
0.186725 1.39801 -3.009 
0.199288 1.39801 -3.009 
0.211852 1.39801 -3.009 
0.224416 1.39801 -3.009 
0.236979 1.39801 -3.009 
0.249543 1.39801 -3.009 
0.262107 1.39801 -3.009 
0.276861 1.40916 -3.033 
0.289525 1.40916 -3.033 
0.302189 1.40916 -3.033 
0.314853 1.40916 -3.033 
0.324925 1.39801 -3.009 
0.337489 1.39801 -3.009 
0.350052 1.39801 -3.009 
0.359844 1.38733 -2.986 
0.372312 1.38733 -2.986 
0.381816 1.37664 -2.963 
0.391127 1.36595 -2.94 
0.400384 1.35573 -2.918 
0.409316 1.34505 -2.895 
0.421404 1.34505 -2.895 
0.430347 1.33529 -2.874 
0.442347 1.33529 -2.874 
0.454347 1.33529 -2.874 
0.466347 1.33529 -2.874 
0.481842 1.34505 -2.895 
0.497854 1.35573 -2.918 
0.510038 1.35573 -2.918 
0.522221 1.35573 -2.918 
0.538434 1.36595 -2.94 
0.55071 1.36595 -2.94 
0.562985 1.36595 -2.94 
0.579761 1.37664 -2.963 
0.592133 1.37664 -2.963 
0.604504 1.37664 -2.963 
0.616876 1.37664 -2.963 
0.629247 1.37664 -2.963 
0.646599 1.38733 -2.986 
0.659067 1.38733 -2.986 
0.671535 1.38733 -2.986 
0.684002 1.38733 -2.986 
0.691105 1.37664 -2.963 
0.708937 1.38733 -2.986 
0.715848 1.37664 -2.963 
0.72822 1.37664 -2.963 
0.734843 1.36595 -2.94 
0.747118 1.36595 -2.94 
0.759394 1.36595 -2.94 
0.765895 1.35573 -2.918 
0.771946 1.34505 -2.895 
0.784034 1.34505 -2.895 
0.796121 1.34505 -2.895 
0.802346 1.33529 -2.874 
0.814346 1.33529 -2.874 
0.826346 1.33529 -2.874 
0.844472 1.34505 -2.895 
0.85656 1.34505 -2.895 
0.868647 1.34505 -2.895 
0.887732 1.35573 -2.918 
0.899916 1.35573 -2.918 
0.918976 1.36595 -2.94 
0.938537 1.37664 -2.963 
0.950909 1.37664 -2.963 
0.970757 1.38733 -2.986 
0.990798 1.39801 -3.009 
1.00336 1.39801 -3.009 
1.01593 1.39801 -3.009 
1.02849 1.39801 -3.009 
1.04105 1.39801 -3.009 
1.04556 1.38733 -2.986 
1.04988 1.37664 -2.963 
1.06225 1.37664 -2.963 
1.06628 1.36595 -2.94 
1.07049 1.35573 -2.918 
1.07414 1.34505 -2.895 
1.07835 1.33529 -2.874 
1.09035 1.33529 -2.874 
1.09391 1.32507 -2.852 
1.09767 1.31531 -2.831 
1.10949 1.31531 -2.831 
1.113 1.30555 -2.81 
1.11672 1.29626 -2.79 
1.12837 1.29626 -2.79 
1.13185 1.28697 -2.77 
1.13516 1.27768 -2.75 
1.1383 1.26839 -2.73 
1.1497 1.26839 -2.73 
1.15302 1.25956 -2.711 
1.15618 1.25073 -2.692 
1.15918 1.2419 -2.673 
1.16202 1.23308 -2.654 
1.16515 1.22471 -2.636 
1.17615 1.22471 -2.636 
1.17905 1.21635 -2.618 
1.1818 1.20799 -2.6 
1.1844 1.19962 -2.582 
1.19518 1.19962 -2.582 
1.19802 1.19173 -2.565 
1.20873 1.19173 -2.565 
1.21944 1.19173 -2.565 
1.222 1.18383 -2.548 
1.23264 1.18383 -2.548 
1.24328 1.18383 -2.548 
1.24555 1.17593 -2.531 
1.25612 1.17593 -2.531 
1.26668 1.17593 -2.531 
1.27725 1.17593 -2.531 
1.28782 1.17593 -2.531 
1.29839 1.17593 -2.531 
1.30896 1.17593 -2.531 
1.31952 1.17593 -2.531 
1.33009 1.17593 -2.531 
1.34066 1.17593 -2.531 
1.34269 1.16849 -2.515 
1.35319 1.16849 -2.515 
1.37236 1.17593 -2.531 
1.38293 1.17593 -2.531 
1.3935 1.17593 -2.531 
1.4135 1.18383 -2.548 
1.42414 1.18383 -2.548 
1.43477 1.18383 -2.548 
1.44541 1.18383 -2.548 
1.47548 1.19962 -2.582 
1.52771 1.23308 -2.654 
1.58285 1.26839 -2.73 
1.6655 1.32507 -2.852 
1.76974 1.39801 -3.009 
1.87116 1.4677 -3.159 
2.00007 1.55784 -3.353 
2.14562 1.65959 -3.572 
2.31174 1.77574 -3.822 
2.4763 1.88911 -4.066 
2.57545 1.95136 -4.2 
2.65102 1.99504 -4.294 
2.73048 2.04103 -4.393 
2.78074 2.06473 -4.444 
2.79929 2.06473 -4.444 
2.85146 2.08935 -4.497 
2.87023 2.08935 -4.497 
2.88901 2.08935 -4.497 
2.94206 2.11398 -4.55 
2.96105 2.11398 -4.55 
3.01607 2.13953 -4.605 
3.0353 2.13953 -4.605 
3.05453 2.13953 -4.605 
3.07376 2.13953 -4.605 
3.09298 2.13953 -4.605 
3.11221 2.13953 -4.605 
3.09404 2.11398 -4.55 
3.11304 2.11398 -4.55 
3.13203 2.11398 -4.55 
3.15103 2.11398 -4.55 
3.17003 2.11398 -4.55 
3.18903 2.11398 -4.55 
3.20803 2.11398 -4.55 
3.22702 2.11398 -4.55 
3.24602 2.11398 -4.55 
3.30449 2.13953 -4.605 
3.32371 2.13953 -4.605 
3.34294 2.13953 -4.605 
3.36217 2.13953 -4.605 
3.3814 2.13953 -4.605 
3.40062 2.13953 -4.605 
3.41985 2.13953 -4.605 
3.43908 2.13953 -4.605 
3.45831 2.13953 -4.605 
3.47753 2.13953 -4.605 
3.49676 2.13953 -4.605 
3.51599 2.13953 -4.605 
3.53522 2.13953 -4.605 
3.55444 2.13953 -4.605 
3.57367 2.13953 -4.605 
3.5929 2.13953 -4.605 
3.61213 2.13953 -4.605 
3.63135 2.13953 -4.605 
3.65058 2.13953 -4.605 
3.66981 2.13953 -4.605 
3.68904 2.13953 -4.605 
3.70826 2.13953 -4.605 
3.68297 2.11398 -4.55 
3.70197 2.11398 -4.55 
3.72097 2.11398 -4.55 
3.73997 2.11398 -4.55 
3.75896 2.11398 -4.55 
3.73395 2.08935 -4.497 
3.75273 2.08935 -4.497 
3.77151 2.08935 -4.497 
3.79028 2.08935 -4.497 
3.76417 2.06473 -4.444 
3.78272 2.06473 -4.444 
3.80128 2.06473 -4.444 
3.776 2.04103 -4.393 
3.79434 2.04103 -4.393 
3.81268 2.04103 -4.393 
3.78742 2.0178 -4.343 
3.80555 2.0178 -4.343 
3.82369 2.0178 -4.343 
3.84182 2.0178 -4.343 
3.85996 2.0178 -4.343 
3.83433 1.99504 -4.294 
3.8101 1.9732 -4.247 
3.82783 1.9732 -4.247 
3.80301 1.95136 -4.2 
3.7787 1.92999 -4.154 
3.79604 1.92999 -4.154 
3.773 1.90955 -4.11 
3.74958 1.88911 -4.066 
3.76656 1.88911 -4.066 
3.74352 1.86913 -4.023 
3.76032 1.86913 -4.023 
3.73768 1.84961 -3.981 
3.71564 1.83056 -3.94 
3.73209 1.83056 -3.94 
3.67338 1.79386 -3.861 
3.6895 1.79386 -3.861 
3.63172 1.75809 -3.784 
3.61186 1.74089 -3.747 
3.59265 1.72417 -3.711 
3.57314 1.70744 -3.675 
3.55431 1.69118 -3.64 
3.53617 1.67538 -3.606 
3.55122 1.67538 -3.606 
3.50002 1.64426 -3.539 
3.51479 1.64426 -3.539 
3.52957 1.64426 -3.539 
3.54435 1.64426 -3.539 
3.52594 1.62892 -3.506 
3.54058 1.62892 -3.506 
-1.3495 0.663947 -1.442 
-1.33882 0.661645 -1.437 
-1.32726 0.658882 -1.431 
-1.31667 0.65658 -1.426 
-1.30612 0.654278 -1.421 
-1.29561 0.651976 -1.416 
-1.28423 0.649213 -1.41 
-1.27381 0.646911 -1.405 
-1.27246 0.649213 -1.41 
-1.26657 0.649213 -1.41 
-1.26068 0.649213 -1.41 
-1.2548 0.649213 -1.41 
-1.24891 0.649213 -1.41 
-1.24831 0.651976 -1.416 
-1.24679 0.654278 -1.421 
-1.24522 0.65658 -1.426 
-1.23926 0.65658 -1.426 
-1.23763 0.658882 -1.431 
-1.23682 0.661645 -1.437 
-1.23082 0.661645 -1.437 
-1.22909 0.663947 -1.442 
-1.22306 0.663947 -1.442 
-1.22211 0.66671 -1.448 
-1.21606 0.66671 -1.448 
-1.21419 0.669012 -1.453 
-1.20813 0.669012 -1.453 
-1.20702 0.671775 -1.459 
-1.20093 0.671775 -1.459 
-1.19894 0.674077 -1.464 
-1.19282 0.674077 -1.464 
-1.18671 0.674077 -1.464 
-1.18544 0.676839 -1.47 
-1.1793 0.676839 -1.47 
-1.17316 0.676839 -1.47 
-1.16702 0.676839 -1.47 
-1.16562 0.679602 -1.476 
-1.15946 0.679602 -1.476 
-1.1572 0.681904 -1.481 
-1.15568 0.684667 -1.487 
-1.14947 0.684667 -1.487 
-1.14788 0.687429 -1.493 
-1.14623 0.690192 -1.499 
-1.13997 0.690192 -1.499 
-1.13825 0.692955 -1.505 
-1.13197 0.692955 -1.505 
-1.12569 0.692955 -1.505 
-1.12386 0.695717 -1.511 
-1.11756 0.695717 -1.511 
-1.11566 0.69848 -1.517 
-1.10933 0.69848 -1.517 
-1.10735 0.701242 -1.523 
-1.10099 0.701242 -1.523 
-1.09895 0.704005 -1.529 
-1.09685 0.706768 -1.535 
-1.09044 0.706768 -1.535 
-1.08827 0.70953 -1.541 
-1.08605 0.712293 -1.547 
-1.08447 0.715516 -1.554 
-1.08215 0.718278 -1.56 
-1.07977 0.721041 -1.566 
-1.07803 0.724264 -1.573 
-1.07555 0.727027 -1.579 
-1.07369 0.73025 -1.586 
-1.07178 0.733473 -1.593 
-1.06914 0.736235 -1.599 
-1.06712 0.739459 -1.606 
-1.06503 0.742682 -1.613 
-1.06289 0.745905 -1.62 
-1.05613 0.745905 -1.62 
-1.05778 0.75189 -1.633 
-1.05547 0.755113 -1.64 
-1.0531 0.758336 -1.647 
-1.04622 0.758336 -1.647 
-1.04439 0.76202 -1.655 
-1.04187 0.765243 -1.662 
-1.03929 0.768466 -1.669 
-1.03665 0.771689 -1.676 
-1.02965 0.771689 -1.676 
-1.02266 0.771689 -1.676 
-1.02051 0.775372 -1.684 
-1.01348 0.775372 -1.684 
-1.00644 0.775372 -1.684 
-1.00357 0.778596 -1.691 
-0.996507 0.778596 -1.691 
-0.989446 0.778596 -1.691 
-0.987034 0.782279 -1.699 
-0.97994 0.782279 -1.699 
-0.976854 0.785502 -1.706 
-0.969731 0.785502 -1.706 
-0.967121 0.789185 -1.714 
-0.964445 0.792869 -1.722 
-0.957256 0.792869 -1.722 
-0.950066 0.792869 -1.722 
-0.942876 0.792869 -1.722 
-0.939489 0.796092 -1.729 
-0.936584 0.799775 -1.737 
-0.929331 0.799775 -1.737 
-0.926325 0.803459 -1.745 
-0.923253 0.807142 -1.753 
-0.920113 0.810826 -1.761 
-0.916907 0.814509 -1.769 
-0.914148 0.818653 -1.778 
-0.910804 0.822337 -1.786 
-0.907393 0.82602 -1.794 
-0.904417 0.830164 -1.803 
-0.900868 0.833848 -1.811 
-0.897746 0.837992 -1.82 
-0.890147 0.837992 -1.82 
-0.886912 0.842135 -1.829 
-0.879275 0.842135 -1.829 
-0.875928 0.846279 -1.838 
-0.872033 0.849963 -1.846 
-0.868539 0.854107 -1.855 
-0.86961 0.862855 -1.874 
-0.865924 0.866999 -1.883 
-0.862163 0.871143 -1.892 
-0.858779 0.875747 -1.902 
-0.854863 0.879891 -1.911 
-0.846884 0.879891 -1.911 
-0.843295 0.884495 -1.921 
-0.839187 0.888639 -1.93 
-0.835435 0.893244 -1.94 
-0.8316 0.897848 -1.95 
-0.827681 0.902452 -1.96 
-0.819497 0.902452 -1.96 
-0.815453 0.907057 -1.97 
-0.811325 0.911661 -1.98 
-0.803058 0.911661 -1.98 
-0.799206 0.916726 -1.991 
-0.794865 0.92133 -2.001 
-0.790834 0.926395 -2.012 
-0.782433 0.926395 -2.012 
-0.774032 0.926395 -2.012 
-0.769437 0.930999 -2.022 
-0.765134 0.936064 -2.033 
-0.76074 0.941129 -2.044 
-0.752205 0.941129 -2.044 
-0.747673 0.946194 -2.055 
-0.743049 0.951259 -2.066 
-0.738333 0.956323 -2.077 
-0.729661 0.956323 -2.077 
-0.725154 0.961849 -2.089 
-0.720204 0.966913 -2.1 
-0.715501 0.972439 -2.112 
-0.710363 0.977503 -2.123 
-0.705464 0.983029 -2.135 
-0.700465 0.988554 -2.147 
-0.695365 0.994079 -2.159 
-0.690483 1.00006 -2.172 
-0.681415 1.00006 -2.172 
-0.67606 1.00559 -2.184 
-0.670911 1.01158 -2.197 
-0.665352 1.0171 -2.209 
-0.65999 1.02309 -2.222 
-0.65452 1.02907 -2.235 
-0.648941 1.03506 -2.248 
-0.639554 1.03506 -2.248 
-0.634093 1.0415 -2.262 
-0.628238 1.04749 -2.275 
-0.622547 1.05394 -2.289 
-0.616471 1.05992 -2.302 
-0.61055 1.06637 -2.316 
-0.604771 1.07327 -2.331 
-0.595038 1.07327 -2.331 
-0.588821 1.07972 -2.345 
-0.57903 1.07972 -2.345 
-0.572637 1.08617 -2.359 
-0.566366 1.09307 -2.374 
-0.55997 1.09998 -2.389 
-0.549995 1.09998 -2.389 
-0.54341 1.10689 -2.404 
-0.533373 1.10689 -2.404 
-0.526601 1.11379 -2.419 
-0.519703 1.1207 -2.434 
-0.50954 1.1207 -2.434 
-0.50266 1.12807 -2.45 
-0.492431 1.12807 -2.45 
-0.48535 1.13543 -2.466 
-0.475054 1.13543 -2.466 
-0.467773 1.1428 -2.482 
-0.460358 1.15017 -2.498 
-0.45299 1.15799 -2.515 
-0.442489 1.15799 -2.515 
-0.434736 1.16536 -2.531 
-0.427017 1.17319 -2.548 
-0.419157 1.18102 -2.565 
-0.411154 1.18884 -2.582 
-0.403164 1.19713 -2.6 
-0.395024 1.20542 -2.618 
-0.386734 1.21371 -2.636 
-0.378293 1.22199 -2.654 
-0.369841 1.23074 -2.673 
-0.36123 1.23949 -2.692 
-0.35246 1.24824 -2.711 
-0.343531 1.25699 -2.73 
-0.334566 1.2662 -2.75 
-0.325433 1.2754 -2.77 
-0.313868 1.2754 -2.77 
-0.304485 1.28461 -2.79 
-0.294934 1.29382 -2.81 
-0.285318 1.30349 -2.831 
-0.273498 1.30349 -2.831 
-0.263618 1.31316 -2.852 
-0.253652 1.32329 -2.874 
-0.241652 1.32329 -2.874 
-0.23133 1.33296 -2.895 
-0.219242 1.33296 -2.895 
-0.2088 1.34355 -2.918 
-0.198099 1.35368 -2.94 
-0.187277 1.36427 -2.963 
-0.174906 1.36427 -2.963 
-0.163796 1.37486 -2.986 
-0.152494 1.38545 -3.009 
-0.141046 1.3965 -3.033 
-0.128382 1.3965 -3.033 
-0.116672 1.40801 -3.058 
-0.103904 1.40801 -3.058 
-0.0918511 1.41906 -3.082 
-0.0789826 1.41906 -3.082 
-0.0655993 1.40801 -3.058 
-0.0528311 1.40801 -3.058 
-0.0400629 1.40801 -3.058 
-0.0272946 1.40801 -3.058 
-0.0145264 1.40801 -3.058 
-0.00175813 1.40801 -3.058 
0.0110101 1.40801 -3.058 
0.0237784 1.40801 -3.058 
0.0365466 1.40801 -3.058 
0.0493149 1.40801 -3.058 
0.0620831 1.40801 -3.058 
0.0748513 1.40801 -3.058 
0.0876196 1.40801 -3.058 
0.0995671 1.3965 -3.033 
0.112231 1.3965 -3.033 
0.124895 1.3965 -3.033 
0.138693 1.40801 -3.058 
0.151461 1.40801 -3.058 
0.162886 1.3965 -3.033 
0.17555 1.3965 -3.033 
0.188214 1.3965 -3.033 
0.200878 1.3965 -3.033 
0.213542 1.3965 -3.033 
0.226206 1.3965 -3.033 
0.23887 1.3965 -3.033 
0.253607 1.40801 -3.058 
0.264197 1.3965 -3.033 
0.279143 1.40801 -3.058 
0.291911 1.40801 -3.058 
0.307071 1.41906 -3.082 
0.317448 1.40801 -3.058 
0.330216 1.40801 -3.058 
0.34018 1.3965 -3.033 
0.355753 1.40801 -3.058 
0.365508 1.3965 -3.033 
0.378172 1.3965 -3.033 
0.387743 1.38545 -3.009 
0.397247 1.37486 -2.986 
0.406559 1.36427 -2.963 
0.41893 1.36427 -2.963 
0.427954 1.35368 -2.94 
0.44023 1.35368 -2.94 
0.449119 1.34355 -2.918 
0.461303 1.34355 -2.918 
0.473486 1.34355 -2.918 
0.48567 1.34355 -2.918 
0.501607 1.35368 -2.94 
0.517903 1.36427 -2.963 
0.530275 1.36427 -2.963 
0.542646 1.36427 -2.963 
0.559326 1.37486 -2.986 
0.571794 1.37486 -2.986 
0.584261 1.37486 -2.986 
0.596729 1.37486 -2.986 
0.609197 1.37486 -2.986 
0.621664 1.37486 -2.986 
0.634132 1.37486 -2.986 
0.646599 1.37486 -2.986 
0.659067 1.37486 -2.986 
0.671535 1.37486 -2.986 
0.684002 1.37486 -2.986 
0.691105 1.36427 -2.963 
0.703477 1.36427 -2.963 
0.715848 1.36427 -2.963 
0.722567 1.35368 -2.94 
0.734843 1.35368 -2.94 
0.747118 1.35368 -2.94 
0.753711 1.34355 -2.918 
0.765895 1.34355 -2.918 
0.778079 1.34355 -2.918 
0.790263 1.34355 -2.918 
0.802446 1.34355 -2.918 
0.808209 1.33296 -2.895 
0.820297 1.33296 -2.895 
0.832384 1.33296 -2.895 
0.851181 1.34355 -2.918 
0.863365 1.34355 -2.918 
0.875548 1.34355 -2.918 
0.894425 1.35368 -2.94 
0.9067 1.35368 -2.94 
0.926165 1.36427 -2.963 
0.945822 1.37486 -2.986 
0.95829 1.37486 -2.986 
0.978235 1.38545 -3.009 
0.990798 1.38545 -3.009 
1.00336 1.38545 -3.009 
1.01593 1.38545 -3.009 
1.02849 1.38545 -3.009 
1.04105 1.38545 -3.009 
1.04556 1.37486 -2.986 
1.04988 1.36427 -2.963 
1.05401 1.35368 -2.94 
1.0583 1.34355 -2.918 
1.06205 1.33296 -2.895 
1.07414 1.33296 -2.895 
1.07835 1.32329 -2.874 
1.082 1.31316 -2.852 
1.08585 1.30349 -2.831 
1.08953 1.29382 -2.81 
1.10126 1.29382 -2.81 
1.10507 1.28461 -2.79 
1.11672 1.28461 -2.79 
1.12028 1.2754 -2.77 
1.13185 1.2754 -2.77 
1.13516 1.2662 -2.75 
1.1383 1.25699 -2.73 
1.1497 1.25699 -2.73 
1.15302 1.24824 -2.711 
1.15618 1.23949 -2.692 
1.15918 1.23074 -2.673 
1.16202 1.22199 -2.654 
1.1731 1.22199 -2.654 
1.17615 1.21371 -2.636 
1.17905 1.20542 -2.618 
1.1818 1.19713 -2.6 
1.1844 1.18884 -2.582 
1.19518 1.18884 -2.582 
1.19802 1.18102 -2.565 
1.20873 1.18102 -2.565 
1.21944 1.18102 -2.565 
1.222 1.17319 -2.548 
1.23264 1.17319 -2.548 
1.23498 1.16536 -2.531 
1.24555 1.16536 -2.531 
1.25612 1.16536 -2.531 
1.26668 1.16536 -2.531 
1.27725 1.16536 -2.531 
1.28782 1.16536 -2.531 
1.29839 1.16536 -2.531 
1.30896 1.16536 -2.531 
1.31118 1.15799 -2.515 
1.32168 1.15799 -2.515 
1.33218 1.15799 -2.515 
1.34269 1.15799 -2.515 
1.35319 1.15799 -2.515 
1.36369 1.15799 -2.515 
1.37419 1.15799 -2.515 
1.3935 1.16536 -2.531 
1.40407 1.16536 -2.531 
1.42414 1.17319 -2.548 
1.4252 1.16536 -2.531 
1.43577 1.16536 -2.531 
1.46577 1.18102 -2.565 
1.51735 1.21371 -2.636 
1.58285 1.25699 -2.73 
1.6655 1.31316 -2.852 
1.75622 1.37486 -2.986 
1.87116 1.45451 -3.159 
1.98277 1.53049 -3.324 
2.14562 1.64467 -3.572 
2.31174 1.75978 -3.822 
2.4763 1.87213 -4.066 
2.57545 1.93383 -4.2 
2.65102 1.97711 -4.294 
2.73048 2.02269 -4.393 
2.78074 2.04617 -4.444 
2.83268 2.07058 -4.497 
2.85146 2.07058 -4.497 
2.90406 2.09498 -4.55 
2.92306 2.09498 -4.55 
2.94206 2.09498 -4.55 
2.99685 2.1203 -4.605 
3.01607 2.1203 -4.605 
3.0353 2.1203 -4.605 
3.05453 2.1203 -4.605 
3.07376 2.1203 -4.605 
3.09298 2.1203 -4.605 
3.11221 2.1203 -4.605 
3.09404 2.09498 -4.55 
3.11304 2.09498 -4.55 
3.13203 2.09498 -4.55 
3.15103 2.09498 -4.55 
3.17003 2.09498 -4.55 
3.18903 2.09498 -4.55 
3.20803 2.09498 -4.55 
3.22702 2.09498 -4.55 
3.24602 2.09498 -4.55 
3.30449 2.1203 -4.605 
3.32371 2.1203 -4.605 
3.34294 2.1203 -4.605 
3.36217 2.1203 -4.605 
3.3814 2.1203 -4.605 
3.40062 2.1203 -4.605 
3.41985 2.1203 -4.605 
3.43908 2.1203 -4.605 
3.45831 2.1203 -4.605 
3.47753 2.1203 -4.605 
3.49676 2.1203 -4.605 
3.51599 2.1203 -4.605 
3.53522 2.1203 -4.605 
3.55444 2.1203 -4.605 
3.57367 2.1203 -4.605 
3.5929 2.1203 -4.605 
3.61213 2.1203 -4.605 
3.63135 2.1203 -4.605 
3.65058 2.1203 -4.605 
3.66981 2.1203 -4.605 
3.68904 2.1203 -4.605 
3.70826 2.1203 -4.605 
3.72749 2.1203 -4.605 
3.74672 2.1203 -4.605 
3.72097 2.09498 -4.55 
3.73997 2.09498 -4.55 
3.75896 2.09498 -4.55 
3.77796 2.09498 -4.55 
3.79696 2.09498 -4.55 
3.77151 2.07058 -4.497 
3.79028 2.07058 -4.497 
3.80906 2.07058 -4.497 
3.82784 2.07058 -4.497 
3.80128 2.04617 -4.444 
3.81983 2.04617 -4.444 
3.83839 2.04617 -4.444 
3.81268 2.02269 -4.393 
3.83102 2.02269 -4.393 
3.84937 2.02269 -4.393 
3.86771 2.02269 -4.393 
3.84182 1.99967 -4.343 
3.85996 1.99967 -4.343 
3.87809 1.99967 -4.343 
3.85226 1.97711 -4.294 
3.82783 1.95547 -4.247 
3.84556 1.95547 -4.247 
3.82054 1.93383 -4.2 
3.79604 1.91265 -4.154 
3.81339 1.91265 -4.154 
3.79016 1.89239 -4.11 
3.80732 1.89239 -4.11 
3.78353 1.87213 -4.066 
3.76032 1.85233 -4.023 
3.77712 1.85233 -4.023 
3.75431 1.83299 -3.981 
3.73209 1.81411 -3.94 
3.71049 1.7957 -3.9 
3.65223 1.75978 -3.822 
3.59621 1.72525 -3.747 
3.57715 1.70867 -3.711 
3.5578 1.6921 -3.675 
3.50605 1.66033 -3.606 
3.48791 1.64467 -3.572 
3.47046 1.62948 -3.539 
3.45274 1.61428 -3.506 
3.43672 1.60001 -3.475 
3.45123 1.60001 -3.475 
3.43383 1.58528 -3.443 
3.4482 1.58528 -3.443 
3.46258 1.58528 -3.443 
3.47695 1.58528 -3.443 
-1.36586 0.662945 -1.453 
-1.3495 0.657926 -1.442 
-1.33882 0.655645 -1.437 
-1.32726 0.652907 -1.431 
-1.31667 0.650626 -1.426 
-1.30612 0.648345 -1.421 
-1.29561 0.646064 -1.416 
-1.28423 0.643326 -1.41 
-1.27381 0.641045 -1.405 
-1.27246 0.643326 -1.41 
-1.26657 0.643326 -1.41 
-1.26068 0.643326 -1.41 
-1.2548 0.643326 -1.41 
-1.24891 0.643326 -1.41 
-1.24831 0.646064 -1.416 
-1.24679 0.648345 -1.421 
-1.24522 0.650626 -1.426 
-1.23926 0.650626 -1.426 
-1.23763 0.652907 -1.431 
-1.23682 0.655645 -1.437 
-1.23082 0.655645 -1.437 
-1.22909 0.657926 -1.442 
-1.22306 0.657926 -1.442 
-1.22211 0.660664 -1.448 
-1.21606 0.660664 -1.448 
-1.21419 0.662945 -1.453 
-1.20813 0.662945 -1.453 
-1.20702 0.665683 -1.459 
-1.20093 0.665683 -1.459 
-1.19894 0.667964 -1.464 
-1.19282 0.667964 -1.464 
-1.18671 0.667964 -1.464 
