ply
format ascii 1.0
comment pointcloud saved from Realsense Viewer
element vertex 1806
property float32 x
property float32 y
property float32 z
end_header
0.83559 3.53500 -0.91291 
0.86395 3.57600 -0.92350 
0.94590 3.64000 -0.94003 
0.97440 3.64000 -0.94003 
1.04737 3.59700 -0.92892 
1.06297 3.55500 -0.91807 
1.12156 3.53500 -0.91291 
1.16769 3.53500 -0.91291 
1.47815 3.36000 -0.86772 
1.38335 2.76700 -0.71457 
1.39232 2.74200 -0.70812 
1.49329 2.54800 -0.65802 
1.57264 2.58000 -0.66628 
1.71496 2.45600 -0.63426 
1.75546 2.38900 -0.61696 
1.76569 2.36100 -0.60973 
1.76132 2.29900 -0.59371 
-1.55328 2.16900 -0.56580 
-1.50719 2.17600 -0.56763 
-1.47552 2.24000 -0.58432 
-1.40235 2.27300 -0.59293 
-1.29381 2.33400 -0.60884 
-1.24100 2.36100 -0.61589 
-1.20080 2.37900 -0.62058 
-1.06662 2.45600 -0.64067 
-0.97585 2.48600 -0.64849 
-0.95754 2.50600 -0.65371 
-0.94290 2.53700 -0.66180 
-0.91274 2.60200 -0.67875 
-0.84841 2.61300 -0.68162 
-0.71363 2.67000 -0.69649 
-0.16329 2.28200 -0.59528 
-0.14434 2.26500 -0.59084 
-0.05855 2.15300 -0.56163 
-0.03014 2.13100 -0.55589 
0.04229 2.13800 -0.55772 
0.15006 2.24800 -0.58641 
0.30362 3.27000 -0.85301 
0.45856 3.34200 -0.87179 
0.50773 3.37900 -0.88144 
0.90657 3.59700 -0.93831 
0.92156 3.61900 -0.94405 
1.05059 3.57600 -0.93283 
1.13719 3.55500 -0.92735 
1.14001 3.53500 -0.92213 
1.40033 3.49400 -0.91144 
1.40178 3.47500 -0.90648 
1.45103 3.18500 -0.83083 
1.43208 3.07300 -0.80162 
1.38856 2.79200 -0.72832 
1.40663 2.74200 -0.71527 
1.42768 2.75500 -0.71866 
1.49019 2.80500 -0.73171 
1.59277 2.53700 -0.66180 
1.72076 2.58000 -0.67301 
1.71815 2.51700 -0.65658 
1.75172 2.42700 -0.63310 
1.76053 2.37900 -0.62058 
1.90909 2.28200 -0.59528 
1.92931 2.29900 -0.59971 
-1.62048 2.15300 -0.56725 
-1.55328 2.16900 -0.57146 
-1.48721 2.24000 -0.59017 
-1.40195 2.28200 -0.60123 
-1.31714 2.34300 -0.61731 
-1.28772 2.33400 -0.61493 
-1.26945 2.33400 -0.61493 
-1.25600 2.34300 -0.61731 
-0.97326 2.49600 -0.65762 
-0.92341 2.61300 -0.68844 
-0.66485 2.67000 -0.70346 
-0.52410 2.37900 -0.62679 
-0.25131 2.32500 -0.61256 
-0.22704 2.32500 -0.61256 
-0.08189 2.17600 -0.57331 
0.34819 3.28800 -0.86628 
0.54319 3.43600 -0.90528 
0.87328 3.57600 -0.94216 
1.04125 3.57600 -0.94216 
1.10311 3.53500 -0.93136 
1.13719 3.55500 -0.93663 
1.28033 3.51500 -0.92609 
1.40538 2.87100 -0.75642 
1.60601 2.50600 -0.66025 
1.63925 2.52700 -0.66578 
1.73353 2.56900 -0.67685 
1.71551 2.46600 -0.64971 
1.77295 2.37900 -0.62679 
1.75443 2.29000 -0.60334 
1.80029 2.26500 -0.59675 
1.81802 2.26500 -0.59675 
1.89785 2.29000 -0.60334 
1.93686 2.30800 -0.60808 
-1.59290 2.16900 -0.57712 
-1.58724 2.16900 -0.57712 
-1.46906 2.24800 -0.59814 
-1.43288 2.26500 -0.60267 
-1.40791 2.28200 -0.60719 
-1.40195 2.28200 -0.60719 
-1.36845 2.31600 -0.61624 
-1.35383 2.34300 -0.62342 
-1.29880 2.34300 -0.62342 
-1.25600 2.34300 -0.62342 
-1.24426 2.37900 -0.63300 
-1.08781 2.44600 -0.65083 
-1.04491 2.49600 -0.66413 
-0.96174 2.51700 -0.66972 
-0.88655 2.62500 -0.69845 
-0.62865 2.69400 -0.71681 
-0.46865 2.44600 -0.65083 
-0.47568 2.51700 -0.66972 
-0.22097 2.32500 -0.61863 
-0.14543 2.28200 -0.60719 
0.00891 2.16100 -0.57499 
0.34819 3.28800 -0.87486 
0.37802 3.32400 -0.88444 
0.49891 3.37900 -0.89908 
0.63636 3.45500 -0.91930 
0.72996 3.51500 -0.93526 
0.74831 3.51500 -0.93526 
0.84960 3.55500 -0.94591 
0.87841 3.59700 -0.95708 
0.90267 3.61900 -0.96293 
1.03798 3.59700 -0.95708 
1.05369 3.55500 -0.94591 
1.25281 3.51500 -0.93526 
1.28033 3.51500 -0.93526 
1.35644 3.47500 -0.92462 
1.51158 3.43600 -0.91424 
1.46028 3.16900 -0.84320 
1.60601 2.50600 -0.66679 
1.74923 2.38900 -0.63566 
-1.63172 2.15300 -0.57848 
-1.60958 2.16100 -0.58063 
-1.58158 2.16900 -0.58278 
-1.51176 2.21600 -0.59541 
-1.45733 2.24800 -0.60401 
-1.36081 2.33400 -0.62712 
-1.32220 2.35200 -0.63195 
-1.31606 2.35200 -0.63195 
-1.30993 2.35200 -0.63195 
-1.22172 2.40800 -0.64700 
-0.93705 2.61300 -0.70208 
-0.92081 2.62500 -0.70530 
-0.89027 2.63600 -0.70826 
-0.81800 2.64700 -0.71121 
-0.74847 2.67000 -0.71739 
-0.28771 2.32500 -0.62470 
-0.15789 2.29000 -0.61529 
-0.15191 2.29000 -0.61529 
0.00891 2.16100 -0.58063 
0.65818 3.47500 -0.93369 
0.77102 3.53500 -0.94981 
0.78947 3.53500 -0.94981 
0.98984 3.66200 -0.98393 
1.05059 3.57600 -0.96082 
1.11591 3.57600 -0.96082 
1.13457 3.57600 -0.96082 
1.17430 3.55500 -0.95518 
1.21381 3.53500 -0.94981 
1.44713 3.47500 -0.93369 
1.47327 3.49400 -0.93879 
1.41442 2.84400 -0.76415 
1.43895 2.80500 -0.75367 
1.46768 2.81800 -0.75716 
1.52651 2.81800 -0.75716 
1.53552 2.75500 -0.74023 
1.52422 2.63600 -0.70826 
1.61306 2.51700 -0.67629 
1.74830 2.28200 -0.61314 
1.81851 2.27300 -0.61073 
1.85602 2.29000 -0.61529 
1.88731 2.29900 -0.61771 
-1.67681 2.14600 -0.58220 
-1.67121 2.14600 -0.58220 
-1.57026 2.16900 -0.58844 
-1.43960 2.25700 -0.61232 
-1.41982 2.28200 -0.61910 
-1.41386 2.28200 -0.61910 
-1.35903 2.35200 -0.63809 
-1.31606 2.35200 -0.63809 
-1.29765 2.35200 -0.63809 
-1.28046 2.34300 -0.63565 
-1.21869 2.42700 -0.65844 
-1.18402 2.40800 -0.65328 
-1.15536 2.42700 -0.65844 
-1.04072 2.48600 -0.67444 
-1.03423 2.48600 -0.67444 
-0.96443 2.55900 -0.69425 
-0.93842 2.63600 -0.71514 
-0.90780 2.64700 -0.71812 
-0.87651 2.63600 -0.71514 
-0.75883 2.68200 -0.72762 
-0.62162 2.69400 -0.73087 
-0.20277 2.32500 -0.63076 
-0.10691 2.22400 -0.60336 
-0.07079 2.18400 -0.59251 
-0.03057 2.16100 -0.58627 
0.35009 3.30600 -0.89691 
0.37802 3.32400 -0.90179 
0.39537 3.32400 -0.90179 
0.60931 3.45500 -0.93733 
0.62734 3.45500 -0.93733 
0.72996 3.51500 -0.95361 
0.81249 3.55500 -0.96446 
0.90791 3.64000 -0.98752 
0.98984 3.66200 -0.99349 
1.42899 3.47500 -0.94276 
1.42060 2.99800 -0.81335 
1.41785 2.91200 -0.79002 
1.42616 2.89800 -0.78622 
1.46706 2.83100 -0.76804 
1.48122 2.84400 -0.77157 
1.50349 2.84400 -0.77157 
1.57308 2.54800 -0.69126 
1.88731 2.29900 -0.62371 
1.91277 2.30800 -0.62615 
1.93084 2.30800 -0.62615 
-1.61522 2.16100 -0.59191 
-1.42608 2.27300 -0.62259 
-1.41190 2.30800 -0.63218 
-1.38658 2.31600 -0.63437 
-1.29151 2.35200 -0.64423 
-1.16169 2.42700 -0.66477 
-1.13002 2.42700 -0.66477 
-1.12369 2.42700 -0.66477 
-1.08972 2.43600 -0.66724 
-0.96297 2.59100 -0.70969 
-0.92579 2.65900 -0.72832 
-0.69366 2.64700 -0.72503 
-0.58185 2.58000 -0.70668 
-0.48587 2.68200 -0.73462 
-0.47752 2.75500 -0.75461 
-0.26037 2.35200 -0.64423 
-0.24809 2.35200 -0.64423 
-0.22268 2.34300 -0.64176 
-0.19670 2.32500 -0.63683 
0.08739 1.90500 -0.52179 
0.25110 3.25300 -0.89102 
0.26948 3.27000 -0.89567 
0.27802 3.27000 -0.89567 
0.37802 3.32400 -0.91046 
0.38670 3.32400 -0.91046 
0.43240 3.34200 -0.91539 
0.47246 3.37900 -0.92553 
0.49009 3.37900 -0.92553 
1.48340 3.47500 -0.95182 
1.44376 2.85800 -0.78282 
1.50277 2.87100 -0.78638 
1.53552 2.75500 -0.75461 
1.59968 2.52700 -0.69216 
1.66649 2.56900 -0.70367 
1.74476 2.52700 -0.69216 
1.73680 2.50600 -0.68641 
1.72005 2.42700 -0.66477 
1.75301 2.26500 -0.62040 
1.75892 2.26500 -0.62040 
1.79438 2.26500 -0.62040 
1.85602 2.29000 -0.62725 
-1.55261 2.17600 -0.60170 
-1.49850 2.25700 -0.62410 
-1.48083 2.25700 -0.62410 
-1.41240 2.29900 -0.63571 
-1.39197 2.32500 -0.64290 
-1.19336 2.42700 -0.67110 
-0.98882 2.48600 -0.68742 
-0.96938 2.53700 -0.70152 
-0.93273 2.65900 -0.73526 
-0.86963 2.63600 -0.72890 
-0.74150 2.67000 -0.73830 
-0.69681 2.65900 -0.73526 
-0.65842 2.73000 -0.75489 
-0.45256 2.24000 -0.61940 
-0.47527 2.74200 -0.75821 
-0.45794 2.76700 -0.76512 
-0.41231 2.65900 -0.73526 
-0.35520 2.45600 -0.67912 
-0.29106 2.35200 -0.65037 
-0.24195 2.35200 -0.65037 
-0.23581 2.35200 -0.65037 
-0.18457 2.32500 -0.64290 
0.00888 2.15300 -0.59534 
0.04087 2.06600 -0.57128 
0.26948 3.27000 -0.90421 
0.28813 3.28800 -0.90918 
0.33284 3.30600 -0.91416 
0.43240 3.34200 -0.92412 
0.47246 3.37900 -0.93435 
0.96305 3.70600 -1.02477 
0.98984 3.66200 -1.01260 
1.05992 3.57600 -0.98882 
1.25281 3.51500 -0.97195 
1.47492 3.21900 -0.89010 
1.46765 3.18500 -0.88070 
1.43351 3.04200 -0.84116 
1.44987 2.88500 -0.79775 
1.54143 2.80500 -0.77563 
1.57911 2.61300 -0.72254 
1.68753 2.59100 -0.71645 
1.75811 2.63600 -0.72890 
1.77242 2.37000 -0.65534 
1.81851 2.27300 -0.62852 
1.94891 2.30800 -0.63820 
-1.56397 2.17600 -0.60738 
-1.55261 2.17600 -0.60738 
-1.52413 2.18400 -0.60961 
-1.50475 2.24000 -0.62524 
-1.49850 2.25700 -0.62999 
-1.39126 2.33400 -0.65148 
-1.37130 2.35200 -0.65650 
-1.36517 2.35200 -0.65650 
-1.34675 2.35200 -0.65650 
-1.25942 2.40800 -0.67213 
-1.16169 2.42700 -0.67744 
-1.02361 2.47600 -0.69111 
-1.00828 2.48600 -0.69391 
-0.97488 2.51700 -0.70256 
-0.94925 2.64700 -0.73885 
-0.94234 2.64700 -0.73885 
-0.76925 2.69400 -0.75196 
-0.69584 2.68200 -0.74861 
-0.61185 2.68200 -0.74861 
-0.31561 2.35200 -0.65650 
-0.10183 2.24000 -0.62524 
-0.03078 2.17600 -0.60738 
0.06793 1.91700 -0.53508 
0.09236 1.90500 -0.53173 
0.10931 1.94100 -0.54178 
0.54003 3.41600 -0.95349 
0.59699 3.43600 -0.95908 
0.61493 3.43600 -0.95908 
0.63636 3.45500 -0.96438 
0.99940 3.66200 -1.02216 
1.02259 3.57600 -0.99815 
1.07553 3.59700 -1.00401 
1.19285 3.55500 -0.99229 
1.35371 3.51500 -0.98113 
1.39272 3.47500 -0.96996 
1.45821 3.41600 -0.95349 
1.50329 3.39700 -0.94819 
1.50414 3.37900 -0.94316 
1.42906 2.98300 -0.83263 
1.51010 2.88500 -0.80528 
1.54220 2.78000 -0.77597 
1.73539 2.47600 -0.69111 
1.75546 2.38900 -0.66683 
1.76053 2.37900 -0.66404 
1.77242 2.37000 -0.66153 
1.77185 2.36100 -0.65902 
1.76986 2.33400 -0.65148 
1.76219 2.30800 -0.64422 
1.76513 2.27300 -0.63445 
1.78256 2.26500 -0.63222 
1.78847 2.26500 -0.63222 
-1.68228 2.15300 -0.60658 
-1.64342 2.16100 -0.60883 
-1.49261 2.25700 -0.63588 
-1.46835 2.26500 -0.63813 
-1.44981 2.27300 -0.64038 
-1.30878 2.36100 -0.66518 
-1.29029 2.36100 -0.66518 
-1.26571 2.40800 -0.67842 
-1.08972 2.43600 -0.68631 
-1.04098 2.45600 -0.69194 
-0.99777 2.47600 -0.69758 
-0.76925 2.69400 -0.75899 
-0.68794 2.70600 -0.76238 
-0.45773 2.38900 -0.67307 
-0.46334 2.48600 -0.70039 
-0.45596 2.75500 -0.77618 
-0.29217 2.36100 -0.66518 
-0.22354 2.35200 -0.66264 
-0.19747 2.33400 -0.65757 
-0.18457 2.32500 -0.65503 
-0.17177 2.31600 -0.65250 
0.04031 2.03800 -0.57418 
0.07696 1.89300 -0.53332 
0.09236 1.90500 -0.53671 
0.32421 3.30600 -0.93142 
0.43240 3.34200 -0.94156 
0.65439 3.45500 -0.97339 
0.76179 3.53500 -0.99593 
1.00289 3.64000 -1.02551 
1.15062 3.59700 -1.01340 
1.30785 3.51500 -0.99030 
1.39372 3.45500 -0.97339 
1.48692 3.36000 -0.94663 
1.43625 2.99800 -0.84464 
1.55822 2.64700 -0.74575 
1.57926 2.60200 -0.73307 
1.63997 2.55900 -0.72096 
1.76446 2.34300 -0.66011 
1.89331 2.29900 -0.64771 
-1.62686 2.16900 -0.61674 
-1.60394 2.16100 -0.61447 
-1.53630 2.16900 -0.61674 
-1.52990 2.17600 -0.61873 
-1.45574 2.27300 -0.64632 
-1.42997 2.30800 -0.65627 
-1.30379 2.35200 -0.66878 
-1.27442 2.38900 -0.67930 
-1.07700 2.43600 -0.69266 
-1.05589 2.44600 -0.69551 
-1.01069 2.47600 -0.70404 
-0.96297 2.59100 -0.73674 
-0.94661 2.65900 -0.75607 
-0.89804 2.65900 -0.75607 
-0.88017 2.64700 -0.75266 
-0.75856 2.70600 -0.76944 
-0.69808 2.71800 -0.77285 
-0.46096 2.74200 -0.77967 
-0.45381 2.74200 -0.77967 
-0.38495 2.56900 -0.73048 
-0.33304 2.38900 -0.67930 
-0.10219 2.24800 -0.63921 
-0.04834 2.20000 -0.62556 
-0.02529 2.19200 -0.62328 
0.00885 2.14600 -0.61020 
0.03523 2.05200 -0.58348 
0.35009 3.30600 -0.94004 
0.40405 3.32400 -0.94516 
1.01921 3.59700 -1.02279 
1.17190 3.57600 -1.01682 
1.33536 3.51500 -0.99947 
1.39272 3.47500 -0.98810 
1.38951 3.37900 -0.96080 
1.43770 3.12000 -0.88716 
1.46913 2.95400 -0.83995 
1.58655 2.55900 -0.72764 
1.75342 2.45600 -0.69835 
1.78292 2.27300 -0.64632 
1.85004 2.29000 -0.65115 
1.85602 2.29000 -0.65115 
1.89331 2.29900 -0.65371 
1.93899 2.32500 -0.66110 
1.95259 2.33400 -0.66366 
1.96477 2.33400 -0.66366 
-1.63818 2.16900 -0.62240 
-1.39735 2.33400 -0.66975 
-1.35289 2.35200 -0.67492 
-1.26819 2.38900 -0.68553 
-1.22185 2.44600 -0.70189 
-1.16803 2.42700 -0.69644 
-1.13636 2.42700 -0.69644 
-1.07700 2.43600 -0.69902 
-1.03457 2.45600 -0.70476 
-1.00423 2.47600 -0.71050 
-0.94925 2.64700 -0.75957 
-0.85588 2.63600 -0.75641 
-0.75150 2.70600 -0.77650 
-0.35664 2.46600 -0.70763 
-0.20051 2.37000 -0.68008 
-0.11737 2.31600 -0.66459 
-0.00807 2.17600 -0.62441 
0.08242 1.90500 -0.54665 
0.25380 3.28800 -0.94351 
0.53418 3.37900 -0.96962 
0.57249 3.39700 -0.97478 
0.58135 3.39700 -0.97478 
0.67242 3.45500 -0.99143 
0.69825 3.49400 -1.00262 
0.95930 3.72900 -1.07005 
0.97656 3.68400 -1.05714 
1.08491 3.59700 -1.03217 
1.11988 3.61900 -1.03849 
1.17190 3.57600 -1.02615 
1.24762 3.47500 -0.99717 
1.44132 3.21900 -0.92371 
1.42342 3.08900 -0.88640 
1.41855 3.02700 -0.86861 
1.54833 2.83100 -0.81237 
1.53749 2.64700 -0.75957 
1.54486 2.63600 -0.75641 
1.74889 2.48600 -0.71337 
1.75412 2.46600 -0.70763 
1.79028 2.29000 -0.65713 
1.83809 2.29000 -0.65713 
1.97378 2.35200 -0.67492 
-1.70045 2.16900 -0.62806 
-1.58158 2.16900 -0.62806 
-1.54196 2.16900 -0.62806 
-1.51722 2.22400 -0.64399 
-1.51060 2.24000 -0.64862 
-1.51012 2.24800 -0.65094 
-1.44202 2.30800 -0.66831 
-1.41680 2.31600 -0.67063 
-1.33448 2.35200 -0.68105 
-1.01948 2.46600 -0.71406 
-1.01069 2.47600 -0.71696 
-0.97600 2.53700 -0.73462 
-0.96820 2.56900 -0.74389 
-0.84900 2.63600 -0.76329 
-0.83175 2.62500 -0.76011 
-0.81460 2.63600 -0.76329 
-0.78330 2.67000 -0.77314 
-0.66847 2.74200 -0.79398 
-0.44914 2.28200 -0.66078 
-0.46487 2.68200 -0.77661 
-0.46402 2.71800 -0.78703 
-0.45182 2.73000 -0.79051 
-0.38345 2.55900 -0.74099 
-0.28018 2.41700 -0.69988 
0.28108 3.30600 -0.95730 
0.29833 3.30600 -0.95730 
0.43007 3.32400 -0.96251 
0.58135 3.39700 -0.98365 
1.19321 3.47500 -1.00623 
1.24044 3.45500 -1.00044 
1.38605 3.43600 -0.99494 
1.40176 3.04200 -0.88085 
1.46020 2.98300 -0.86377 
1.59303 2.54800 -0.73781 
1.75685 2.40800 -0.69727 
1.75617 2.30800 -0.66831 
1.76219 2.30800 -0.66831 
-1.70025 2.17600 -0.63577 
-1.64950 2.16900 -0.63372 
-1.54196 2.16900 -0.63372 
-1.49850 2.25700 -0.65944 
-1.46746 2.28200 -0.66674 
-1.44870 2.29000 -0.66908 
-1.42230 2.32500 -0.67930 
-1.29645 2.36100 -0.68982 
-1.26196 2.38900 -0.69800 
-1.09607 2.43600 -0.71173 
-1.04522 2.43600 -0.71173 
-0.79395 2.65900 -0.77689 
-0.72646 2.71800 -0.79413 
-0.49927 2.37900 -0.69508 
-0.45693 2.71800 -0.79413 
-0.34467 2.42700 -0.70911 
-0.07623 2.35200 -0.68719 
-0.01978 2.21600 -0.64746 
0.03966 2.00500 -0.58581 
0.10015 1.96000 -0.57266 
0.29833 3.30600 -0.96593 
0.48128 3.37900 -0.98725 
0.67242 3.45500 -1.00946 
0.74334 3.53500 -1.03283 
0.82712 3.61900 -1.05738 
1.10658 3.57600 -1.04481 
1.14124 3.59700 -1.05095 
1.39699 3.12000 -0.91158 
1.39317 3.05800 -0.89347 
1.46142 2.95400 -0.86308 
1.47445 2.83100 -0.82714 
1.54122 2.81800 -0.82334 
1.64638 2.56900 -0.75059 
1.66690 2.58000 -0.75381 
1.76543 2.44600 -0.71466 
1.75711 2.41700 -0.70618 
1.75582 2.39800 -0.70063 
1.74550 2.33400 -0.68193 
1.89470 2.30800 -0.67434 
1.90731 2.31600 -0.67667 
-1.67780 2.16900 -0.63938 
-1.67214 2.16900 -0.63938 
-1.65516 2.16900 -0.63938 
-1.64384 2.16900 -0.63938 
-1.58724 2.16900 -0.63938 
-1.51060 2.24000 -0.66031 
-1.44839 2.29900 -0.67771 
-1.37655 2.36100 -0.69598 
-1.17436 2.42700 -0.71544 
-1.15536 2.42700 -0.71544 
-1.12786 2.43600 -0.71809 
-1.11514 2.43600 -0.71809 
-1.10879 2.43600 -0.71809 
-1.03674 2.44600 -0.72104 
-1.03457 2.45600 -0.72399 
-0.97235 2.58000 -0.76054 
-0.94530 2.63600 -0.77705 
-0.90780 2.64700 -0.78029 
-0.87651 2.63600 -0.77705 
-0.69404 2.73000 -0.80476 
-0.30667 2.42700 -0.71544 
-0.29348 2.47600 -0.72988 
-0.07928 2.44600 -0.72104 
0.03477 2.02500 -0.59694 
0.10045 1.96600 -0.57954 
0.62026 3.41600 -1.00698 
0.67242 3.45500 -1.01847 
0.94371 3.70600 -1.09247 
1.00655 3.61900 -1.06682 
1.14924 3.53500 -1.04206 
1.16108 3.51500 -1.03616 
1.20434 3.37900 -0.99607 
1.26210 3.41600 -1.00698 
1.29454 3.45500 -1.01847 
1.37430 3.34200 -0.98516 
1.36812 3.30600 -0.97455 
1.36925 3.28800 -0.96925 
1.41461 2.96900 -0.87521 
1.45359 2.80500 -0.82687 
1.52827 2.74200 -0.80830 
1.55230 2.59100 -0.76378 
1.55244 2.58000 -0.76054 
1.85549 2.28200 -0.67270 
1.99644 2.37900 -0.70129 
-1.58724 2.16900 -0.64504 
-1.49839 2.24800 -0.66854 
-1.41623 2.32500 -0.69144 
-1.38358 2.35200 -0.69947 
-1.34675 2.35200 -0.69947 
-1.25942 2.40800 -0.71612 
-1.25152 2.41700 -0.71880 
-1.14902 2.42700 -0.72177 
-1.10057 2.44600 -0.72742 
-0.99678 2.50600 -0.74527 
-0.99024 2.50600 -0.74527 
-0.94530 2.63600 -0.78393 
-0.91471 2.64700 -0.78720 
-0.80419 2.64700 -0.78720 
-0.65416 2.74200 -0.81545 
-0.44274 2.71800 -0.80831 
-0.40704 2.62500 -0.78066 
-0.28747 2.53700 -0.75449 
-0.20743 2.61300 -0.77709 
-0.03379 2.38900 -0.71047 
-0.01468 2.32500 -0.69144 
0.43874 3.32400 -0.98853 
0.72079 3.51500 -1.04533 
0.78454 3.59700 -1.06972 
0.79393 3.59700 -1.06972 
0.90502 3.70600 -1.10214 
0.94371 3.70600 -1.10214 
0.97073 3.66200 -1.08905 
0.98390 3.64000 -1.08251 
1.01600 3.61900 -1.07626 
1.23961 3.37900 -1.00489 
1.28742 3.43600 -1.02184 
1.37298 3.49400 -1.03909 
1.37293 3.23600 -0.96236 
1.37257 3.12000 -0.92787 
1.37222 3.01200 -0.89575 
1.45450 2.94000 -0.87433 
1.44490 2.83100 -0.84192 
1.52833 2.75500 -0.81932 
1.64670 2.58000 -0.76727 
1.76124 2.47600 -0.73634 
1.74956 2.39800 -0.71315 
1.74413 2.30800 -0.68638 
1.79732 2.29900 -0.68371 
1.93432 2.33400 -0.69411 
-1.63818 2.16900 -0.65071 
-1.49839 2.24800 -0.67441 
-1.42284 2.31600 -0.69481 
-1.35289 2.35200 -0.70561 
-1.24521 2.41700 -0.72511 
-1.23136 2.42700 -0.72811 
-1.07504 2.44600 -0.73381 
-1.03235 2.46600 -0.73981 
-0.81109 2.64700 -0.79411 
-0.73737 2.70600 -0.81181 
-0.71936 2.71800 -0.81541 
-0.70518 2.71800 -0.81541 
-0.67267 2.73000 -0.81901 
-0.64700 2.74200 -0.82261 
-0.45023 2.55900 -0.76771 
-0.45491 2.70600 -0.81181 
0.03029 2.08000 -0.62400 
0.06878 1.94100 -0.58230 
0.27097 3.28800 -0.98641 
0.43637 3.30600 -0.99181 
0.56063 3.37900 -1.01371 
0.71162 3.51500 -1.05451 
0.84141 3.64000 -1.09201 
1.07858 3.57600 -1.07281 
1.09080 3.55500 -1.06651 
1.13079 3.53500 -1.06051 
1.14503 3.49400 -1.04821 
1.16643 3.39700 -1.01911 
1.21731 3.34200 -1.00261 
1.36584 2.99800 -0.89941 
1.43390 2.76700 -0.83011 
1.74334 2.50600 -0.75181 
1.72723 2.33400 -0.70021 
1.86797 2.29000 -0.68701 
-1.51722 2.22400 -0.67301 
-1.47494 2.25700 -0.68300 
-1.37744 2.35200 -0.71174 
-1.37130 2.35200 -0.71174 
-1.28066 2.38900 -0.72294 
-1.18069 2.42700 -0.73444 
-1.06021 2.45600 -0.74321 
-0.96027 2.60200 -0.78740 
-0.92081 2.62500 -0.79436 
-0.46905 2.35200 -0.71174 
-0.45087 2.68200 -0.81161 
-0.40177 2.59100 -0.78407 
-0.36161 2.45600 -0.74321 
-0.32544 2.37900 -0.71991 
-0.23705 2.71800 -0.82250 
-0.23097 2.73000 -0.82613 
0.04505 2.01200 -0.60886 
0.41455 3.27000 -0.98954 
0.47857 3.36000 -1.01678 
0.55182 3.37900 -1.02252 
0.81767 3.61900 -1.09515 
1.01600 3.61900 -1.09515 
1.15372 3.36000 -1.01678 
1.18695 3.30600 -1.00043 
1.33830 3.47500 -1.05158 
1.38209 3.49400 -1.05733 
1.35650 3.01200 -0.91147 
1.50780 2.71800 -0.82250 
1.54352 2.70600 -0.81887 
1.55082 2.68200 -0.81161 
1.55140 2.65900 -0.80465 
1.62650 2.58000 -0.78074 
1.63323 2.58000 -0.78074 
1.66074 2.60200 -0.78740 
1.72400 2.64700 -0.80101 
1.91335 2.31600 -0.70085 
1.97378 2.35200 -0.71174 
-1.48083 2.25700 -0.68888 
-1.47494 2.25700 -0.68888 
-1.46065 2.29000 -0.69896 
-1.30140 2.37000 -0.72337 
-1.27297 2.39800 -0.73192 
-1.25152 2.41700 -0.73772 
-1.19336 2.42700 -0.74077 
-1.13421 2.43600 -0.74352 
-1.08584 2.45600 -0.74962 
-0.99587 2.53700 -0.77435 
-0.64288 2.75500 -0.84089 
-0.55520 2.61300 -0.79754 
-0.53914 2.56900 -0.78411 
-0.44978 2.31600 -0.70689 
-0.31434 2.38900 -0.72917 
-0.21735 2.83100 -0.86408 
-0.15155 2.84400 -0.86805 
-0.11392 2.83100 -0.86408 
-0.09176 2.83100 -0.86408 
0.04128 2.08700 -0.63700 
0.23844 3.08900 -0.94283 
0.40391 3.25300 -0.99289 
0.41455 3.27000 -0.99807 
0.47601 3.34200 -1.02005 
0.53118 3.36000 -1.02554 
0.72489 3.53500 -1.07896 
0.89428 3.66200 -1.11772 
1.03489 3.61900 -1.10460 
1.14754 3.34200 -1.02005 
1.16549 3.27000 -0.99807 
1.38170 3.36000 -1.02554 
1.44601 2.95400 -0.90162 
1.42347 2.70600 -0.82593 
1.45172 2.70600 -0.82593 
1.50152 2.69400 -0.82227 
1.52939 2.70600 -0.82593 
1.55862 2.63600 -0.80456 
1.55866 2.61300 -0.79754 
1.64020 2.59100 -0.79083 
1.74060 2.45600 -0.74962 
1.73172 2.40800 -0.73497 
1.70662 2.29000 -0.69896 
-1.68890 2.17600 -0.66984 
-1.49938 2.23200 -0.68708 
-1.48137 2.24000 -0.68954 
-1.45217 2.33400 -0.71848 
-1.41497 2.34300 -0.72125 
-1.37744 2.35200 -0.72402 
-1.33448 2.35200 -0.72402 
-1.28771 2.37900 -0.73233 
-1.21998 2.41700 -0.74403 
-1.13421 2.43600 -0.74988 
-1.07096 2.46600 -0.75911 
-0.76925 2.69400 -0.82930 
-0.69500 2.70600 -0.83299 
-0.67267 2.73000 -0.84038 
-0.66131 2.74200 -0.84407 
-0.44221 2.30800 -0.71047 
-0.27863 2.51700 -0.77481 
-0.27314 2.52700 -0.77789 
-0.18124 2.84400 -0.87547 
-0.14550 2.87100 -0.88378 
-0.05457 2.81800 -0.86747 
0.00387 2.55900 -0.78774 
0.61493 3.43600 -1.05771 
0.71567 3.53500 -1.08818 
0.74755 3.55500 -1.09434 
0.82712 3.61900 -1.11404 
0.90384 3.66200 -1.12728 
0.98984 3.66200 -1.12728 
1.12602 3.43600 -1.05771 
1.12838 3.41600 -1.05155 
1.31432 3.43600 -1.05771 
1.57987 2.55900 -0.78774 
1.59275 2.56900 -0.79082 
1.72504 2.67000 -0.82191 
1.75442 2.58000 -0.79420 
1.72778 2.45600 -0.75603 
1.75301 2.26500 -0.69724 
-1.47493 2.24800 -0.69787 
-1.46906 2.24800 -0.69787 
-1.43331 2.34300 -0.72736 
-1.40886 2.34300 -0.72736 
-1.27922 2.39800 -0.74444 
-1.24057 2.40800 -0.74754 
-1.16952 2.41700 -0.75034 
-0.58202 2.70600 -0.84005 
-0.50226 2.48600 -0.77176 
-0.42726 2.32500 -0.72177 
-0.39355 2.49600 -0.77486 
-0.31805 2.32500 -0.72177 
-0.25336 2.52700 -0.78448 
-0.23746 2.56900 -0.79752 
0.06415 1.95400 -0.60660 
0.29508 3.27000 -1.01514 
0.30362 3.27000 -1.01514 
0.61493 3.43600 -1.06667 
0.62734 3.45500 -1.07257 
0.84600 3.61900 -1.12348 
1.08152 3.55500 -1.10362 
1.10253 3.47500 -1.07878 
1.12210 3.39700 -1.05457 
1.12655 3.30600 -1.02632 
1.34387 3.07300 -0.95398 
1.40275 3.02700 -0.93970 
1.42060 2.99800 -0.93070 
1.43059 2.95400 -0.91704 
1.46120 2.65900 -0.82546 
1.56455 2.71800 -0.84378 
1.57164 2.71800 -0.84378 
1.59284 2.58000 -0.80094 
1.64048 2.61300 -0.81118 
1.75442 2.58000 -0.80094 
1.70237 2.32500 -0.72177 
1.69470 2.28200 -0.70843 
1.84953 2.28200 -0.70843 
1.95566 2.31600 -0.71898 
-1.70081 2.18400 -0.68370 
-1.54115 2.19200 -0.68621 
-1.52971 2.19200 -0.68621 
-1.33342 2.36100 -0.73911 
-1.03839 2.49600 -0.78137 
-0.91457 2.56900 -0.80423 
-0.81144 2.69400 -0.84336 
-0.75183 2.68200 -0.83960 
-0.70913 2.70600 -0.84711 
-0.66131 2.74200 -0.85838 
-0.56034 2.67000 -0.83584 
-0.31924 2.29000 -0.71689 
-0.28091 2.37000 -0.74193 
-0.25600 2.42700 -0.75977 
-0.22979 2.48600 -0.77824 
-0.07698 2.83100 -0.88625 
-0.01035 2.79200 -0.87404 
0.02462 2.63600 -0.82520 
0.27802 3.27000 -1.02367 
0.31215 3.27000 -1.02367 
0.58803 3.43600 -1.07564 
0.77996 3.57600 -1.11947 
0.80331 3.59700 -1.12604 
1.12900 3.28800 -1.02931 
1.14245 3.25300 -1.01835 
1.18906 3.28800 -1.02931 
1.28884 3.41600 -1.06938 
1.37557 3.32400 -1.04058 
1.43059 2.95400 -0.92475 
1.43830 2.95400 -0.92475 
1.43372 2.89800 -0.90722 
1.40935 2.70600 -0.84711 
1.74830 2.70600 -0.84711 
1.78443 2.71800 -0.85087 
1.79067 2.70600 -0.84711 
1.78976 2.69400 -0.84336 
1.73816 2.52700 -0.79108 
1.70658 2.40800 -0.75383 
1.92331 2.29900 -0.71970 
1.92773 2.29000 -0.71689 
-1.71276 2.19200 -0.69193 
-1.67780 2.16900 -0.68467 
-1.58101 2.17600 -0.68688 
-1.51206 2.20800 -0.69698 
-1.46905 2.25700 -0.71244 
-1.42720 2.34300 -0.73959 
-1.15888 2.40800 -0.76011 
-1.09866 2.45600 -0.77526 
-1.05370 2.48600 -0.78473 
-0.95364 2.54800 -0.80430 
-0.92437 2.55900 -0.80777 
-0.64288 2.75500 -0.86964 
-0.39853 2.40800 -0.76011 
-0.38292 2.38900 -0.75411 
-0.35446 2.32500 -0.73391 
-0.25738 2.32500 -0.73391 
-0.11197 2.61300 -0.82482 
0.11291 2.00500 -0.63290 
0.25026 3.13600 -0.98991 
0.32921 3.27000 -1.03221 
0.48473 3.34200 -1.05493 
0.66178 3.49400 -1.10291 
0.67493 3.51500 -1.10954 
0.95338 3.70600 -1.16983 
1.07225 3.55500 -1.12217 
1.07544 3.53500 -1.11586 
1.12210 3.39700 -1.07230 
1.35765 3.45500 -1.09060 
1.38397 3.07300 -0.97002 
1.55036 2.71800 -0.85796 
1.57858 2.73000 -0.86175 
1.57885 2.69400 -0.85039 
1.60692 2.62500 -0.82861 
1.67630 2.65900 -0.83934 
1.76322 2.61300 -0.82482 
1.69821 2.37000 -0.74811 
1.74571 2.24800 -0.70960 
1.75158 2.24800 -0.70960 
1.81211 2.26500 -0.71497 
1.93371 2.29000 -0.72286 
-1.58158 2.16900 -0.69033 
-1.56403 2.19200 -0.69765 
-1.52381 2.20000 -0.70019 
-1.47044 2.33400 -0.74284 
-1.33448 2.35200 -0.74857 
-1.20736 2.41700 -0.76926 
-1.19658 2.40800 -0.76639 
-1.14429 2.41700 -0.76926 
-1.09225 2.45600 -0.78167 
-0.74483 2.68200 -0.85360 
-0.63846 2.76700 -0.88065 
-0.21936 2.30800 -0.73457 
-0.08362 2.58000 -0.82114 
0.24770 3.10400 -0.98791 
0.27657 3.25300 -1.03533 
0.33775 3.27000 -1.04074 
0.38251 3.28800 -1.04647 
0.40825 3.28800 -1.04647 
0.50217 3.34200 -1.06366 
0.53118 3.36000 -1.06938 
1.06614 3.59700 -1.14481 
1.32329 3.43600 -1.09357 
1.37568 3.45500 -1.09962 
1.35960 3.18500 -1.01369 
1.35628 3.12000 -0.99300 
1.37595 3.07300 -0.97804 
1.39199 3.07300 -0.97804 
1.43307 3.05800 -0.97327 
1.57858 2.73000 -0.86888 
1.60677 2.63600 -0.83896 
1.70798 2.44600 -0.77849 
1.69578 2.31600 -0.73711 
1.69467 2.29000 -0.72884 
1.75745 2.24800 -0.71547 
1.87931 2.28200 -0.72629 
-1.62610 2.15300 -0.69085 
-1.55831 2.19200 -0.70337 
-1.50598 2.21600 -0.71107 
-1.46905 2.25700 -0.72422 
-1.40813 2.35200 -0.75471 
-1.26909 2.37900 -0.76337 
-1.15888 2.40800 -0.77268 
-1.13168 2.41700 -0.77556 
-1.11906 2.41700 -0.77556 
-1.11736 2.42700 -0.77877 
-1.06667 2.48600 -0.79771 
-0.97716 2.50600 -0.80412 
-0.69808 2.71800 -0.87215 
-0.36304 2.26500 -0.72679 
-0.32392 2.20000 -0.70593 
-0.25410 2.19200 -0.70337 
-0.05553 2.52700 -0.81086 
-0.02952 2.55900 -0.82113 
0.15119 2.26500 -0.72679 
0.32921 3.27000 -1.04927 
0.48212 3.32400 -1.06660 
0.54300 3.37900 -1.08425 
0.63442 3.49400 -1.12115 
0.74263 3.57600 -1.14746 
1.07266 3.61900 -1.16126 
1.07208 3.49400 -1.12115 
1.11055 3.41600 -1.09612 
1.23264 3.36000 -1.07815 
1.24843 3.37900 -1.08425 
1.42406 3.07300 -0.98606 
1.43994 2.92600 -0.93889 
1.44234 2.88500 -0.92574 
1.58589 2.70600 -0.86830 
1.76381 2.73000 -0.87600 
1.77187 2.63600 -0.84584 
1.69578 2.31600 -0.74316 
1.71163 2.26500 -0.72679 
1.72325 2.25700 -0.72422 
1.73985 2.24800 -0.72134 
1.80620 2.26500 -0.72679 
-1.55831 2.19200 -0.70909 
-1.51206 2.20800 -0.71426 
-1.47552 2.24000 -0.72461 
-1.46905 2.25700 -0.73011 
-1.47341 2.28200 -0.73820 
-1.42720 2.34300 -0.75793 
-1.37744 2.35200 -0.76085 
-1.32726 2.36100 -0.76376 
-1.11906 2.41700 -0.78187 
-0.91175 2.58000 -0.83460 
-0.80782 2.68200 -0.86760 
-0.74483 2.68200 -0.86760 
-0.73783 2.68200 -0.86760 
-0.73410 2.69400 -0.87148 
-0.70518 2.71800 -0.87924 
-0.66555 2.73000 -0.88312 
-0.35262 2.20000 -0.71168 
-0.31935 2.16900 -0.70165 
-0.27495 2.17600 -0.70391 
-0.22636 2.14600 -0.69421 
-0.09465 2.35200 -0.76085 
-0.08332 2.37900 -0.76958 
0.08428 1.94800 -0.63016 
0.08964 1.95400 -0.63210 
0.24403 3.05800 -0.98923 
0.31053 3.25300 -1.05231 
0.33775 3.27000 -1.05781 
0.41911 3.30600 -1.06945 
0.48212 3.32400 -1.07528 
0.60029 3.45500 -1.11765 
0.62530 3.49400 -1.13027 
0.81767 3.61900 -1.17070 
0.97272 3.70600 -1.19885 
1.04042 3.70600 -1.19885 
1.06629 3.66200 -1.18461 
1.14136 3.32400 -1.07528 
1.16332 3.28800 -1.06363 
1.34122 3.43600 -1.11151 
1.37412 3.21900 -1.04131 
1.39597 3.13600 -1.01446 
1.40803 3.07300 -0.99408 
1.42558 3.04200 -0.98405 
1.42645 3.02700 -0.97920 
1.43059 2.95400 -0.95559 
1.44634 2.67000 -0.86371 
1.64855 2.65900 -0.86016 
1.66930 2.67000 -0.86371 
1.72006 2.70600 -0.87536 
1.76381 2.73000 -0.88312 
1.70798 2.44600 -0.79125 
1.89718 2.28200 -0.73820 
-1.56402 2.18400 -0.71220 
-1.51206 2.20800 -0.72003 
-1.46905 2.25700 -0.73600 
-1.41427 2.35200 -0.76698 
-1.37130 2.35200 -0.76698 
-1.30140 2.37000 -0.77285 
-1.21998 2.41700 -0.78818 
-1.19475 2.41700 -0.78818 
-1.13168 2.41700 -0.78818 
-1.11906 2.41700 -0.78818 
-1.09836 2.42700 -0.79144 
-1.03423 2.48600 -0.81068 
-0.94446 2.50600 -0.81720 
-0.93547 2.51700 -0.82079 
-0.92966 2.53700 -0.82731 
-0.91769 2.55900 -0.83449 
-0.87326 2.64700 -0.86318 
-0.76240 2.67000 -0.87068 
-0.75543 2.67000 -0.87068 
-0.70518 2.71800 -0.88634 
-0.67267 2.73000 -0.89025 
-0.60694 2.75500 -0.89840 
-0.58718 2.73000 -0.89025 
-0.53928 2.60200 -0.84851 
-0.41880 2.21600 -0.72263 
-0.34637 2.16100 -0.70470 
-0.26556 2.14600 -0.69981 
-0.20595 2.10900 -0.68774 
-0.19623 2.12300 -0.69231 
-0.18283 2.16100 -0.70470 
-0.14224 2.23200 -0.72785 
-0.05168 2.35200 -0.76698 
0.08454 1.95400 -0.63720 
0.38251 3.28800 -1.07221 
0.44742 3.32400 -1.08395 
0.57906 3.43600 -1.12047 
0.64741 3.51500 -1.14623 
0.75638 3.59700 -1.17297 
1.00174 3.70600 -1.20852 
1.21076 3.32400 -1.08395 
1.23476 3.34200 -1.08982 
1.37293 3.36000 -1.09569 
1.39199 3.07300 -1.00210 
1.42288 2.95400 -0.96329 
1.43230 2.92600 -0.95416 
1.44987 2.88500 -0.94079 
1.55721 2.73000 -0.89025 
1.64143 2.67000 -0.87068 
1.64840 2.67000 -0.87068 
1.75668 2.73000 -0.89025 
1.73931 2.54800 -0.83090 
1.70856 2.45600 -0.80090 
1.69404 2.41700 -0.78818 
1.70237 2.32500 -0.75818 
1.71933 2.29900 -0.74970 
1.75920 2.27300 -0.74122 
1.85602 2.29000 -0.74677 
1.90383 2.29000 -0.74677 
-1.58139 2.16100 -0.71034 
-1.51206 2.20800 -0.72579 
-1.47260 2.29000 -0.75274 
-1.42172 2.33400 -0.76720 
-1.32726 2.36100 -0.77608 
-1.26196 2.38900 -0.78528 
-1.15691 2.41700 -0.79449 
-1.14003 2.40800 -0.79153 
-1.09836 2.42700 -0.79777 
-0.87722 2.65900 -0.87403 
-0.72325 2.70600 -0.88948 
-0.71936 2.71800 -0.89343 
-0.38174 2.13800 -0.70278 
-0.32366 2.12300 -0.69785 
-0.31258 2.12300 -0.69785 
-0.16087 2.16900 -0.71297 
-0.10460 2.17600 -0.71527 
-0.00252 2.29900 -0.75570 
0.06098 2.01800 -0.66333 
0.09019 1.96600 -0.64624 
0.13714 2.13800 -0.70278 
0.43874 3.32400 -1.09262 
0.76577 3.59700 -1.18236 
0.79393 3.59700 -1.18236 
0.80331 3.59700 -1.18236 
0.94371 3.70600 -1.21819 
1.36925 3.28800 -1.08079 
1.38014 3.25300 -1.06929 
1.39193 3.20200 -1.05252 
1.39487 3.15200 -1.03609 
1.39199 3.07300 -1.01012 
1.40746 2.95400 -0.97100 
1.45868 2.85800 -0.93945 
1.57836 2.74200 -0.90132 
1.79230 2.73000 -0.89737 
1.75514 2.59100 -0.85168 
1.71505 2.33400 -0.76720 
1.79028 2.29000 -0.75274 
1.89331 2.29900 -0.75570 
-1.62086 2.16100 -0.71598 
-1.54103 2.20000 -0.72890 
-1.47494 2.25700 -0.74778 
-1.46009 2.30800 -0.76468 
-1.45910 2.31600 -0.76733 
-1.36517 2.35200 -0.77926 
-1.33342 2.36100 -0.78224 
-1.23429 2.40800 -0.79781 
-1.08584 2.45600 -0.81372 
-1.04721 2.48600 -0.82366 
-0.97977 2.49600 -0.82697 
-0.89916 2.60200 -0.86209 
-0.88085 2.67000 -0.88462 
-0.85681 2.68200 -0.88859 
-0.75183 2.68200 -0.88859 
-0.71936 2.71800 -0.90052 
-0.64134 2.71800 -0.90052 
-0.39848 2.13800 -0.70836 
-0.23806 2.10100 -0.69610 
-0.18454 2.11600 -0.70107 
-0.16415 2.13800 -0.70836 
-0.05898 2.16900 -0.71863 
0.13669 2.13100 -0.70604 
0.66575 3.51500 -1.16458 
0.69722 3.53500 -1.17121 
0.77996 3.57600 -1.18479 
0.91888 3.68400 -1.22057 
1.26280 3.32400 -1.10130 
1.28015 3.32400 -1.10130 
1.33941 3.34200 -1.10726 
1.34813 3.34200 -1.10726 
1.35949 3.30600 -1.09534 
1.38982 3.23600 -1.07214 
1.41517 2.95400 -0.97871 
1.41614 2.94000 -0.97407 
1.43994 2.92600 -0.96943 
1.47360 2.85800 -0.94691 
1.47445 2.83100 -0.93796 
1.72768 2.71800 -0.90052 
1.75621 2.31600 -0.76733 
1.86931 2.29900 -0.76170 
1.87531 2.29900 -0.76170 
1.88731 2.29900 -0.76170 
1.91277 2.30800 -0.76468 
-1.67726 2.16100 -0.72162 
-1.66034 2.16100 -0.72162 
-1.57592 2.16900 -0.72429 
-1.56402 2.18400 -0.72930 
-1.51783 2.20800 -0.73731 
-1.37744 2.35200 -0.78540 
-1.37130 2.35200 -0.78540 
-1.32726 2.36100 -0.78840 
-1.27530 2.37900 -0.79441 
-1.26819 2.38900 -0.79775 
-1.18069 2.42700 -0.81044 
-1.16321 2.41700 -0.80710 
-1.08781 2.44600 -0.81679 
-0.98628 2.49600 -0.83348 
-0.94204 2.51700 -0.84049 
-0.83208 2.67000 -0.89159 
-0.79724 2.67000 -0.89159 
-0.78330 2.67000 -0.89159 
-0.76937 2.67000 -0.89159 
-0.70829 2.73000 -0.91162 
-0.32362 2.08700 -0.69691 
-0.19835 2.08700 -0.69691 
-0.12975 2.12300 -0.70893 
0.06516 1.98500 -0.66285 
0.08536 1.97300 -0.65884 
0.35677 3.28800 -1.09795 
0.48473 3.34200 -1.11598 
0.50487 3.36000 -1.12199 
0.77063 3.57600 -1.19412 
0.77996 3.57600 -1.19412 
1.05369 3.55500 -1.18711 
1.12602 3.43600 -1.14737 
1.15372 3.36000 -1.12199 
1.18906 3.28800 -1.09795 
1.23008 3.30600 -1.10396 
1.35087 3.30600 -1.10396 
1.40366 3.01200 -1.00579 
1.57799 2.81800 -0.94101 
1.60741 2.75500 -0.91997 
1.67025 2.69400 -0.89960 
1.78361 2.70600 -0.90361 
1.76190 2.59100 -0.86521 
1.74550 2.33400 -0.77939 
1.75159 2.33400 -0.77939 
1.78731 2.32500 -0.77638 
1.95868 2.33400 -0.77939 
-1.54115 2.19200 -0.73769 
-1.48079 2.24800 -0.75653 
-1.47426 2.26500 -0.76226 
-1.43639 2.29900 -0.77370 
-1.21367 2.41700 -0.81341 
-1.13375 2.40800 -0.81038 
-1.11489 2.40800 -0.81038 
-0.97062 2.50600 -0.84336 
-0.96408 2.50600 -0.84336 
-0.62585 2.68200 -0.90259 
-0.29094 2.08700 -0.70235 
-0.15582 2.10100 -0.70706 
-0.11705 2.09400 -0.70471 
-0.02962 2.09400 -0.70471 
-0.00771 2.08000 -0.70000 
0.28357 3.23600 -1.08903 
0.33599 3.25300 -1.09475 
0.35482 3.27000 -1.10047 
0.57249 3.39700 -1.14321 
0.61135 3.41600 -1.14961 
1.00289 3.64000 -1.22499 
1.01239 3.64000 -1.22499 
1.09346 3.47500 -1.16946 
1.13379 3.37900 -1.13716 
1.16549 3.27000 -1.10047 
1.25771 3.28800 -1.10653 
1.28185 3.30600 -1.11259 
1.36067 3.28800 -1.10653 
1.39193 3.20200 -1.07759 
1.39117 3.08900 -1.03956 
1.40746 2.95400 -0.99413 
1.54703 2.91200 -0.97999 
1.83686 2.33400 -0.78548 
1.97235 2.34300 -0.78851 
-1.54687 2.19200 -0.74341 
-1.53511 2.20800 -0.74884 
-1.49981 2.22400 -0.75426 
-1.49306 2.24000 -0.75969 
-1.39051 2.34300 -0.79462 
-1.38972 2.35200 -0.79767 
-1.30878 2.36100 -0.80072 
-1.13530 2.39800 -0.81327 
-1.08584 2.45600 -0.83294 
-1.04255 2.50600 -0.84990 
-0.94578 2.52700 -0.85702 
-0.87388 2.67000 -0.90552 
-0.85298 2.67000 -0.90552 
-0.75883 2.68200 -0.90959 
-0.34614 2.05900 -0.69830 
-0.33539 2.05900 -0.69830 
-0.32575 2.06600 -0.70068 
-0.25112 2.07300 -0.70305 
-0.21181 2.05900 -0.69830 
-0.16512 2.08000 -0.70542 
-0.14389 2.08700 -0.70780 
-0.11627 2.08000 -0.70542 
-0.07260 2.07300 -0.70305 
-0.00226 2.05900 -0.69830 
0.05012 2.00500 -0.67999 
0.12337 2.00500 -0.67999 
0.44984 3.34200 -1.13343 
0.64182 3.43600 -1.16531 
0.68538 3.47500 -1.17853 
1.32352 3.32400 -1.12732 
1.36449 3.23600 -1.09748 
1.38311 3.08900 -1.04762 
1.56957 2.96900 -1.00692 
1.58476 2.95400 -1.00184 
1.61442 2.76700 -0.93842 
1.65619 2.69400 -0.91366 
1.71287 2.40800 -0.81666 
1.75896 2.35200 -0.79767 
1.81572 2.37000 -0.80378 
1.83347 2.36100 -0.80072 
1.91472 2.32500 -0.78852 
1.93432 2.33400 -0.79157 
-1.60362 2.15300 -0.73580 
-1.59801 2.15300 -0.73580 
-1.51754 2.21600 -0.75733 
-1.48721 2.24000 -0.76553 
-1.30878 2.36100 -0.80689 
-1.30262 2.36100 -0.80689 
-1.28413 2.36100 -0.80689 
-1.27530 2.37900 -0.81304 
-1.13530 2.39800 -0.81953 
-1.10469 2.42700 -0.82944 
-0.92704 2.54800 -0.87079 
-0.85640 2.65900 -0.90873 
-0.80089 2.65900 -0.90873 
-0.59531 2.58000 -0.88173 
-0.43054 2.13100 -0.72828 
-0.38506 2.06600 -0.70607 
-0.24858 2.05200 -0.70128 
-0.23172 2.04500 -0.69889 
-0.20038 2.05200 -0.70128 
-0.05044 2.05200 -0.70128 
-0.03987 2.05900 -0.70368 
0.08070 1.98500 -0.67839 
0.14846 2.22400 -0.76007 
0.24156 3.02700 -1.03449 
0.30046 3.23600 -1.10592 
0.37393 3.28800 -1.12369 
0.64700 3.41600 -1.16744 
0.71649 3.49400 -1.19409 
0.91740 3.64000 -1.24399 
0.94590 3.64000 -1.24399 
1.24432 3.25300 -1.11173 
1.62319 2.92600 -0.99998 
1.62276 2.85800 -0.97674 
1.64143 2.67000 -0.91249 
1.67627 2.67000 -0.91249 
1.68324 2.67000 -0.91249 
1.73181 2.65900 -0.90873 
1.76190 2.59100 -0.88549 
1.73441 2.35200 -0.80381 
1.86458 2.30800 -0.78877 
1.91472 2.32500 -0.79458 
-1.66543 2.15300 -0.74142 
-1.59841 2.14600 -0.73901 
-1.54687 2.19200 -0.75485 
-1.54115 2.19200 -0.75485 
-1.45555 2.28200 -0.78584 
-1.43768 2.28200 -0.78584 
-1.39663 2.34300 -0.80685 
-1.37039 2.36100 -0.81305 
-1.29029 2.36100 -0.81305 
-1.27530 2.37900 -0.81925 
-1.26045 2.39800 -0.82579 
-1.24521 2.41700 -0.83233 
-1.18536 2.39800 -0.82579 
-1.09419 2.44600 -0.84232 
-1.06445 2.49600 -0.85954 
-1.01640 2.50600 -0.86298 
-0.91769 2.55900 -0.88123 
-0.76925 2.69400 -0.92772 
-0.75150 2.70600 -0.93185 
-0.72004 2.69400 -0.92772 
-0.69895 2.69400 -0.92772 
-0.63020 2.61300 -0.89983 
-0.10364 2.04500 -0.70423 
0.02405 2.01200 -0.69286 
0.06019 1.99200 -0.68598 
0.13476 2.10100 -0.72351 
0.32750 3.25300 -1.12022 
0.34628 3.27000 -1.12607 
0.39323 3.30600 -1.13847 
0.56322 3.34200 -1.15087 
0.95350 3.59700 -1.23868 
1.04209 3.45500 -1.18978 
1.34179 3.20200 -1.10266 
1.35743 3.10400 -1.06891 
1.63184 2.99800 -1.03241 
1.62119 2.70600 -0.93185 
1.66242 2.65900 -0.91567 
1.75123 2.63600 -0.90775 
1.72838 2.46600 -0.84921 
1.72713 2.44600 -0.84232 
1.86331 2.29900 -0.79170 
-1.66001 2.14600 -0.74461 
-1.62610 2.15300 -0.74704 
-1.62048 2.15300 -0.74704 
-1.47494 2.25700 -0.78312 
-1.46835 2.26500 -0.78590 
-1.44959 2.28200 -0.79180 
-1.39803 2.32500 -0.80672 
-1.39735 2.33400 -0.80984 
-1.33232 2.37000 -0.82233 
-1.31995 2.37000 -0.82233 
-1.22800 2.40800 -0.83552 
-1.12746 2.40800 -0.83552 
-1.10879 2.43600 -0.84523 
-1.07965 2.48600 -0.86258 
-0.94034 2.54800 -0.88409 
-0.63434 2.60200 -0.90283 
-0.61453 2.54800 -0.88409 
-0.59309 2.48600 -0.86258 
-0.50697 2.24800 -0.78000 
-0.40771 2.01800 -0.70020 
-0.37084 2.01800 -0.70020 
-0.32569 2.03200 -0.70505 
-0.15019 2.02500 -0.70262 
-0.14010 2.03200 -0.70505 
-0.04978 2.02500 -0.70262 
-0.04450 2.02500 -0.70262 
0.24275 3.04200 -1.05550 
0.69562 3.43600 -1.19221 
0.71750 3.45500 -1.19880 
0.83559 3.53500 -1.22656 
0.85887 3.55500 -1.23350 
0.95164 3.55500 -1.23350 
0.95552 3.53500 -1.22656 
0.96474 3.53500 -1.22656 
1.13518 3.30600 -1.14710 
1.22937 3.23600 -1.12281 
1.41976 2.88500 -1.00102 
1.63467 2.65900 -0.92261 
1.64855 2.65900 -0.92261 
1.74392 2.62500 -0.91081 
1.84046 2.37000 -0.82233 
1.94789 2.34300 -0.81296 
1.97518 2.36100 -0.81921 
-1.57575 2.16100 -0.75545 
-1.32496 2.37900 -0.83166 
-1.16976 2.37900 -0.83166 
-1.14492 2.37900 -0.83166 
-1.13103 2.38900 -0.83516 
-1.12746 2.40800 -0.84180 
-1.12369 2.42700 -0.84844 
-1.10507 2.45600 -0.85858 
-0.95614 2.53700 -0.88690 
-0.89614 2.61300 -0.91346 
-0.88932 2.61300 -0.91346 
-0.81814 2.67000 -0.93339 
-0.75856 2.70600 -0.94598 
-0.66603 2.64700 -0.92535 
-0.57209 2.39800 -0.83830 
-0.42877 2.01800 -0.70546 
-0.38686 1.99200 -0.69637 
-0.32345 2.01800 -0.70546 
-0.10262 2.02500 -0.70791 
-0.07067 2.01800 -0.70546 
0.03408 1.98500 -0.69393 
0.05962 1.97300 -0.68973 
0.11145 1.97900 -0.69183 
0.51961 3.34200 -1.16831 
0.72252 3.43600 -1.20117 
0.79855 3.49400 -1.22145 
0.86327 3.53500 -1.23578 
0.96996 3.45500 -1.20781 
0.99152 3.43600 -1.20117 
1.07489 3.41600 -1.19418 
1.15943 3.25300 -1.13720 
1.24432 3.25300 -1.13720 
1.27487 3.28800 -1.14943 
1.32084 3.15200 -1.10189 
1.35650 3.01200 -1.05295 
1.41103 2.89800 -1.01310 
1.53083 2.96900 -1.03792 
1.65719 3.08900 -1.07987 
1.64705 2.96900 -1.03792 
1.63846 2.92600 -1.02288 
1.62265 2.87100 -1.00366 
1.61476 2.81800 -0.98513 
1.59983 2.74200 -0.95856 
1.72372 2.50600 -0.87606 
1.72943 2.48600 -0.86907 
1.83347 2.36100 -0.82537 
1.83963 2.36100 -0.82537 
1.84904 2.33400 -0.81593 
1.84531 2.29900 -0.80370 
-1.63709 2.13800 -0.75299 
-1.58168 2.13100 -0.75053 
-1.55829 2.17600 -0.76637 
-1.48190 2.23200 -0.78610 
-1.42697 2.26500 -0.79772 
-1.29392 2.37900 -0.83787 
-1.26045 2.39800 -0.84456 
-1.24057 2.40800 -0.84808 
-1.22800 2.40800 -0.84808 
-1.15734 2.37900 -0.83787 
-1.05370 2.48600 -0.87556 
-1.02126 2.48600 -0.87556 
-0.91769 2.55900 -0.90127 
-0.91175 2.58000 -0.90866 
-0.88932 2.61300 -0.92028 
-0.83872 2.64700 -0.93226 
-0.80440 2.69400 -0.94881 
-0.72383 2.68200 -0.94459 
-0.67294 2.64700 -0.93226 
-0.49517 2.14600 -0.75581 
-0.32660 2.00500 -0.70615 
-0.17373 1.99200 -0.70157 
-0.15861 1.99800 -0.70368 
-0.08647 2.01800 -0.71073 
-0.07571 2.01200 -0.70862 
-0.02808 1.98500 -0.69911 
-0.00731 1.97300 -0.69488 
0.03903 1.97300 -0.69488 
0.11145 1.97900 -0.69699 
0.28506 3.25300 -1.14569 
0.81234 3.47500 -1.22387 
0.94291 3.45500 -1.21683 
0.98913 3.39700 -1.19640 
1.05119 3.39700 -1.19640 
1.32498 3.30600 -1.16435 
1.36436 3.01200 -1.06081 
1.41517 2.95400 -1.04038 
1.41103 2.89800 -1.02066 
1.48624 2.91200 -1.02559 
1.64093 3.10400 -1.09321 
1.60001 2.71800 -0.95726 
1.66874 2.64700 -0.93226 
1.68140 2.61300 -0.92028 
1.72011 2.55900 -0.90127 
1.84049 2.30800 -0.81286 
-1.65330 2.12300 -0.75325 
-1.56965 2.17600 -0.77205 
-1.47659 2.22400 -0.78908 
-1.46383 2.24000 -0.79476 
-1.44471 2.26500 -0.80363 
-1.39383 2.30800 -0.81889 
-1.29392 2.37900 -0.84408 
-1.12746 2.40800 -0.85437 
-1.03423 2.48600 -0.88204 
-1.01477 2.48600 -0.88204 
-0.98370 2.50600 -0.88914 
-0.94699 2.54800 -0.90404 
-0.85254 2.64700 -0.93917 
-0.81117 2.67000 -0.94733 
-0.62402 2.50600 -0.88914 
-0.50637 2.14600 -0.76141 
-0.33786 1.97900 -0.70216 
-0.30369 1.99200 -0.70677 
0.49009 3.37900 -1.19888 
0.60891 3.30600 -1.17298 
0.61754 3.30600 -1.17298 
0.83954 3.47500 -1.23294 
0.87149 3.49400 -1.23968 
0.91209 3.47500 -1.23294 
0.93772 3.43600 -1.21911 
0.96792 3.41600 -1.21201 
1.06892 3.39700 -1.20527 
1.07778 3.39700 -1.20527 
1.10734 3.37900 -1.19888 
1.18715 3.23600 -1.14814 
1.20404 3.23600 -1.14814 
1.29047 3.30600 -1.17298 
1.30650 3.04200 -1.07931 
1.40939 2.92600 -1.03816 
1.41442 2.84400 -1.00906 
1.42185 2.84400 -1.00906 
1.65754 3.12000 -1.10699 
1.68046 3.05800 -1.08499 
1.59291 2.69400 -0.95584 
1.59322 2.62500 -0.93136 
1.67556 2.63600 -0.93526 
1.69208 2.53700 -0.90014 
1.69860 2.52700 -0.89659 
1.72987 2.49600 -0.88559 
1.73278 2.43600 -0.86430 
1.80806 2.35200 -0.83450 
1.82270 2.31600 -0.82173 
-1.58128 2.12300 -0.75879 
-1.58168 2.13100 -0.76165 
-1.48240 2.22400 -0.79489 
-1.38840 2.29900 -0.82169 
-1.37983 2.32500 -0.83099 
-1.36606 2.34300 -0.83742 
-1.35706 2.37000 -0.84707 
-1.13168 2.41700 -0.86387 
-0.86963 2.63600 -0.94214 
-0.84253 2.65900 -0.95036 
-0.80782 2.68200 -0.95858 
-0.45284 1.98500 -0.70947 
-0.34781 1.94800 -0.69624 
-0.27324 1.96000 -0.70053 
-0.15663 1.97300 -0.70518 
-0.11731 2.00500 -0.71661 
-0.03274 1.95400 -0.69839 
-0.02755 1.94800 -0.69624 
0.07480 1.96600 -0.70268 
0.13297 2.07300 -0.74092 
0.48128 3.37900 -1.20770 
0.75398 3.41600 -1.22092 
0.77632 3.43600 -1.22807 
0.86176 3.45500 -1.23486 
0.90684 3.45500 -1.23486 
0.99589 3.36000 -1.20091 
1.25082 3.27000 -1.16874 
1.41517 2.95400 -1.05580 
1.58434 3.04200 -1.08725 
1.57882 2.70600 -0.96716 
1.69756 2.50600 -0.89568 
1.70410 2.50600 -0.89568 
1.74185 2.47600 -0.88496 
1.75546 2.38900 -0.85386 
1.79962 2.39800 -0.85708 
1.80932 2.29900 -0.82169 
1.88376 2.27300 -0.81240 
-1.65337 2.11600 -0.76181 
-1.64785 2.11600 -0.76181 
-1.59236 2.12300 -0.76433 
-1.43371 2.25700 -0.81257 
-1.42697 2.26500 -0.81545 
-1.41515 2.26500 -0.81545 
-1.37640 2.29900 -0.82769 
-1.36770 2.32500 -0.83705 
-1.19961 2.38900 -0.86010 
-1.04946 2.47600 -0.89142 
-0.93104 2.55900 -0.92130 
-0.90595 2.60200 -0.93678 
-0.89614 2.61300 -0.94074 
-0.87651 2.63600 -0.94902 
-0.84253 2.65900 -0.95730 
-0.79034 2.69400 -0.96990 
-0.78680 2.70600 -0.97422 
-0.75519 2.69400 -0.96990 
-0.46483 1.99200 -0.71717 
-0.42496 1.92900 -0.69448 
-0.38488 1.90500 -0.68584 
-0.36229 1.91700 -0.69016 
-0.06353 1.96000 -0.70565 
-0.02737 1.93500 -0.69664 
0.04870 1.94800 -0.70133 
0.06967 1.96600 -0.70781 
0.11145 1.97900 -0.71249 
0.52241 3.36000 -1.20968 
0.53416 3.32400 -1.19672 
0.55412 3.28800 -1.18376 
0.65915 3.34200 -1.20320 
0.85702 3.43600 -1.23704 
0.90186 3.43600 -1.23704 
0.95744 3.37900 -1.21652 
1.16739 3.32400 -1.19672 
1.29489 3.16900 -1.14091 
1.30147 3.01200 -1.08439 
1.30933 3.01200 -1.08439 
1.61530 2.85800 -1.02895 
1.59999 2.80500 -1.00986 
1.67458 2.61300 -0.94074 
1.73819 2.41700 -0.87018 
1.80335 2.37000 -0.85325 
1.78431 2.29000 -0.82445 
1.81976 2.28200 -0.82157 
1.85872 2.25700 -0.81257 
-1.64790 2.10900 -0.76479 
-1.57574 2.12300 -0.76987 
-1.44045 2.24000 -0.81230 
-1.39742 2.26500 -0.82136 
-1.37640 2.29900 -0.83369 
-1.19961 2.38900 -0.86633 
-1.17467 2.38900 -0.86633 
-1.15407 2.39800 -0.86959 
-1.14057 2.43600 -0.88337 
-1.10761 2.47600 -0.89788 
-1.03653 2.47600 -0.89788 
-0.95614 2.53700 -0.92000 
-0.92127 2.56900 -0.93160 
-0.87651 2.63600 -0.95590 
-0.82865 2.65900 -0.96424 
-0.79034 2.69400 -0.97693 
-0.78680 2.70600 -0.98128 
-0.76925 2.69400 -0.97693 
-0.64903 2.52700 -0.91637 
-0.40604 1.91100 -0.69299 
-0.36996 1.90500 -0.69082 
-0.28578 1.94100 -0.70387 
-0.24723 1.91700 -0.69517 
-0.22722 1.91700 -0.69517 
-0.20347 1.92900 -0.69952 
-0.19906 1.93500 -0.70169 
-0.17886 1.93500 -0.70169 
-0.14956 1.94800 -0.70641 
-0.01207 1.91100 -0.69299 
0.09595 1.97900 -0.71765 
0.49009 3.37900 -1.22534 
0.49611 3.36000 -1.21845 
1.10111 3.36000 -1.21845 
1.15626 3.34200 -1.21192 
1.35650 3.01200 -1.09225 
1.36436 3.01200 -1.09225 
1.41152 3.01200 -1.09225 
1.44234 2.88500 -1.04619 
1.57230 2.61300 -0.94756 
1.58610 2.59100 -0.93958 
1.67400 2.59100 -0.93958 
1.68709 2.58000 -0.93559 
1.69860 2.52700 -0.91637 
1.73990 2.44600 -0.88700 
1.83888 2.24000 -0.81230 
1.83813 2.23200 -0.80940 
-1.58115 2.15300 -0.78637 
-1.43460 2.24000 -0.81814 
-1.33053 2.38900 -0.87256 
-1.18714 2.38900 -0.87256 
-1.14902 2.42700 -0.88644 
-1.14693 2.43600 -0.88973 
-1.05592 2.47600 -0.90434 
-0.76925 2.69400 -0.98396 
-0.64107 2.49600 -0.91164 
-0.38245 1.89300 -0.69140 
-0.32025 1.93500 -0.70674 
-0.23077 1.90500 -0.69579 
-0.15313 1.92900 -0.70455 
-0.13382 1.94100 -0.70894 
-0.03689 1.90500 -0.69579 
-0.01690 1.89300 -0.69140 
0.01780 1.90500 -0.69579 
0.05923 1.96000 -0.71587 
0.09106 1.98500 -0.72501 
0.38460 3.30600 -1.20749 
0.61082 3.27000 -1.19434 
0.69404 3.34200 -1.22064 
0.76751 3.39700 -1.24073 
0.84730 3.39700 -1.24073 
1.05462 3.32400 -1.21406 
1.27649 3.18500 -1.16330 
1.28638 3.08900 -1.12823 
1.42906 2.98300 -1.08952 
1.53858 2.96900 -1.08440 
1.66525 3.08900 -1.12823 
1.57164 2.71800 -0.99273 
1.57176 2.67000 -0.97520 
1.63358 2.60200 -0.95036 
1.66094 2.61300 -0.95438 
1.69340 2.55900 -0.93465 
1.76314 2.40800 -0.87950 
1.77037 2.25700 -0.82435 
1.76918 2.24800 -0.82106 
1.79982 2.25700 -0.82435 
1.84523 2.19200 -0.80061 
-1.58161 2.14600 -0.78941 
-1.52982 2.18400 -0.80339 
-1.50054 2.20800 -0.81222 
-1.43531 2.23200 -0.82105 
-1.25046 2.37900 -0.87512 
-1.15329 2.43600 -0.89609 
-0.99931 2.49600 -0.91816 
-0.97488 2.51700 -0.92588 
-0.49051 2.01200 -0.74012 
-0.45597 1.95400 -0.71878 
-0.41863 1.92300 -0.70738 
-0.41232 1.91700 -0.70517 
-0.23425 1.89300 -0.69634 
-0.12293 1.92900 -0.70959 
-0.07236 1.92300 -0.70738 
-0.03644 1.88200 -0.69230 
0.04852 1.94100 -0.71400 
0.45856 3.34200 -1.22936 
1.21669 3.27000 -1.20288 
1.25651 3.21900 -1.18411 
1.32506 3.01200 -1.10797 
1.33292 3.01200 -1.10797 
1.42558 3.04200 -1.11900 
1.57164 2.71800 -0.99982 
1.63367 2.61300 -0.96120 
1.73785 2.51700 -0.92588 
1.78865 2.41700 -0.88910 
1.81505 2.42700 -0.89278 
1.85095 2.19200 -0.80633 
-1.60387 2.10900 -0.78130 
-1.54122 2.18400 -0.80909 
-1.51827 2.19200 -0.81205 
-1.49478 2.20800 -0.81798 
-1.33645 2.33400 -0.86466 
-1.19459 2.37900 -0.88133 
-1.00986 2.50600 -0.92838 
-1.00332 2.50600 -0.92838 
-0.70160 2.62500 -0.97246 
-0.46107 1.95400 -0.72388 
-0.39979 1.90500 -0.70573 
-0.38245 1.89300 -0.70128 
-0.33517 1.90500 -0.70573 
-0.29540 1.90500 -0.70573 
-0.27871 1.89300 -0.70128 
-0.27377 1.89300 -0.70128 
-0.05609 1.88200 -0.69721 
-0.04597 1.87000 -0.69276 
0.22695 2.84400 -1.05359 
0.28655 3.27000 -1.21141 
0.59375 3.27000 -1.21141 
0.78546 3.36000 -1.24475 
0.82517 3.37900 -1.25179 
1.01440 3.30600 -1.22475 
1.01746 3.28800 -1.21808 
1.04320 3.28800 -1.21808 
1.15244 3.30600 -1.22475 
1.26672 3.12000 -1.15584 
1.27972 3.07300 -1.13843 
1.56164 2.95400 -1.09434 
1.56479 2.67000 -0.98913 
1.62667 2.59100 -0.95987 
1.67320 2.56900 -0.95172 
1.73172 2.40800 -0.89207 
1.76483 2.26500 -0.83910 
1.76448 2.25700 -0.83613 
1.79982 2.25700 -0.83613 
-1.64790 2.10900 -0.78681 
-1.60938 2.10900 -0.78681 
-1.60344 2.12300 -0.79203 
-1.59239 2.15300 -0.80322 
