ply
format ascii 1.0
comment pointcloud saved from Realsense Viewer
element vertex 1877
property float32 x
property float32 y
property float32 z
end_header
1.77861 2.37000 1.32378 
1.85410 2.27300 1.26960 
-1.68912 2.16900 1.20585 
-1.66648 2.16900 1.20585 
-1.53627 2.16100 1.20140 
-1.52990 2.17600 1.20974 
-1.45338 2.22400 1.23642 
-1.43016 2.22400 1.23642 
-1.41783 2.23200 1.24087 
-1.40618 2.23200 1.24087 
-1.37615 2.24000 1.24532 
-1.35490 2.27300 1.26367 
-1.21172 2.35200 1.30759 
-1.20558 2.35200 1.30759 
-1.17152 2.37000 1.31759 
-1.14678 2.37000 1.31759 
-1.09526 2.37900 1.32260 
-1.08116 2.38900 1.32816 
-0.91381 2.40800 1.33872 
-0.81400 2.54800 1.41655 
-0.63568 2.69400 1.49772 
-0.48759 2.58000 1.43434 
-0.42517 2.56900 1.42823 
-0.39668 2.60200 1.44657 
-0.33041 2.67000 1.48438 
-0.23705 2.71800 1.51106 
-0.07755 2.60200 1.44657 
-0.04378 2.61300 1.45269 
0.11786 2.56900 1.42823 
0.15202 2.58000 1.43434 
0.22505 2.64700 1.47159 
0.24688 2.65900 1.47826 
0.30014 2.58000 1.43434 
0.30972 2.54800 1.41655 
0.49718 2.62500 1.45936 
0.74312 2.64700 1.47159 
0.76434 2.62500 1.45936 
0.88196 2.67000 1.48438 
1.03150 2.62500 1.45936 
1.06778 2.64700 1.47159 
1.10685 2.62500 1.45936 
1.20746 2.59100 1.44046 
1.33369 2.48600 1.38208 
1.35315 2.48600 1.38208 
1.42914 2.51700 1.39932 
1.55889 2.60200 1.44657 
1.56590 2.58000 1.43434 
1.61263 2.47600 1.37652 
1.65903 2.51700 1.39932 
1.67222 2.52700 1.40488 
1.70606 2.54800 1.41655 
1.71551 2.46600 1.37096 
1.78364 2.43600 1.35429 
1.83931 2.29900 1.27812 
-1.57553 2.15300 1.19133 
-1.54182 2.15300 1.19133 
-1.49478 2.20800 1.22177 
-1.39453 2.23200 1.23505 
-1.35714 2.25700 1.24888 
-1.29841 2.29900 1.27212 
-1.14678 2.37000 1.31141 
-1.08116 2.38900 1.32192 
-1.03886 2.43600 1.34793 
-1.01602 2.42700 1.34295 
-0.83694 2.51700 1.39275 
-0.79730 2.58000 1.42761 
-0.63568 2.69400 1.49069 
-0.45393 2.58000 1.42761 
-0.41706 2.60200 1.43978 
-0.40518 2.61300 1.44587 
-0.30526 2.69400 1.49069 
-0.17793 2.79200 1.54492 
-0.13653 2.69400 1.49069 
0.16761 2.61300 1.44587 
0.25268 2.64700 1.46468 
0.30270 2.60200 1.43978 
0.33238 2.56900 1.42152 
0.49034 2.62500 1.45251 
0.68613 2.87100 1.58863 
0.72311 2.75500 1.52444 
0.73080 2.73000 1.51061 
0.78456 2.64700 1.46468 
0.82993 2.68200 1.48405 
0.84771 2.69400 1.49069 
0.91200 2.63600 1.45860 
1.15757 2.64700 1.46468 
1.21259 2.60200 1.43978 
1.22098 2.59100 1.43370 
1.27226 2.61300 1.44587 
1.32802 2.60200 1.43978 
1.57365 2.51700 1.39275 
1.67874 2.51700 1.39275 
1.78663 2.38900 1.32192 
1.78536 2.37900 1.31639 
1.85856 2.30800 1.27710 
1.90156 2.27300 1.25773 
1.90077 2.26500 1.25331 
-1.64950 2.16900 1.19453 
-1.58115 2.15300 1.18572 
-1.44292 2.20800 1.21601 
-1.10768 2.37900 1.31018 
-0.96768 2.41700 1.33111 
-0.84351 2.51700 1.38618 
-0.80731 2.56900 1.41482 
-0.77695 2.62500 1.44566 
-0.53257 2.63600 1.45172 
-0.36150 2.69400 1.48366 
-0.35605 2.70600 1.49027 
-0.22688 2.76700 1.52386 
-0.22164 2.79200 1.53763 
-0.20803 2.80500 1.54479 
-0.16265 2.78000 1.53102 
-0.13714 2.70600 1.49027 
-0.11295 2.63600 1.45172 
0.36074 2.58000 1.42088 
0.48551 2.63600 1.45172 
0.75003 2.64700 1.45777 
0.87583 2.69400 1.48366 
1.09773 2.63600 1.45172 
1.22155 2.63600 1.45172 
1.33590 2.52700 1.39169 
1.56703 2.49600 1.37461 
1.75266 2.44600 1.34708 
1.76973 2.41700 1.33111 
-1.53630 2.16900 1.18887 
-1.48362 2.20000 1.20586 
-1.39610 2.21600 1.21463 
-1.34304 2.27300 1.24587 
-1.31041 2.29900 1.26012 
-1.29747 2.30800 1.26506 
-1.28275 2.32500 1.27437 
-1.24377 2.34300 1.28424 
-1.21320 2.34300 1.28424 
-0.87434 2.45600 1.34618 
-0.84351 2.51700 1.37961 
-0.83367 2.52700 1.38509 
-0.81084 2.55900 1.40263 
-0.77695 2.62500 1.43881 
-0.70598 2.69400 1.47663 
-0.70206 2.70600 1.48321 
-0.57427 2.67000 1.46347 
-0.47337 2.61300 1.43223 
-0.44814 2.62500 1.43881 
0.04468 2.60200 1.42620 
0.12669 2.61300 1.43223 
0.19217 2.67000 1.46347 
0.35097 2.65900 1.45744 
0.45799 2.63600 1.44484 
0.68302 2.85800 1.56652 
0.90983 2.67000 1.46347 
0.95860 2.61300 1.43223 
1.03835 2.62500 1.43881 
1.15370 2.67000 1.46347 
1.24219 2.63600 1.44484 
1.27500 2.64700 1.45087 
1.34160 2.60200 1.42620 
1.33799 2.56900 1.40811 
1.38465 2.49600 1.36810 
1.80193 2.35200 1.28917 
1.85103 2.35200 1.28917 
1.92686 2.32500 1.27437 
-1.65981 2.15300 1.17448 
-1.57013 2.13800 1.16630 
-1.56456 2.13800 1.16630 
-1.51843 2.18400 1.19139 
-1.41473 2.20000 1.20012 
-1.37520 2.24800 1.22630 
-1.35714 2.25700 1.23121 
-1.35604 2.26500 1.23558 
-1.29747 2.30800 1.25903 
-1.20097 2.34300 1.27812 
-1.19945 2.35200 1.28303 
-1.01343 2.43600 1.32886 
-1.00708 2.43600 1.32886 
-0.95269 2.42700 1.32395 
-0.80070 2.59100 1.41341 
-0.65677 2.69400 1.46960 
-0.52569 2.63600 1.43796 
-0.38962 2.69400 1.46960 
-0.27020 2.76700 1.50942 
-0.14681 2.75500 1.50287 
-0.11394 2.65900 1.45051 
-0.09151 2.61300 1.42541 
-0.07755 2.60200 1.41941 
-0.05017 2.59100 1.41341 
-0.01658 2.62500 1.43196 
0.26649 2.64700 1.44396 
0.62811 2.78000 1.51651 
0.63811 2.79200 1.52306 
0.76067 2.63600 1.43796 
0.88753 2.73000 1.48924 
1.02678 2.61300 1.42541 
1.23731 2.67000 1.45651 
1.25124 2.67000 1.45651 
1.26518 2.67000 1.45651 
1.38206 2.52700 1.37850 
1.52551 2.58000 1.40741 
1.56703 2.49600 1.36159 
1.58091 2.40800 1.31358 
1.62500 2.44600 1.33431 
1.82731 2.36100 1.28794 
1.92343 2.34300 1.27812 
-1.64857 2.15300 1.16886 
-1.60924 2.15300 1.16886 
-1.57571 2.13800 1.16072 
-1.40958 2.19200 1.19003 
-1.20097 2.34300 1.27201 
-1.19486 2.34300 1.27201 
-1.18103 2.35200 1.27690 
-1.10967 2.37000 1.28667 
-1.05793 2.43600 1.32250 
-1.00708 2.43600 1.32250 
-0.88075 2.45600 1.33336 
-0.73893 2.63600 1.43108 
-0.53479 2.64700 1.43705 
-0.49609 2.62500 1.42511 
-0.48441 2.63600 1.43108 
-0.36907 2.80500 1.52283 
-0.22371 2.81800 1.52989 
-0.12192 2.68200 1.45605 
-0.00981 2.64700 1.43705 
-0.00292 2.65900 1.44357 
0.04584 2.67000 1.44954 
0.11453 2.64700 1.43705 
0.27340 2.64700 1.43705 
0.47998 2.68200 1.45605 
0.66304 2.80500 1.52283 
0.69964 2.80500 1.52283 
0.90491 2.71800 1.47560 
0.98079 2.63600 1.43108 
1.16407 2.69400 1.46257 
1.37016 2.75500 1.49568 
1.55923 2.56900 1.39471 
1.57308 2.54800 1.38330 
1.54904 2.42700 1.31761 
1.74442 2.51700 1.36647 
1.75099 2.51700 1.36647 
1.87849 2.37900 1.29156 
1.94437 2.36100 1.28178 
1.94962 2.31600 1.25735 
-1.62035 2.13800 1.15514 
-1.51854 2.17600 1.17567 
-1.36933 2.24800 1.21457 
-1.29747 2.30800 1.24699 
-1.26945 2.33400 1.26103 
-1.23766 2.34300 1.26590 
-1.18874 2.34300 1.26590 
-0.99436 2.43600 1.31614 
-0.96893 2.43600 1.31614 
-0.92823 2.44600 1.32155 
-0.89998 2.45600 1.32695 
-0.86854 2.47600 1.33775 
-0.83037 2.51700 1.35991 
-0.80731 2.56900 1.38800 
-0.75976 2.61300 1.41177 
-0.74955 2.62500 1.41826 
-0.60911 2.67000 1.44257 
-0.37078 2.81800 1.52253 
-0.35367 2.85800 1.54414 
-0.33875 2.85800 1.54414 
-0.06424 2.61300 1.41177 
-0.01679 2.65900 1.43663 
0.09462 2.67000 1.44257 
0.13586 2.65900 1.43663 
0.24094 2.67000 1.44257 
0.30365 2.67000 1.44257 
0.33748 2.71800 1.46850 
0.38713 2.71800 1.46850 
0.39422 2.71800 1.46850 
0.49570 2.73000 1.47499 
0.51959 2.70600 1.46202 
0.54077 2.70600 1.46202 
0.71655 2.73000 1.47499 
0.72116 2.69400 1.45554 
0.77048 2.67000 1.44257 
0.83054 2.73000 1.47499 
0.96722 2.69400 1.45554 
0.98935 2.65900 1.43663 
1.31361 2.74200 1.48147 
1.38128 2.79200 1.50849 
1.43185 2.56900 1.38800 
1.51204 2.58000 1.39394 
1.57934 2.56900 1.38800 
1.54945 2.37900 1.28535 
1.59976 2.40800 1.30102 
1.65087 2.45600 1.32695 
1.67078 2.47600 1.33775 
1.76170 2.38900 1.29075 
1.79778 2.37900 1.28535 
1.82114 2.36100 1.27562 
1.89975 2.39800 1.29561 
1.94003 2.41700 1.30588 
-1.61504 2.13100 1.14579 
-1.50703 2.18400 1.17429 
-1.35013 2.26500 1.21784 
-1.33049 2.28200 1.22698 
-1.31263 2.28200 1.22698 
-1.31125 2.29000 1.23129 
-1.28882 2.32500 1.25010 
-1.25727 2.33400 1.25494 
-1.17040 2.34300 1.25978 
-1.03036 2.44600 1.31516 
-0.96653 2.44600 1.31516 
-0.77693 2.60200 1.39904 
-0.72518 2.63600 1.41732 
-0.46096 2.74200 1.47432 
-0.07138 2.62500 1.41141 
0.06765 2.70600 1.45496 
0.15874 2.69400 1.44851 
0.41201 2.74200 1.47432 
0.45710 2.75500 1.48131 
0.47353 2.76700 1.48776 
0.69823 2.74200 1.47432 
0.82703 2.74200 1.47432 
0.83814 2.75500 1.48131 
0.94868 2.74200 1.47432 
0.96590 2.73000 1.46786 
1.35213 2.79200 1.50120 
1.57331 2.50600 1.34742 
1.56107 2.46600 1.32592 
1.53726 2.38900 1.28452 
1.63107 2.43600 1.30979 
1.71033 2.49600 1.34205 
1.75081 2.41700 1.29957 
1.82190 2.37000 1.27430 
1.90767 2.40800 1.29473 
1.95439 2.42700 1.30495 
-1.63173 2.13100 1.14023 
-1.59245 2.13800 1.14398 
-1.51843 2.18400 1.16859 
-1.40899 2.20000 1.17715 
-1.33049 2.28200 1.22103 
-1.09604 2.40800 1.28845 
-1.08347 2.40800 1.28845 
-1.06429 2.43600 1.30343 
-0.98800 2.43600 1.30343 
-0.89721 2.46600 1.31948 
-0.88792 2.47600 1.32483 
-0.80416 2.55900 1.36924 
-0.79056 2.58000 1.38048 
-0.74977 2.60200 1.39225 
-0.67879 2.67000 1.42864 
-0.52097 2.64700 1.41633 
-0.46315 2.75500 1.47412 
-0.45284 2.78000 1.48749 
-0.31184 2.88500 1.54368 
-0.28036 2.87100 1.53618 
-0.08654 2.67000 1.42864 
0.09547 2.69400 1.44148 
0.16725 2.71800 1.45432 
0.46125 2.78000 1.48749 
0.54574 2.76700 1.48054 
0.58119 2.73000 1.46074 
0.62246 2.75500 1.47412 
0.66127 2.76700 1.48054 
0.96455 2.76700 1.48054 
0.96755 2.75500 1.47412 
0.98445 2.74200 1.46716 
1.03098 2.65900 1.42275 
1.21328 2.69400 1.44148 
1.26511 2.73000 1.46074 
1.30392 2.76700 1.48054 
1.31114 2.76700 1.48054 
1.42196 2.62500 1.40456 
1.55252 2.56900 1.37459 
1.56114 2.45600 1.31413 
1.57428 2.37900 1.27293 
1.64415 2.44600 1.30878 
1.74240 2.48600 1.33018 
1.74701 2.45600 1.31413 
1.77459 2.39800 1.28310 
1.93372 2.41700 1.29326 
1.95439 2.42700 1.29861 
1.96540 2.37900 1.27293 
-1.60919 2.13800 1.13840 
-1.44390 2.19200 1.16715 
-1.39610 2.21600 1.17993 
-1.39032 2.21600 1.17993 
-1.32454 2.28200 1.21507 
-1.29990 2.33400 1.24276 
-1.25600 2.34300 1.24755 
-1.15475 2.36100 1.25714 
-1.08347 2.40800 1.28216 
-1.01759 2.44600 1.30240 
-0.94484 2.45600 1.30772 
-0.91377 2.47600 1.31837 
-0.89151 2.48600 1.32370 
-0.81711 2.53700 1.35085 
-0.80416 2.55900 1.36256 
-0.78041 2.59100 1.37960 
-0.74977 2.60200 1.38546 
-0.73249 2.61300 1.39132 
-0.54415 2.65900 1.41581 
-0.51157 2.67000 1.42167 
-0.42031 2.80500 1.49355 
-0.37207 2.88500 1.53615 
-0.30431 2.88500 1.53615 
0.03337 2.79200 1.48663 
0.06855 2.74200 1.46000 
0.07570 2.74200 1.46000 
0.15239 2.70600 1.44084 
0.24475 2.63600 1.40356 
0.35322 2.73000 1.45362 
0.55796 2.79200 1.48663 
0.68200 2.70600 1.44084 
0.71993 2.61300 1.39132 
0.92655 2.80500 1.49355 
1.16219 2.70600 1.44084 
1.29108 2.75500 1.46693 
1.33028 2.79200 1.48663 
1.41784 2.68200 1.42806 
1.49729 2.61300 1.39132 
1.56187 2.37900 1.26672 
1.63743 2.43600 1.29707 
1.69016 2.47600 1.31837 
1.88015 2.38900 1.27205 
1.96858 2.39800 1.27684 
1.95669 2.36100 1.25714 
-1.64841 2.13100 1.12911 
-1.62617 2.13100 1.12911 
-1.37706 2.23200 1.18263 
-1.29880 2.34300 1.24144 
-1.26211 2.34300 1.24144 
-1.25600 2.34300 1.24144 
-1.20097 2.34300 1.24144 
-1.06860 2.41700 1.28065 
-1.06669 2.42700 1.28595 
-1.05402 2.42700 1.28595 
-0.86253 2.49600 1.32251 
-0.81711 2.53700 1.34423 
-0.63285 2.68200 1.42106 
-0.43697 2.81800 1.49312 
-0.33593 2.89800 1.53551 
-0.32837 2.89800 1.53551 
-0.20544 2.87100 1.52120 
-0.04514 2.69400 1.42742 
0.18143 2.71800 1.44013 
0.22700 2.67000 1.41470 
0.32601 2.68200 1.42106 
0.40684 2.80500 1.48623 
0.57007 2.78000 1.47298 
0.60808 2.75500 1.45974 
0.67596 2.68200 1.42106 
0.69738 2.58000 1.36701 
0.75003 2.64700 1.40251 
0.86126 2.83100 1.50001 
0.89491 2.84400 1.50689 
0.91614 2.81800 1.49312 
1.03226 2.75500 1.45974 
1.17444 2.71800 1.44013 
1.42768 2.75500 1.45974 
1.45460 2.64700 1.40251 
1.63138 2.42700 1.28595 
1.90600 2.39800 1.27058 
-1.64824 2.13800 1.12724 
-1.57592 2.16900 1.14358 
-1.51286 2.17600 1.14728 
-1.47823 2.19200 1.15571 
-1.40835 2.20800 1.16415 
-1.34422 2.26500 1.19420 
-1.18103 2.35200 1.24007 
-1.07091 2.40800 1.26960 
-0.98568 2.44600 1.28963 
-0.70748 2.64700 1.39561 
-0.54186 2.68200 1.41406 
-0.42421 2.83100 1.49262 
-0.40943 2.83100 1.49262 
-0.28785 2.87100 1.51371 
-0.20544 2.87100 1.51371 
-0.18296 2.87100 1.51371 
-0.02470 2.76700 1.45887 
0.06251 2.79200 1.47206 
0.28912 2.60200 1.37188 
0.31485 2.64700 1.39561 
0.34305 2.70600 1.42671 
0.53892 2.92600 1.54271 
0.55154 2.91200 1.53532 
0.62085 2.78000 1.46573 
0.65530 2.74200 1.44569 
0.68007 2.59100 1.36608 
0.91614 2.81800 1.48576 
1.03437 2.78000 1.46573 
1.07032 2.74200 1.44569 
1.16735 2.71800 1.43304 
1.17444 2.71800 1.43304 
1.18338 2.70600 1.42671 
1.31570 2.79200 1.47206 
1.40647 2.85800 1.50685 
1.42927 2.84400 1.49947 
1.49511 2.67000 1.40773 
1.51230 2.56900 1.35448 
1.53241 2.56900 1.35448 
1.57462 2.40800 1.26960 
1.58686 2.39800 1.26432 
1.80238 2.42700 1.27961 
1.80757 2.41700 1.27434 
1.83911 2.41700 1.27434 
1.88469 2.37900 1.25431 
1.93432 2.33400 1.23058 
-1.62593 2.13800 1.12166 
-1.60961 2.14600 1.12586 
-1.52990 2.17600 1.14160 
-1.52422 2.17600 1.14160 
-1.43716 2.20800 1.15839 
-1.41987 2.20800 1.15839 
-1.19486 2.34300 1.22921 
-1.15915 2.37000 1.24338 
-1.15734 2.37900 1.24810 
-1.13727 2.38900 1.25334 
-1.03502 2.42700 1.27328 
-1.00708 2.43600 1.27800 
-0.88858 2.49600 1.30948 
-0.74660 2.59100 1.35932 
-0.48109 2.81800 1.47841 
-0.46638 2.81800 1.47841 
-0.03192 2.76700 1.45165 
-0.01763 2.79200 1.46477 
0.10387 2.73000 1.43224 
0.19913 2.67000 1.40076 
0.28790 2.59100 1.35932 
0.29591 2.60200 1.36509 
0.55685 2.94000 1.54242 
0.59804 2.84400 1.49205 
0.77037 2.69400 1.41336 
0.78779 2.73000 1.43224 
0.89820 2.83100 1.48523 
0.99703 2.81800 1.47841 
1.06798 2.79200 1.46477 
1.15619 2.74200 1.43854 
1.42269 2.71800 1.42595 
1.48746 2.69400 1.41336 
1.58037 2.46600 1.29374 
1.70264 2.46600 1.29374 
1.71601 2.47600 1.29899 
1.75538 2.48600 1.30423 
1.87043 2.36100 1.23865 
1.91935 2.27300 1.19249 
-1.61521 2.14600 1.12026 
-1.51286 2.17600 1.13592 
-1.40114 2.22400 1.16098 
-1.32758 2.30800 1.20483 
-1.29645 2.36100 1.23249 
-1.06229 2.41700 1.26173 
-0.99206 2.44600 1.27686 
-0.98330 2.45600 1.28208 
-0.85346 2.52700 1.31915 
-0.82065 2.54800 1.33011 
-0.72130 2.64700 1.38179 
-0.60320 2.70600 1.41259 
-0.34948 2.88500 1.50603 
-0.25672 2.85800 1.49194 
-0.17632 2.88500 1.50603 
-0.16048 2.87100 1.49872 
-0.01040 2.80500 1.46427 
0.05548 2.80500 1.46427 
0.24628 2.58000 1.34682 
0.31354 2.63600 1.37605 
0.33450 2.69400 1.40633 
0.36364 2.75500 1.43817 
0.40707 2.85800 1.49194 
0.61121 2.87100 1.49872 
0.65841 2.75500 1.43817 
0.66788 2.70600 1.41259 
0.66714 2.64700 1.38179 
0.71387 2.59100 1.35256 
0.77037 2.69400 1.40633 
0.84649 2.83100 1.47784 
0.87604 2.83100 1.47784 
0.90040 2.79200 1.45748 
0.99703 2.81800 1.47106 
1.05335 2.83100 1.47784 
1.39155 2.85800 1.49194 
1.41620 2.81800 1.47106 
1.49449 2.69400 1.40633 
1.51309 2.55900 1.33585 
1.54693 2.52700 1.31915 
1.55352 2.52700 1.31915 
1.58051 2.41700 1.26173 
1.80373 2.44600 1.27686 
1.85365 2.37900 1.24189 
1.85717 2.35200 1.22779 
1.90909 2.28200 1.19125 
-1.58101 2.17600 1.13024 
-1.47788 2.20000 1.14271 
-1.45492 2.20000 1.14271 
-1.32220 2.35200 1.22166 
-1.30758 2.37000 1.23101 
-1.28413 2.36100 1.22633 
-1.24989 2.34300 1.21698 
-1.18717 2.35200 1.22166 
-1.08122 2.41700 1.25542 
-1.04136 2.42700 1.26061 
-0.93843 2.45600 1.27568 
-0.85665 2.51700 1.30736 
-0.76689 2.59100 1.34580 
-0.70666 2.67000 1.38683 
-0.67083 2.69400 1.39930 
-0.57293 2.73000 1.41799 
-0.52539 2.78000 1.44397 
-0.40389 2.84400 1.47721 
-0.39647 2.84400 1.47721 
-0.34779 2.87100 1.49123 
-0.28655 2.85800 1.48448 
-0.27909 2.85800 1.48448 
-0.20644 2.88500 1.49850 
-0.13052 2.87100 1.49123 
-0.07628 2.80500 1.45695 
0.09763 2.75500 1.43098 
0.19660 2.63600 1.36917 
0.27438 2.59100 1.34580 
0.34609 2.73000 1.41799 
0.38666 2.81800 1.46370 
0.50811 2.96900 1.54213 
0.53385 2.98300 1.54941 
0.65572 2.80500 1.45695 
0.66896 2.68200 1.39306 
0.68007 2.59100 1.34580 
0.86126 2.83100 1.47046 
0.87937 2.81800 1.46370 
0.90040 2.79200 1.45020 
1.41472 2.73000 1.41799 
1.58670 2.44600 1.27048 
1.66286 2.43600 1.26529 
1.85195 2.36100 1.22633 
1.85405 2.32500 1.20763 
1.86458 2.30800 1.19880 
-1.65981 2.15300 1.11268 
-1.62641 2.14600 1.10906 
-1.43140 2.20800 1.14110 
-1.33947 2.25700 1.16642 
-1.33645 2.28200 1.17934 
-1.30758 2.37000 1.22482 
-1.20995 2.32500 1.20157 
-1.15915 2.37000 1.22482 
-1.15296 2.37000 1.22482 
-1.09836 2.42700 1.25428 
-0.95766 2.45600 1.26927 
-0.89438 2.47600 1.27960 
-0.82065 2.54800 1.31681 
-0.77710 2.58000 1.33335 
-0.73206 2.63600 1.36229 
-0.67786 2.69400 1.39227 
-0.59430 2.73000 1.41087 
-0.53990 2.78000 1.43671 
-0.36859 2.85800 1.47702 
-0.34779 2.87100 1.48374 
-0.17712 2.89800 1.49769 
0.01162 2.81800 1.45635 
0.13295 2.74200 1.41707 
0.16086 2.73000 1.41087 
0.16873 2.74200 1.41707 
0.37931 2.81800 1.45635 
0.53654 2.99800 1.54937 
0.56001 2.99800 1.54937 
0.63964 2.89800 1.49769 
0.67293 2.67000 1.37986 
0.67812 2.63600 1.36229 
0.68584 2.61300 1.35040 
0.86865 2.83100 1.46307 
0.91723 2.75500 1.42379 
1.14724 2.84400 1.46979 
1.25338 2.76700 1.42999 
1.31931 2.83100 1.46307 
1.38679 2.81800 1.45635 
1.50734 2.73000 1.41087 
1.52112 2.74200 1.41707 
1.58639 2.50600 1.29511 
1.61189 2.39800 1.23929 
1.63118 2.40800 1.24446 
1.76835 2.48600 1.28477 
1.77416 2.47600 1.27960 
1.86003 2.27300 1.17469 
-1.59236 2.17600 1.11888 
-1.50719 2.17600 1.11888 
-1.42563 2.20800 1.13534 
-1.18874 2.34300 1.20475 
-1.13441 2.37000 1.21864 
-1.08122 2.41700 1.24280 
-0.96407 2.45600 1.26286 
-0.90731 2.47600 1.27314 
-0.86005 2.52700 1.29936 
-0.82730 2.54800 1.31016 
-0.71683 2.68200 1.37906 
-0.52279 2.80500 1.44231 
-0.47665 2.79200 1.43563 
-0.32384 2.85800 1.46956 
-0.26288 2.84400 1.46236 
-0.19891 2.88500 1.48345 
0.06280 2.80500 1.44231 
0.24373 2.62500 1.34976 
0.48486 2.96900 1.52664 
0.68601 2.69400 1.38524 
0.75294 2.68200 1.37906 
0.95733 2.76700 1.42277 
1.03118 2.83100 1.45568 
1.17352 2.81800 1.44899 
1.32669 2.83100 1.45568 
1.34763 2.84400 1.46236 
1.39607 2.69400 1.38524 
1.52114 2.75500 1.41660 
1.58678 2.47600 1.27314 
1.59293 2.43600 1.25257 
1.80271 2.43600 1.25257 
-1.65419 2.15300 1.10144 
-1.64857 2.15300 1.10144 
-1.47251 2.19200 1.12139 
-1.39032 2.21600 1.13367 
-1.10645 2.41700 1.23650 
-1.01759 2.44600 1.25133 
-1.01121 2.44600 1.25133 
-0.97929 2.44600 1.25133 
-0.80416 2.55900 1.30914 
-0.79056 2.58000 1.31988 
-0.78383 2.58000 1.31988 
-0.49851 2.79200 1.42834 
-0.22042 2.87100 1.46875 
-0.16127 2.88500 1.47592 
-0.14621 2.88500 1.47592 
0.05574 2.81800 1.44164 
0.22802 2.68200 1.37207 
0.26420 2.69400 1.37820 
0.32912 2.76700 1.41555 
0.51307 2.99800 1.53373 
0.54690 3.01200 1.54089 
0.73895 2.68200 1.37207 
0.80569 2.76700 1.41555 
0.82754 2.79200 1.42834 
0.85731 2.81800 1.44164 
0.89653 2.78000 1.42220 
1.16951 2.84400 1.45494 
1.38816 2.70600 1.38434 
1.45747 2.73000 1.39662 
1.54943 2.76700 1.41555 
1.52494 2.60200 1.33114 
1.57264 2.56900 1.31426 
1.59338 2.42700 1.24161 
1.59976 2.40800 1.23189 
1.66305 2.42700 1.24161 
1.85872 2.25700 1.15464 
-1.67162 2.16100 1.09989 
-1.51854 2.17600 1.10753 
-1.39106 2.20800 1.12381 
-1.38454 2.21600 1.12789 
-1.32614 2.31600 1.17878 
-1.32937 2.34300 1.19252 
-1.32834 2.35200 1.19711 
-1.12394 2.36100 1.20169 
-1.00483 2.44600 1.24495 
-0.99844 2.44600 1.24495 
-0.99206 2.44600 1.24495 
-0.79390 2.56900 1.30755 
-0.71227 2.71800 1.38339 
-0.39103 2.80500 1.42767 
-0.33710 2.84400 1.44752 
-0.29401 2.85800 1.45465 
-0.22042 2.87100 1.46126 
-0.09263 2.85800 1.45465 
0.17666 2.87100 1.46126 
0.20188 2.80500 1.42767 
0.41108 2.94000 1.49638 
0.62727 2.98300 1.51827 
0.71516 2.78000 1.41495 
0.85731 2.81800 1.43429 
1.17693 2.84400 1.44752 
1.37198 2.73000 1.38950 
1.38904 2.69400 1.37117 
1.47081 2.75500 1.40222 
1.57264 2.56900 1.30755 
1.60605 2.42700 1.23528 
1.77343 2.46600 1.25513 
1.77181 2.44600 1.24495 
1.84672 2.42700 1.23528 
1.83931 2.29900 1.17013 
1.89562 2.27300 1.15690 
-1.66598 2.16100 1.09425 
-1.64295 2.15300 1.09020 
-1.58724 2.16900 1.09830 
-1.40835 2.20800 1.11805 
-1.39682 2.20800 1.11805 
-1.37954 2.20800 1.11805 
-1.33645 2.28200 1.15552 
-1.20995 2.32500 1.17730 
-1.17040 2.34300 1.18641 
-1.15372 2.33400 1.18185 
-1.13371 2.34300 1.18641 
-0.94484 2.45600 1.24363 
-0.87670 2.53700 1.28465 
-0.81752 2.55900 1.29579 
-0.71936 2.71800 1.37630 
-0.71227 2.71800 1.37630 
-0.44877 2.75500 1.39503 
-0.44158 2.75500 1.39503 
-0.43439 2.75500 1.39503 
-0.42720 2.75500 1.39503 
-0.37078 2.81800 1.42693 
-0.33710 2.84400 1.44010 
-0.28036 2.87100 1.45377 
-0.06280 2.85800 1.44719 
0.15714 2.92600 1.48162 
0.38039 2.94000 1.48871 
0.56001 2.99800 1.51808 
0.72712 2.88500 1.46086 
0.77681 2.76700 1.40111 
0.78771 2.78000 1.40769 
0.85731 2.81800 1.42693 
1.12687 2.92600 1.48162 
1.13451 2.92600 1.48162 
1.14214 2.92600 1.48162 
1.23065 2.83100 1.43352 
1.33795 2.87100 1.45377 
1.36698 2.70600 1.37022 
1.41641 2.70600 1.37022 
1.42978 2.71800 1.37630 
1.58021 2.48600 1.25882 
1.59960 2.45600 1.24363 
1.59947 2.44600 1.23857 
1.61861 2.40800 1.21932 
1.85006 2.34300 1.18641 
-1.65981 2.15300 1.08458 
-1.64857 2.15300 1.08458 
-1.60924 2.15300 1.08458 
-1.56402 2.18400 1.10020 
-1.52990 2.17600 1.09617 
-1.42621 2.20000 1.10826 
-1.36632 2.22400 1.12035 
-1.36052 2.22400 1.12035 
-1.32840 2.29900 1.15813 
-1.32426 2.33400 1.17576 
-1.29029 2.36100 1.18936 
-1.15981 2.33400 1.17576 
-1.11537 2.34300 1.18030 
-1.11162 2.36100 1.18936 
-1.08752 2.41700 1.21757 
-0.86345 2.53700 1.27802 
-0.85683 2.53700 1.27802 
-0.75976 2.61300 1.31631 
-0.73844 2.65900 1.33948 
-0.63851 2.70600 1.36316 
-0.49405 2.76700 1.39389 
-0.44877 2.75500 1.38784 
-0.41462 2.76700 1.39389 
-0.01805 2.85800 1.43973 
0.06520 2.91200 1.46693 
0.24808 2.83100 1.42613 
0.37038 2.98300 1.50270 
0.45601 2.98300 1.50270 
0.65971 2.95400 1.48809 
0.86126 2.83100 1.42613 
0.93944 2.84400 1.43268 
0.96644 2.85800 1.43973 
0.97389 2.85800 1.43973 
1.40935 2.70600 1.36316 
1.47081 2.75500 1.38784 
1.53646 2.70600 1.36316 
1.56512 2.64700 1.33344 
1.57894 2.64700 1.33344 
1.84968 2.39800 1.20800 
1.83931 2.29900 1.15813 
1.92100 2.28200 1.14957 
-1.67105 2.15300 1.07896 
-1.56397 2.17600 1.09049 
-1.56402 2.18400 1.09450 
-1.53558 2.17600 1.09049 
-1.52422 2.17600 1.09049 
-1.42621 2.20000 1.10252 
-1.40325 2.20000 1.10252 
-1.31606 2.35200 1.17869 
-1.17651 2.34300 1.17418 
-1.09986 2.38900 1.19723 
-1.07302 2.42700 1.21628 
-1.03674 2.44600 1.22580 
-1.00483 2.44600 1.22580 
-0.99844 2.44600 1.22580 
-0.96653 2.44600 1.22580 
-0.79730 2.58000 1.29295 
-0.75269 2.63600 1.32102 
-0.69099 2.71800 1.36211 
-0.59169 2.71800 1.36211 
-0.37639 2.80500 1.40571 
-0.08556 2.87100 1.43879 
-0.03312 2.87100 1.43879 
0.22143 2.96900 1.48790 
0.22918 2.96900 1.48790 
0.67081 2.96900 1.48790 
0.90028 2.88500 1.44580 
1.08920 2.96900 1.48790 
1.15948 2.91200 1.45933 
1.18227 2.91200 1.45933 
1.30798 2.87100 1.43879 
1.38904 2.69400 1.35008 
1.39607 2.69400 1.35008 
1.54143 2.80500 1.40571 
1.53667 2.69400 1.35008 
1.53798 2.63600 1.32102 
1.57319 2.55900 1.28243 
1.75266 2.44600 1.22580 
1.76314 2.40800 1.20676 
1.83651 2.38900 1.19723 
1.84898 2.38900 1.19723 
1.85717 2.35200 1.17869 
1.87992 2.29000 1.14762 
1.90980 2.29000 1.14762 
-1.59830 2.16100 1.07733 
-1.50151 2.17600 1.08481 
-1.38028 2.20000 1.09678 
-1.37297 2.21600 1.10475 
-1.12327 2.33400 1.16358 
-0.82065 2.54800 1.27027 
-0.78372 2.60200 1.29719 
-0.64557 2.70600 1.34904 
-0.63145 2.70600 1.34904 
-0.08598 2.88500 1.43827 
-0.02575 2.88500 1.43827 
-0.00319 2.91200 1.45173 
0.11460 3.01200 1.50159 
0.28820 3.10400 1.54745 
0.39565 3.05800 1.52452 
0.47158 2.98300 1.48713 
0.78256 3.04200 1.51654 
0.81003 2.94000 1.46569 
0.82115 2.89800 1.44475 
0.84347 2.87100 1.43129 
0.85845 2.87100 1.43129 
0.91307 2.92600 1.45871 
0.92071 2.92600 1.45871 
1.20323 2.92600 1.45871 
1.21086 2.92600 1.45871 
1.23493 2.85800 1.42481 
1.53411 2.80500 1.39839 
1.54875 2.80500 1.39839 
1.53749 2.64700 1.31962 
1.81640 2.37900 1.18601 
1.92773 2.29000 1.14165 
-1.66561 2.14600 1.06426 
-1.54692 2.18400 1.08310 
-1.42674 2.19200 1.08707 
-1.37954 2.20800 1.09500 
-1.30993 2.35200 1.16642 
-1.29151 2.35200 1.16642 
-1.16429 2.34300 1.16195 
-1.13545 2.33400 1.15749 
-0.99844 2.44600 1.21303 
-0.96015 2.44600 1.21303 
-0.95376 2.44600 1.21303 
-0.90731 2.47600 1.22791 
-0.86978 2.51700 1.24824 
-0.85346 2.52700 1.25320 
-0.80060 2.56900 1.27403 
-0.72383 2.68200 1.33007 
-0.61733 2.70600 1.34197 
-0.41462 2.76700 1.37223 
-0.38193 2.79200 1.38462 
-0.33710 2.84400 1.41041 
-0.29678 2.88500 1.43075 
-0.14550 2.87100 1.42380 
-0.00321 2.92600 1.45108 
0.25976 3.15200 1.56316 
0.27481 3.13600 1.55522 
0.44472 3.01200 1.49373 
0.45258 3.01200 1.49373 
0.65695 3.01200 1.49373 
0.71197 3.01200 1.49373 
0.75476 3.05800 1.51654 
1.04205 3.05800 1.51654 
1.15567 3.04200 1.50861 
1.38964 2.88500 1.43075 
1.39788 2.87100 1.42380 
1.54990 2.75500 1.36627 
1.53683 2.68200 1.33007 
1.54486 2.63600 1.30726 
1.55394 2.51700 1.24824 
1.73419 2.45600 1.21799 
1.73278 2.43600 1.20807 
1.75172 2.42700 1.20361 
-1.46713 2.18400 1.07740 
-1.41014 2.18400 1.07740 
-1.38028 2.20000 1.08529 
-1.36303 2.25700 1.11341 
-1.34240 2.28200 1.12575 
-1.32840 2.29900 1.13413 
-1.17651 2.34300 1.15584 
-0.79056 2.58000 1.27275 
-0.77693 2.60200 1.28361 
-0.74202 2.64700 1.30581 
-0.36907 2.80500 1.38375 
-0.31782 2.87100 1.41631 
-0.29056 2.89800 1.42963 
-0.15299 2.87100 1.41631 
-0.03359 2.91200 1.43654 
-0.01848 2.92600 1.44344 
0.14749 3.04200 1.50067 
0.17221 3.05800 1.50856 
0.25289 3.16900 1.56332 
0.28059 3.20200 1.57960 
0.37250 3.20200 1.57960 
0.37884 3.18500 1.57121 
0.75435 3.08900 1.52385 
0.77421 3.10400 1.53125 
0.84523 2.98300 1.47156 
1.05503 3.12000 1.53915 
1.14934 3.08900 1.52385 
1.19536 3.04200 1.50067 
1.24239 2.85800 1.40990 
1.25115 2.84400 1.40299 
1.43609 2.73000 1.34675 
1.49142 2.78000 1.37142 
1.56582 2.59100 1.27818 
1.71437 2.44600 1.20665 
1.81764 2.32500 1.14696 
1.81211 2.26500 1.11736 
-1.63729 2.13100 1.04570 
-1.54694 2.17600 1.06778 
-1.47311 2.17600 1.06778 
-1.42201 2.17600 1.06778 
-1.31309 2.32500 1.14089 
-1.29880 2.34300 1.14972 
-1.14763 2.33400 1.14531 
-1.07091 2.40800 1.18162 
-1.05793 2.43600 1.19536 
-1.04951 2.44600 1.20027 
-1.03036 2.44600 1.20027 
-0.96015 2.44600 1.20027 
-0.95376 2.44600 1.20027 
-0.91651 2.46600 1.21008 
-0.87252 2.50600 1.22971 
-0.84027 2.52700 1.24001 
-0.79056 2.58000 1.26602 
-0.75269 2.63600 1.29350 
-0.64557 2.70600 1.32785 
-0.58202 2.70600 1.32785 
-0.49190 2.75500 1.35190 
-0.46812 2.74200 1.34552 
-0.39651 2.79200 1.37005 
-0.31782 2.87100 1.40882 
-0.11610 2.88500 1.41569 
-0.05639 2.91200 1.42894 
0.03600 3.01200 1.47801 
0.06017 3.04200 1.49273 
0.14900 3.07300 1.50794 
0.31901 3.25300 1.59627 
0.49678 3.04200 1.49273 
0.54441 3.04200 1.49273 
0.77401 3.13600 1.53885 
1.00102 3.10400 1.52315 
1.19344 3.12000 1.53100 
1.22559 3.05800 1.50058 
1.22501 2.99800 1.47114 
1.22866 2.96900 1.45691 
1.58639 2.50600 1.22971 
1.63925 2.52700 1.24001 
1.74923 2.38900 1.17230 
1.78643 2.31600 1.13648 
1.78629 2.30800 1.13255 
1.81802 2.26500 1.11145 
1.91131 2.29900 1.12813 
1.93371 2.29000 1.12372 
-1.64285 2.13100 1.04013 
-1.52422 2.17600 1.06210 
-1.51854 2.17600 1.06210 
-1.49583 2.17600 1.06210 
-1.48447 2.17600 1.06210 
-1.41065 2.17600 1.06210 
-1.32918 2.29000 1.11774 
-1.28046 2.34300 1.14361 
-1.21931 2.34300 1.14361 
-1.04312 2.44600 1.19388 
-0.72059 2.67000 1.30322 
-0.58908 2.70600 1.32079 
-0.44877 2.75500 1.34471 
-0.44158 2.75500 1.34471 
-0.39835 2.80500 1.36911 
-0.34872 2.81800 1.37546 
-0.27676 2.91200 1.42134 
-0.03391 2.94000 1.43500 
0.04429 3.04200 1.48479 
0.07645 3.05800 1.49260 
0.10088 3.07300 1.49992 
0.22923 3.18500 1.55459 
0.32068 3.27000 1.59608 
0.42040 3.18500 1.55459 
0.61221 3.10400 1.51505 
0.61731 3.08900 1.50773 
0.64304 3.05800 1.49260 
0.86332 3.10400 1.51505 
1.23801 3.08900 1.50773 
1.31052 2.84400 1.38815 
1.44834 2.76700 1.35056 
1.56677 2.50600 1.22317 
1.66617 2.54800 1.24367 
1.69016 2.47600 1.20853 
1.71372 2.42700 1.18461 
1.74811 2.37900 1.16118 
1.79028 2.29000 1.11774 
1.78292 2.27300 1.10944 
-1.64222 2.12300 1.03069 
-1.62060 2.13100 1.03457 
-1.59266 2.16100 1.04914 
-1.55328 2.16900 1.05302 
-1.46744 2.17600 1.05642 
-1.43337 2.17600 1.05642 
-1.37594 2.18400 1.06030 
-1.35714 2.25700 1.09574 
-1.31041 2.29900 1.11613 
-1.29489 2.32500 1.12876 
-1.28657 2.34300 1.13750 
-1.19027 2.33400 1.13313 
-1.18418 2.33400 1.13313 
-1.12204 2.37000 1.15060 
-1.11585 2.37000 1.15060 
-1.11388 2.37900 1.15497 
-1.07491 2.41700 1.17342 
-1.05380 2.45600 1.19236 
-0.87252 2.50600 1.21663 
-0.79730 2.58000 1.25256 
-0.52066 2.75500 1.33752 
-0.39835 2.80500 1.36179 
-0.32384 2.85800 1.38752 
-0.29812 2.89800 1.40694 
-0.26156 2.91200 1.41374 
-0.16127 2.88500 1.40063 
-0.14621 2.88500 1.40063 
-0.13115 2.88500 1.40063 
-0.05666 2.92600 1.42054 
-0.00329 2.99800 1.45549 
0.04453 3.05800 1.48462 
0.10088 3.07300 1.49190 
0.17570 3.12000 1.51472 
0.19395 3.15200 1.53026 
0.21154 3.16900 1.53851 
0.45717 3.15200 1.53026 
0.48758 3.13600 1.52249 
0.65900 3.05800 1.48462 
0.82403 3.23600 1.57104 
0.84490 3.21900 1.56278 
0.85260 3.18500 1.54628 
0.87222 3.13600 1.52249 
0.96862 3.10400 1.50695 
1.01371 3.16900 1.53851 
1.12282 3.27000 1.58754 
1.23547 2.91200 1.41374 
1.29714 2.83100 1.37441 
1.47600 2.79200 1.35548 
1.52700 2.79200 1.35548 
1.57365 2.51700 1.22197 
1.69331 2.56900 1.24722 
1.69340 2.55900 1.24236 
1.77106 2.27300 1.10351 
1.86199 2.29000 1.11177 
1.90531 2.29900 1.11613 
-1.62617 2.13100 1.02901 
-1.59830 2.16100 1.04350 
-1.45040 2.17600 1.05074 
-1.34240 2.28200 1.10193 
-1.30349 2.30800 1.11448 
-1.15981 2.33400 1.12704 
-1.14421 2.35200 1.13573 
-1.13010 2.36100 1.14007 
-1.06227 2.44600 1.18112 
-1.00483 2.44600 1.18112 
-0.90161 2.49600 1.20526 
-0.77340 2.61300 1.26176 
-0.65969 2.70600 1.30667 
-0.56083 2.70600 1.30667 
-0.41836 2.79200 1.34819 
-0.35033 2.83100 1.36703 
-0.31638 2.85800 1.38006 
-0.23117 2.91200 1.40614 
-0.22357 2.91200 1.40614 
-0.20737 2.89800 1.39938 
0.06078 3.07300 1.48388 
0.18573 3.15200 1.52203 
0.21261 3.18500 1.53796 
0.38042 3.27000 1.57901 
0.49520 3.18500 1.53796 
0.59195 3.16900 1.53024 
0.62168 3.15200 1.52203 
0.86170 3.21900 1.55438 
0.88040 3.13600 1.51430 
1.23377 2.92600 1.41290 
1.27341 2.84400 1.37330 
1.50445 2.81800 1.36075 
1.53552 2.75500 1.33033 
1.53446 2.49600 1.20526 
1.62662 2.55900 1.23568 
1.69522 2.44600 1.18112 
1.70030 2.40800 1.16277 
1.76569 2.36100 1.14007 
1.77626 2.25700 1.08985 
1.90749 2.27300 1.09758 
-1.63173 2.13100 1.02345 
-1.56460 2.16900 1.04170 
-1.55328 2.16900 1.04170 
-1.41221 2.16100 1.03786 
-1.38450 2.15300 1.03402 
-1.02175 2.45600 1.17954 
-0.99206 2.44600 1.17474 
-0.92395 2.48600 1.19395 
-0.73511 2.64700 1.27127 
-0.73150 2.65900 1.27703 
-0.70983 2.68200 1.28808 
-0.60320 2.70600 1.29960 
-0.58202 2.70600 1.29960 
-0.57496 2.70600 1.29960 
-0.48243 2.74200 1.31689 
-0.15374 2.88500 1.38557 
-0.13868 2.88500 1.38557 
-0.09438 2.91200 1.39854 
-0.02663 2.98300 1.43264 
0.17750 3.15200 1.51380 
0.31730 3.32400 1.59641 
0.56169 3.18500 1.52965 
0.88040 3.13600 1.50612 
1.13518 3.30600 1.58777 
1.17606 3.32400 1.59641 
1.39710 2.78000 1.33514 
1.44627 2.80500 1.34715 
1.46091 2.80500 1.34715 
1.51309 2.55900 1.22901 
1.51994 2.53700 1.21844 
1.58615 2.53700 1.21844 
1.63968 2.56900 1.23381 
1.69464 2.43600 1.16993 
1.69404 2.41700 1.16081 
1.72913 2.37000 1.13823 
1.78256 2.26500 1.08781 
1.82393 2.26500 1.08781 
-1.63173 2.13100 1.01789 
-1.62081 2.14600 1.02505 
-1.51932 2.16900 1.03604 
-1.34536 2.25700 1.07807 
-1.31723 2.29000 1.09384 
-1.24989 2.34300 1.11915 
-1.24377 2.34300 1.11915 
-1.17199 2.33400 1.11485 
-1.05380 2.45600 1.17313 
-1.02175 2.45600 1.17313 
-0.94225 2.46600 1.17791 
-0.90263 2.51700 1.20227 
-0.86345 2.53700 1.21182 
-0.82423 2.58000 1.23236 
-0.79393 2.59100 1.23761 
-0.41108 2.79200 1.33362 
-0.19981 2.89800 1.38425 
0.05330 3.10400 1.48265 
0.42937 3.25300 1.55382 
0.55380 3.23600 1.54570 
0.62649 3.21900 1.53758 
0.67465 3.16900 1.51370 
0.71130 3.18500 1.52134 
0.75196 3.25300 1.55382 
0.80306 3.32400 1.58774 
0.87080 3.25300 1.55382 
0.87386 3.20200 1.52946 
1.05203 3.23600 1.54570 
1.27642 3.27000 1.56194 
1.24985 2.85800 1.36515 
1.31984 2.75500 1.31595 
1.41161 2.78000 1.32789 
1.44627 2.80500 1.33983 
1.66048 2.59100 1.23761 
1.67400 2.59100 1.23761 
1.70672 2.56900 1.22710 
1.69662 2.47600 1.18268 
1.76911 2.32500 1.11056 
1.76483 2.26500 1.08190 
1.77074 2.26500 1.08190 
1.80620 2.26500 1.08190 
1.87531 2.29900 1.09814 
1.88131 2.29900 1.09814 
-1.61522 2.16100 1.02658 
-1.52498 2.16900 1.03038 
-1.37090 2.17600 1.03371 
-1.36880 2.20000 1.04511 
-1.34587 2.24800 1.06791 
-1.22543 2.34300 1.11304 
-1.12009 2.37900 1.13014 
-1.10610 2.38900 1.13489 
-1.06227 2.44600 1.16197 
-0.97291 2.44600 1.16197 
-0.88332 2.53700 1.20520 
-0.82423 2.58000 1.22563 
-0.70983 2.68200 1.27408 
-0.53731 2.73000 1.29688 
-0.53252 2.74200 1.30258 
-0.51347 2.75500 1.30876 
-0.49190 2.75500 1.30876 
-0.44877 2.75500 1.30876 
-0.39835 2.80500 1.33251 
-0.25274 2.89800 1.37669 
-0.03458 2.99800 1.42420 
0.12685 3.12000 1.48215 
0.22210 3.20200 1.52111 
0.24008 3.21900 1.52918 
0.27802 3.27000 1.55341 
0.43162 3.27000 1.55341 
0.45722 3.27000 1.55341 
0.67332 3.20200 1.52111 
1.08015 3.27000 1.55341 
1.22197 3.37900 1.60519 
1.29349 3.27000 1.55341 
1.29385 2.79200 1.32634 
1.30920 2.71800 1.29118 
1.42499 2.79200 1.32634 
1.51878 2.83100 1.34486 
1.50560 2.56900 1.22040 
1.71403 2.58000 1.22563 
1.71158 2.51700 1.19570 
1.70348 2.48600 1.18097 
1.68773 2.40800 1.14392 
1.76569 2.36100 1.12159 
1.77057 2.34300 1.11304 
1.75920 2.27300 1.07979 
1.89331 2.29900 1.09214 
-1.41221 2.16100 1.02094 
-1.32649 2.26500 1.07007 
-1.14059 2.37000 1.11968 
-0.91281 2.52700 1.19385 
-0.87385 2.54800 1.20377 
-0.75336 2.59100 1.22409 
-0.72130 2.64700 1.25055 
-0.66084 2.68200 1.26708 
-0.57944 2.69400 1.27275 
-0.47752 2.75500 1.30157 
-0.46516 2.76700 1.30724 
-0.36736 2.79200 1.31905 
-0.25914 2.88500 1.36299 
-0.23762 2.89800 1.36913 
-0.11718 2.91200 1.37574 
-0.10958 2.91200 1.37574 
0.04520 3.10400 1.46645 
0.18673 3.16900 1.49716 
0.21261 3.18500 1.50472 
0.33284 3.30600 1.56188 
0.38251 3.28800 1.55338 
0.61418 3.28800 1.55338 
0.63642 3.27000 1.54488 
0.67689 3.21900 1.52078 
0.91779 3.15200 1.48913 
1.07162 3.27000 1.54488 
1.10067 3.30600 1.56188 
1.29525 3.25300 1.53684 
1.27959 2.92600 1.38236 
1.30342 2.70600 1.27842 
1.31170 2.69400 1.27275 
1.42499 2.79200 1.31905 
1.52114 2.75500 1.30157 
1.51446 2.73000 1.28976 
1.51989 2.54800 1.20377 
1.53318 2.54800 1.20377 
1.67943 2.36100 1.11543 
1.75896 2.35200 1.11118 
1.82571 2.28200 1.07811 
1.88590 2.29000 1.08189 
1.88817 2.25700 1.06630 
-1.58158 2.16900 1.01906 
-1.54762 2.16900 1.01906 
-1.50719 2.17600 1.02235 
-1.47283 2.18400 1.02611 
-1.42875 2.16900 1.01906 
-1.38401 2.16100 1.01530 
-1.31125 2.29000 1.07591 
-1.25600 2.34300 1.10081 
-1.13441 2.37000 1.11350 
-1.13251 2.37900 1.11772 
-1.08905 2.37900 1.11772 
-0.99206 2.44600 1.14920 
-0.95254 2.47600 1.16330 
-0.94990 2.48600 1.16800 
-0.71763 2.65900 1.24928 
-0.71069 2.65900 1.24928 
-0.67484 2.68200 1.26008 
-0.57496 2.70600 1.27136 
-0.51347 2.75500 1.29438 
-0.31483 2.84400 1.33620 
-0.13931 2.89800 1.36157 
0.06986 3.12000 1.46587 
0.21981 3.16900 1.48889 
0.22923 3.18500 1.49641 
0.29508 3.27000 1.53634 
0.34147 3.30600 1.55326 
0.37393 3.28800 1.54480 
0.49079 3.32400 1.56171 
0.61223 3.32400 1.56171 
0.78990 3.37900 1.58755 
0.85048 3.30600 1.55326 
0.89416 3.18500 1.49641 
0.92274 3.16900 1.48889 
1.21962 3.39700 1.59601 
1.32189 2.88500 1.35546 
1.42499 2.79200 1.31176 
1.51916 2.81800 1.32398 
1.49589 2.65900 1.24928 
1.68111 2.60200 1.22250 
1.75387 2.37000 1.11350 
1.76021 2.28200 1.07215 
1.77212 2.28200 1.07215 
1.82732 2.29900 1.08014 
-1.57592 2.16900 1.01340 
-1.56460 2.16900 1.01340 
-1.49539 2.19200 1.02415 
-1.41177 2.16900 1.01340 
-1.39479 2.16900 1.01340 
-1.36306 2.20000 1.02788 
-1.35073 2.20800 1.03162 
-1.06462 2.40800 1.12507 
-0.88715 2.54800 1.19048 
-0.83769 2.58000 1.20543 
-0.82098 2.59100 1.21057 
-0.69969 2.67000 1.24748 
-0.65789 2.67000 1.24748 
-0.63001 2.67000 1.24748 
-0.57496 2.70600 1.26430 
-0.47460 2.78000 1.29887 
-0.46735 2.78000 1.29887 
-0.44751 2.79200 1.30448 
-0.34550 2.79200 1.30448 
-0.22249 2.89800 1.35400 
-0.18468 2.89800 1.35400 
-0.17712 2.89800 1.35400 
-0.06555 2.98300 1.39372 
0.01280 3.10400 1.45025 
0.05357 3.12000 1.45773 
0.10295 3.13600 1.46520 
0.21863 3.15200 1.47268 
0.28357 3.23600 1.51192 
0.34819 3.28800 1.53622 
0.38251 3.28800 1.53622 
0.48212 3.32400 1.55304 
0.56322 3.34200 1.56145 
0.63825 3.32400 1.55304 
0.82070 3.39700 1.58715 
0.89416 3.18500 1.48810 
1.03209 3.25300 1.51987 
1.13619 3.36000 1.56986 
1.15143 3.37900 1.57874 
1.23735 3.39700 1.58715 
1.32197 3.34200 1.56145 
1.31719 3.01200 1.40727 
1.33540 2.89800 1.35400 
1.32060 2.81800 1.31663 
1.31570 2.79200 1.30448 
1.41887 2.78000 1.29887 
1.48122 2.84400 1.32877 
1.52645 2.55900 1.19562 
1.59963 2.60200 1.21571 
1.72601 2.54800 1.19048 
1.73266 2.54800 1.19048 
1.76732 2.29900 1.07414 
1.79028 2.29000 1.06993 
1.86740 2.28200 1.06620 
1.88651 2.24800 1.05031 
-1.57592 2.16900 1.00774 
-1.53543 2.19200 1.01843 
-1.52971 2.19200 1.01843 
-1.41743 2.16900 1.00774 
-1.33629 2.23200 1.03701 
-1.24377 2.34300 1.08858 
-1.16707 2.36100 1.09694 
-1.10768 2.37900 1.10531 
-1.07663 2.37900 1.10531 
-0.99844 2.44600 1.13644 
-0.97291 2.44600 1.13644 
-0.93792 2.50600 1.16431 
-0.82447 2.60200 1.20892 
-0.70748 2.64700 1.22982 
-0.26417 2.85800 1.32786 
-0.24408 2.88500 1.34040 
-0.23655 2.88500 1.34040 
-0.01145 3.08900 1.43518 
0.16105 3.15200 1.46445 
0.19395 3.15200 1.46445 
0.31053 3.25300 1.51138 
0.32921 3.27000 1.51928 
0.35482 3.27000 1.51928 
0.56625 3.36000 1.56109 
0.60682 3.34200 1.55273 
0.69897 3.32400 1.54436 
0.74162 3.36000 1.56109 
0.88690 3.21900 1.49558 
0.92400 3.20200 1.48768 
1.32329 3.43600 1.59640 
1.31909 3.27000 1.51928 
1.30692 3.21900 1.49558 
1.37222 3.01200 1.39941 
1.33531 2.81800 1.30927 
1.35773 2.73000 1.26839 
1.48468 2.59100 1.20381 
1.65487 2.62500 1.21960 
1.66094 2.61300 1.21403 
1.72601 2.54800 1.18383 
1.69758 2.35200 1.09276 
1.77057 2.34300 1.08858 
1.76638 2.29000 1.06396 
1.77235 2.29000 1.06396 
1.77833 2.29000 1.06396 
1.83211 2.29000 1.06396 
1.87190 2.27300 1.05606 
1.89149 2.24000 1.04073 
-1.67666 2.15300 0.99469 
-1.60988 2.16900 1.00208 
-1.51827 2.19200 1.01271 
-1.47251 2.19200 1.01271 
-1.37526 2.19200 1.01271 
-1.36225 2.20800 1.02010 
-1.32058 2.26500 1.04643 
-1.12630 2.37900 1.09910 
-0.96653 2.44600 1.13005 
-0.90045 2.54800 1.17718 
-0.82098 2.59100 1.19704 
-0.73308 2.59100 1.19704 
-0.64395 2.67000 1.23354 
-0.63436 2.65900 1.22846 
-0.55623 2.71800 1.25572 
-0.50628 2.75500 1.27281 
-0.47460 2.78000 1.28436 
-0.36578 2.78000 1.28436 
-0.35127 2.78000 1.28436 
-0.32515 2.80500 1.29591 
-0.27909 2.85800 1.32040 
-0.17712 2.89800 1.33888 
0.61354 3.37900 1.56110 
0.67147 3.36000 1.55232 
0.76751 3.39700 1.56942 
0.83358 3.34200 1.54401 
1.48895 2.65900 1.22846 
1.50560 2.56900 1.18688 
1.75896 2.35200 1.08663 
1.77932 2.29900 1.06214 
1.80932 2.29900 1.06214 
1.86003 2.27300 1.05013 
-1.61522 2.16100 0.99274 
-1.34311 2.22400 1.02169 
-1.33150 2.22400 1.02169 
-1.29592 2.31600 1.06395 
-1.27310 2.35200 1.08049 
-1.17323 2.36100 1.08462 
-1.02869 2.42700 1.11494 
-0.94341 2.48600 1.14205 
-0.93792 2.50600 1.15123 
-0.85423 2.56900 1.18018 
-0.72940 2.60200 1.19534 
-0.72567 2.61300 1.20039 
-0.70748 2.64700 1.21601 
-0.67182 2.67000 1.22657 
-0.64130 2.65900 1.22152 
-0.61354 2.65900 1.22152 
-0.56332 2.71800 1.24862 
-0.50362 2.78000 1.27711 
-0.48911 2.78000 1.27711 
-0.44227 2.80500 1.28859 
-0.36578 2.78000 1.27711 
-0.32515 2.80500 1.28859 
-0.16956 2.89800 1.33132 
0.09525 3.15200 1.44800 
0.16842 3.13600 1.44065 
0.27079 3.18500 1.46316 
0.28059 3.20200 1.47097 
0.37844 3.25300 1.49440 
0.49611 3.36000 1.54355 
0.67000 3.39700 1.56055 
0.78524 3.39700 1.56055 
0.90003 3.23600 1.48659 
1.08932 3.32400 1.52702 
1.13619 3.36000 1.54355 
1.37842 3.15200 1.44800 
1.36918 2.85800 1.31294 
1.35213 2.79200 1.28262 
1.51834 2.85800 1.31294 
1.49219 2.56900 1.18018 
1.53241 2.56900 1.18018 
1.66001 2.55900 1.17558 
1.66560 2.53700 1.16548 
1.67222 2.53700 1.16548 
1.69200 2.52700 1.16088 
1.71815 2.51700 1.15629 
1.74105 2.36100 1.08462 
1.82614 2.29000 1.05201 
1.88228 2.25700 1.03685 
1.89237 2.24800 1.03271 
-1.63172 2.15300 0.98345 
-1.52381 2.20000 1.00492 
-1.36225 2.20800 1.00857 
-1.32181 2.25700 1.03096 
-1.30745 2.27300 1.03826 
-1.30667 2.28200 1.04238 
-1.28882 2.32500 1.06202 
-1.28046 2.34300 1.07024 
-1.03706 2.41700 1.10404 
-0.99844 2.44600 1.11729 
-0.96653 2.44600 1.11729 
-0.84083 2.56900 1.17347 
-0.77036 2.58000 1.17850 
-0.73308 2.59100 1.18352 
-0.72940 2.60200 1.18855 
-0.60215 2.67000 1.21961 
-0.51088 2.78000 1.26985 
-0.49122 2.79200 1.27533 
-0.42961 2.81800 1.28721 
-0.40567 2.80500 1.28127 
-0.39835 2.80500 1.28127 
-0.35127 2.78000 1.26985 
-0.33822 2.79200 1.27533 
-0.27163 2.85800 1.30548 
0.08658 3.13600 1.43247 
0.47344 3.32400 1.51834 
0.60795 3.39700 1.55169 
0.64341 3.39700 1.55169 
0.69659 3.39700 1.55169 
0.84230 3.34200 1.52656 
0.85911 3.30600 1.51012 
0.86682 3.27000 1.49368 
0.94881 3.28800 1.50190 
0.95739 3.28800 1.50190 
1.01125 3.32400 1.51834 
1.19987 3.34200 1.52656 
1.23079 3.37900 1.54346 
1.35604 3.23600 1.47814 
1.40116 3.18500 1.45485 
1.46614 2.85800 1.30548 
1.50641 2.55900 1.16890 
1.51977 2.55900 1.16890 
1.62062 2.62500 1.19905 
1.64716 2.60200 1.18855 
1.65952 2.54800 1.16388 
1.79248 2.31600 1.05791 
1.82571 2.28200 1.04238 
-1.69417 2.16100 0.98146 
-1.32939 2.24000 1.01734 
-1.28163 2.33400 1.06004 
-1.20404 2.36100 1.07230 
-1.19171 2.36100 1.07230 
-1.11778 2.36100 1.07230 
-1.04375 2.38900 1.08502 
-0.92233 2.51700 1.14315 
-0.90318 2.53700 1.15223 
-0.65517 2.65900 1.20764 
-0.54683 2.74200 1.24534 
-0.33822 2.79200 1.26805 
-0.31931 2.81800 1.27986 
-0.29862 2.83100 1.28576 
0.02930 3.13600 1.42428 
0.16105 3.15200 1.43155 
0.18573 3.15200 1.43155 
0.34088 3.21900 1.46198 
0.34928 3.21900 1.46198 
0.49611 3.36000 1.52602 
0.75398 3.41600 1.55145 
0.86379 3.32400 1.50967 
0.87535 3.27000 1.48514 
1.09799 3.32400 1.50967 
1.19341 3.32400 1.50967 
1.34454 3.51500 1.59641 
1.37986 3.53500 1.60550 
1.36067 3.28800 1.49332 
1.47549 3.20200 1.45426 
1.42128 2.98300 1.35479 
1.40176 2.92600 1.32891 
1.41535 2.83100 1.28576 
1.48548 2.56900 1.16677 
1.50659 2.54800 1.15723 
1.64037 2.60200 1.18176 
1.64020 2.59100 1.17676 
1.67140 2.50600 1.13815 
1.69079 2.49600 1.13361 
1.69464 2.43600 1.10636 
1.68603 2.37900 1.08047 
1.67943 2.36100 1.07230 
1.74669 2.35200 1.06821 
1.80641 2.33400 1.06004 
1.81250 2.33400 1.06004 
1.82874 2.31600 1.05186 
-1.64321 2.14600 0.96905 
-1.60362 2.15300 0.97221 
-1.59266 2.16100 0.97583 
-1.58101 2.17600 0.98260 
-1.54687 2.19200 0.98982 
-1.49539 2.19200 0.98982 
-1.47251 2.19200 0.98982 
-1.46107 2.19200 0.98982 
-1.36052 2.22400 1.00427 
-1.27181 2.36100 1.06614 
-1.18103 2.35200 1.06207 
-1.08283 2.35200 1.06207 
-1.00708 2.43600 1.10001 
-0.93961 2.47600 1.11807 
-0.72940 2.60200 1.17497 
-0.71530 2.62500 1.18535 
-0.70057 2.64700 1.19529 
-0.64824 2.65900 1.20070 
-0.63436 2.65900 1.20070 
-0.47155 2.80500 1.26663 
-0.46423 2.80500 1.26663 
-0.40020 2.81800 1.27250 
-0.34711 2.80500 1.26663 
-0.24408 2.88500 1.30276 
-0.11887 2.95400 1.33392 
0.23508 3.15200 1.42332 
0.28741 3.18500 1.43823 
0.51364 3.36000 1.51725 
0.88017 3.28800 1.48474 
1.12655 3.30600 1.49286 
1.13518 3.30600 1.49286 
1.26394 3.39700 1.53396 
1.39040 3.51500 1.58724 
1.40561 3.25300 1.46893 
1.43630 2.85800 1.29057 
1.53411 2.80500 1.26663 
1.63367 2.61300 1.17993 
1.64638 2.56900 1.16006 
1.83762 2.28200 1.03047 
-1.67105 2.15300 0.96659 
-1.64881 2.14600 0.96345 
-1.64321 2.14600 0.96345 
-1.63151 2.13800 0.95986 
-1.62035 2.13800 0.95986 
-1.60401 2.14600 0.96345 
-1.58112 2.18400 0.98051 
-1.52971 2.19200 0.98410 
-1.48993 2.18400 0.98051 
-1.41345 2.21600 0.99488 
-1.38954 2.22400 0.99847 
-1.34211 2.23200 1.00206 
-1.29930 2.29000 1.02810 
-1.28046 2.34300 1.05190 
-1.27181 2.36100 1.05998 
-1.07465 2.36100 1.05998 
-0.93961 2.47600 1.11161 
-0.88643 2.52700 1.13450 
-0.56083 2.70600 1.21487 
-0.55623 2.71800 1.22025 
-0.53504 2.75500 1.23686 
-0.31931 2.81800 1.26515 
-0.28655 2.85800 1.28311 
-0.18557 2.91200 1.30735 
0.21863 3.15200 1.41510 
0.22686 3.15200 1.41510 
0.46225 3.30600 1.48424 
0.79426 3.43600 1.54260 
0.98184 3.34200 1.50040 
1.02860 3.32400 1.49232 
1.10575 3.27000 1.46808 
1.27993 3.41600 1.53362 
1.38909 3.53500 1.58705 
1.45740 2.88500 1.29523 
1.54833 2.83100 1.27099 
1.54157 2.79200 1.25348 
1.49329 2.54800 1.14393 
1.64665 2.55900 1.14887 
1.73389 2.34300 1.05190 
1.75223 2.34300 1.05190 
1.89331 2.29900 1.03214 
1.91504 2.28200 1.02451 
-1.68228 2.15300 0.96098 
-1.60961 2.14600 0.95785 
-1.54687 2.19200 0.97838 
-1.43818 2.19200 0.97838 
-1.38373 2.22400 0.99267 
-1.37212 2.22400 0.99267 
-1.27181 2.36100 1.05382 
-1.08697 2.36100 1.05382 
-1.05622 2.38900 1.06631 
-0.96893 2.43600 1.08729 
-0.95622 2.43600 1.08729 
-0.88332 2.53700 1.13237 
-0.87670 2.53700 1.13237 
-0.78022 2.61300 1.16629 
-0.70454 2.63600 1.17656 
-0.66905 2.65900 1.18683 
-0.62742 2.65900 1.18683 
-0.43898 2.83100 1.26360 
-0.27287 2.87100 1.28145 
-0.01961 3.10400 1.38545 
0.36415 3.20200 1.42919 
0.39128 3.21900 1.43678 
0.65818 3.47500 1.55104 
0.87582 3.47500 1.55104 
1.11959 3.23600 1.44437 
1.37675 3.30600 1.47561 
1.45014 3.02700 1.35108 
1.52393 2.92600 1.30600 
1.55447 2.92600 1.30600 
1.51677 2.64700 1.18147 
1.61321 2.61300 1.16629 
1.65244 2.52700 1.12791 
1.64873 2.37000 1.05783 
1.76510 2.35200 1.04980 
1.83809 2.29000 1.02213 
1.85004 2.29000 1.02213 
1.88131 2.29900 1.02614 
1.92931 2.29900 1.02614 
-1.60401 2.14600 0.95225 
-1.58682 2.18400 0.96911 
-1.55832 2.18400 0.96911 
-1.48447 2.17600 0.96556 
-1.47311 2.17600 0.96556 
-1.46176 2.17600 0.96556 
-1.43863 2.18400 0.96911 
-1.20709 2.34300 1.03967 
-1.17651 2.34300 1.03967 
-1.03706 2.41700 1.07250 
-1.01602 2.42700 1.07694 
-0.19317 2.91200 1.29215 
-0.03545 3.07300 1.36359 
-0.00340 3.10400 1.37735 
0.02915 3.12000 1.38445 
0.11993 3.15200 1.39865 
0.49345 3.34200 1.48296 
0.57827 3.37900 1.49938 
0.70737 3.49400 1.55040 
1.07197 3.32400 1.47497 
1.16792 3.25300 1.44347 
1.43292 3.21900 1.42838 
1.48384 3.20200 1.42083 
1.48509 3.16900 1.40619 
1.45701 3.05800 1.35694 
1.47104 2.91200 1.29215 
1.49384 2.91200 1.29215 
1.53224 2.58000 1.14483 
1.63996 2.58000 1.14483 
1.64472 2.46600 1.09425 
1.66711 2.36100 1.04765 
1.72256 2.36100 1.04765 
1.72872 2.36100 1.04765 
1.90731 2.31600 1.02769 
-1.61504 2.13100 0.94003 
-1.59830 2.16100 0.95327 
-1.58112 2.18400 0.96341 
-1.51273 2.18400 0.96341 
-1.48447 2.17600 0.95989 
-1.47404 2.16900 0.95680 
-1.46838 2.16900 0.95680 
-1.25810 2.37000 1.04546 
-1.13983 2.34300 1.03355 
-1.05205 2.40800 1.06223 
-1.03502 2.42700 1.07061 
-1.00335 2.42700 1.07061 
-0.78704 2.61300 1.15266 
-0.70454 2.63600 1.16280 
-0.64395 2.67000 1.17780 
-0.61608 2.67000 1.17780 
-0.56538 2.69400 1.18839 
-0.47887 2.80500 1.23735 
-0.44842 2.84400 1.25456 
-0.13497 2.96900 1.30970 
0.14538 3.16900 1.39792 
0.17936 3.18500 1.40498 
0.26388 3.20200 1.41248 
0.33728 3.18500 1.40498 
0.46225 3.30600 1.45836 
0.53418 3.37900 1.49056 
0.54300 3.37900 1.49056 
0.82590 3.49400 1.54129 
1.25220 3.34200 1.47424 
1.35018 3.43600 1.51570 
1.37188 3.37900 1.49056 
1.37675 3.30600 1.45836 
1.57741 2.89800 1.27838 
1.57788 2.83100 1.24882 
1.57071 2.79200 1.23162 
1.51173 2.59100 1.14295 
1.63968 2.56900 1.13325 
1.64622 2.54800 1.12398 
1.63692 2.39800 1.05782 
1.73489 2.36100 1.04149 
1.87625 2.40800 1.06223 
1.86229 2.34300 1.03355 
1.85254 2.30800 1.01811 
1.89522 2.31600 1.02164 
-1.62617 2.13100 0.93447 
-1.60924 2.15300 0.94412 
-1.59804 2.17600 0.95421 
-1.50719 2.17600 0.95421 
-1.35376 2.23200 0.97876 
-1.32058 2.26500 0.99323 
-1.08905 2.37900 1.04323 
-1.08116 2.38900 1.04761 
-0.95622 2.43600 1.06822 
